<?xml version="1.0"?>
<opencv_storage>
<gps_time_stamp>39843</gps_time_stamp>
<gps_x>-1.4051871299743652e+001</gps_x>
<gps_y>1.5214838981628418e+000</gps_y>
<gps_z>-4.2915534973144531e+000</gps_z>
<image_time_stamp>27764</image_time_stamp>
<disparity type_id="opencv-matrix">
  <rows>91</rows>
  <cols>320</cols>
  <dt>s</dt>
  <data>
    0 0 0 0 0 0 0 0 0 0 0 0 0 0 0 0 0 0 0 0 0 0 0 0 0 0 0 0 0 0 0 0 0 0 0 0 0 0 0 0 0 0 0 0 0 0 0 0 0 0 0 0 0 0 0 0 0 0 0 0 0 0 0 0 0 0 0 0 0 10 0 0 9 9 9 9 9 -209 9 10 10 -209 11 10 11 0 9 12 -193 -193 0 0 0 0 0 0 0 0 0 0 0 0 0 0 0 0 0 0 0 0 0 0 0 0 0 0 0 0 9 9 9 0 0 0 0 0 0 10 0 0 0 0 9 10 10 10 0 0 0 0 9 10 10 10 9 10 0 0 0 0 0 0 0 0 0 0 0 8 10 13 15 17 17 15 13 11 11 12 12 10 9 10 10 10 10 10 9 0 9 10 9 0 10 0 0 -177 13 13 13 12 11 11 11 13 9 9 10 9 10 11 13 13 11 11 13 13 14 13 18 12 12 13 19 13 13 13 13 12 13 12 12 9 15 12 15 13 12 13 14 13 16 11 12 9 10 13 12 14 17 11 15 21 17 17 16 18 17 17 20 21 -193 27 29 30 31 34 34 24 23 22 22 18 17 16 16 14 17 17 17 12 20 21 21 22 21 24 25 26 24 -193 25 25 26 24 24 24 24 25 25 25 26 27 29 31 32 31 31 31 31 29 29 29 29 27 25 25 26 28 28 25 25 25 28 28 28 0 0 0 0 0
    0 0 0 0 0 0 0 0 0 0 0 0 0 0 0 0 0 0 0 0 0 0 0 0 0 0 0 0 0 0 0 0 0 0 0 0 0 0 0 0 0 0 0 0 0 0 0 0 0 0 0 0 0 0 0 0 0 0 0 0 0 0 0 0 0 0 0 0 0 11 9 9 -193 9 9 0 9 -209 0 9 10 -209 12 11 11 0 0 12 0 9 0 0 0 0 0 0 0 0 0 0 0 0 0 0 0 0 0 0 0 0 0 0 0 0 0 0 0 0 9 9 0 0 0 0 0 0 0 10 0 0 0 0 9 9 9 10 0 0 0 0 9 10 10 10 9 10 9 9 0 0 0 0 0 0 0 0 0 9 10 12 13 15 15 14 13 11 11 12 11 10 9 10 10 10 10 10 9 9 9 10 9 0 9 0 0 -177 12 12 12 11 11 10 11 13 9 10 10 10 11 12 14 14 11 11 14 14 13 11 17 11 12 12 19 13 13 13 13 12 13 11 11 9 14 12 15 13 13 13 14 13 16 11 11 9 10 12 13 14 17 12 15 22 18 17 16 18 17 17 20 21 -193 27 28 29 30 32 31 23 21 20 21 17 17 16 16 13 17 17 18 12 20 21 22 22 21 25 25 27 24 -193 26 26 26 24 24 25 25 26 25 26 26 27 28 30 32 31 31 31 30 29 29 29 29 27 26 26 27 29 28 26 26 25 29 29 28 0 0 0 0 0
    0 0 0 0 0 0 0 0 0 0 0 0 0 0 0 0 0 0 0 0 0 0 0 0 0 0 0 0 0 0 0 0 0 0 0 0 0 0 0 0 0 0 0 0 0 0 0 0 0 0 0 0 0 0 0 0 0 0 0 0 0 0 0 0 0 0 0 0 0 12 9 9 9 0 0 0 0 0 0 9 -209 -209 15 14 14 11 10 12 0 0 0 0 0 0 0 0 0 0 0 0 0 0 0 0 0 0 0 0 0 0 0 0 0 0 0 0 0 0 9 9 0 0 0 0 0 0 0 10 0 9 0 0 9 9 9 9 0 0 0 0 10 11 11 11 10 11 9 9 9 0 0 0 0 0 0 0 0 0 9 10 11 13 13 12 13 11 11 12 11 10 9 10 10 10 10 10 9 9 10 10 9 0 9 0 0 -177 12 12 12 11 11 11 11 13 9 10 10 10 11 12 15 15 12 12 15 16 14 12 17 11 12 12 19 13 13 13 13 12 13 11 11 9 13 11 14 12 13 12 14 13 15 11 11 10 10 13 14 15 17 13 15 22 18 18 16 17 16 16 19 20 -193 26 28 28 29 32 30 21 20 19 20 17 16 16 16 13 17 17 18 12 21 22 22 23 22 25 26 27 24 -193 26 27 26 25 25 25 25 26 25 26 27 27 28 30 32 31 30 30 30 29 29 29 30 28 27 27 29 30 29 27 27 26 29 30 29 0 0 0 0 0
    0 0 0 0 0 0 0 0 0 0 0 0 0 0 0 0 0 0 0 0 0 0 0 0 0 0 0 0 0 0 0 0 0 0 0 0 0 0 0 0 0 0 0 0 0 0 0 0 0 0 0 0 0 0 0 0 0 0 0 0 0 0 0 0 0 0 0 0 0 15 10 11 10 9 -193 -209 -193 0 0 10 -193 11 16 15 14 13 11 12 9 9 0 0 0 0 0 0 0 0 0 0 0 0 0 0 0 0 0 0 0 0 0 0 0 0 0 0 0 0 9 9 0 0 0 0 0 0 0 10 0 9 0 0 9 9 9 10 0 0 0 9 10 10 10 10 10 11 9 9 9 0 0 0 0 0 0 0 0 0 0 0 9 11 12 11 12 10 11 12 11 10 10 10 10 9 10 10 9 9 10 10 9 0 9 0 -177 18 12 12 12 12 12 11 11 12 9 10 10 10 12 12 15 15 12 12 15 15 13 11 14 11 11 12 18 13 13 13 13 12 13 11 11 9 12 11 13 12 12 12 13 13 14 12 11 10 11 14 15 17 18 14 16 22 19 18 15 17 16 15 19 19 -193 -193 26 26 27 30 27 20 20 18 20 17 16 16 16 13 17 17 18 12 21 22 22 23 22 26 26 27 25 -193 27 27 27 26 25 26 25 27 25 26 27 28 28 29 32 31 30 30 30 29 29 29 30 29 27 28 30 31 30 27 28 27 30 30 30 0 0 0 0 0
    0 0 0 0 0 0 0 0 0 0 0 0 0 0 0 0 0 0 0 0 0 0 0 0 0 0 0 0 0 0 0 0 0 0 0 0 0 0 0 0 0 0 0 0 0 0 0 0 0 0 0 0 0 0 0 0 0 0 0 0 0 0 0 0 0 0 0 0 0 16 11 12 11 -209 -209 -209 -209 -209 0 11 -193 12 17 15 15 15 12 13 10 10 0 0 0 0 0 0 0 0 0 0 0 0 0 0 0 0 0 0 0 0 0 0 0 0 0 0 9 9 9 9 0 0 9 0 0 0 0 10 0 9 0 0 10 9 10 10 0 0 0 9 9 10 10 10 10 10 9 9 0 0 0 0 0 0 0 0 0 0 0 0 0 10 10 10 11 10 11 12 11 10 10 10 10 9 10 10 9 9 9 9 0 0 9 9 -177 17 12 12 12 11 12 11 11 12 9 10 10 10 11 12 14 14 12 11 14 13 12 10 13 11 11 11 18 13 13 13 13 12 13 12 12 9 11 10 12 11 12 12 13 13 14 13 12 11 12 15 16 18 19 16 16 23 19 19 16 16 15 14 18 18 14 23 24 24 24 26 24 19 19 17 20 16 16 16 16 13 17 17 18 12 22 22 22 23 22 25 26 28 25 -193 27 27 27 27 26 26 26 27 25 26 27 27 27 28 30 30 28 29 29 28 29 29 29 28 27 28 30 31 30 28 29 28 31 31 31 0 0 0 0 0
    0 0 0 0 0 0 0 0 0 0 0 0 0 0 0 0 0 0 0 0 0 0 0 0 0 0 0 0 0 0 0 0 0 0 0 0 0 0 0 0 0 0 0 0 0 0 0 0 0 0 0 0 0 0 0 0 0 0 0 0 0 0 0 0 0 0 0 0 0 -193 -209 12 -209 -209 -209 -209 -209 -209 -193 -193 -209 12 16 16 15 15 13 13 11 11 10 0 0 0 0 0 0 0 0 0 0 0 0 0 0 0 0 0 0 0 0 0 0 0 9 9 9 9 10 10 9 9 9 0 0 0 0 11 9 10 0 0 10 9 10 10 0 0 0 9 10 11 11 10 9 9 9 0 0 0 0 0 0 0 0 0 0 0 0 0 0 9 10 10 10 9 10 11 10 10 9 9 9 9 9 9 9 9 9 9 0 0 9 9 0 16 11 11 11 11 11 11 11 12 9 10 11 11 11 11 13 14 12 11 13 11 11 10 12 10 11 11 18 13 13 13 14 12 13 12 12 9 11 10 12 11 13 13 13 13 14 15 12 12 12 16 17 19 20 17 17 23 20 19 -177 16 14 14 17 16 12 20 21 21 20 22 23 17 17 16 20 16 16 16 16 13 17 17 18 12 21 22 22 23 22 25 27 30 30 -209 28 28 28 -193 26 26 25 26 25 26 26 27 27 28 30 29 28 28 28 27 -193 29 29 28 28 29 31 31 30 28 29 29 31 32 32 0 0 0 0 0
    0 0 0 0 0 0 0 0 0 0 0 0 0 0 0 0 0 0 0 0 0 0 0 0 0 0 0 0 0 0 0 0 0 0 0 0 0 0 0 0 0 0 0 0 0 0 0 0 0 0 0 0 0 0 0 0 0 0 0 0 0 0 0 0 0 0 0 0 0 -177 -193 -209 -209 -193 -193 -209 -209 -209 -193 -193 -209 13 16 16 15 15 13 13 12 12 11 10 9 10 9 10 10 9 0 0 0 0 0 0 0 0 0 0 0 0 0 0 0 0 9 10 9 10 10 10 9 9 10 0 0 0 0 11 0 10 0 0 9 9 9 9 0 0 0 0 10 11 10 9 9 9 0 0 0 0 0 0 0 0 0 0 0 0 0 0 0 9 10 10 10 9 10 10 10 9 9 9 9 9 9 9 0 0 0 0 0 0 9 0 0 14 10 11 10 10 11 10 10 12 9 11 11 11 11 11 13 14 12 11 13 11 11 10 11 10 10 10 18 12 12 13 14 13 14 13 13 10 12 12 12 12 13 14 13 13 14 16 13 13 13 16 18 20 20 18 16 23 20 19 -177 16 14 14 17 16 11 18 18 19 17 18 22 16 16 15 20 16 16 16 16 13 17 17 18 12 21 22 23 23 23 26 29 31 34 -209 33 33 -193 -193 28 27 27 26 25 25 26 27 27 28 31 30 29 28 29 28 -193 30 31 30 29 30 32 31 30 29 30 30 31 32 32 0 0 0 0 0
    0 0 0 0 0 0 0 0 0 0 0 0 0 0 0 0 0 0 0 0 0 0 0 0 0 0 0 0 0 0 0 0 0 0 0 0 0 0 0 0 0 0 0 0 0 0 0 0 0 0 0 0 0 0 0 0 0 0 0 0 0 0 0 0 0 0 0 0 0 -177 -209 -209 -209 -193 -193 -193 -193 -209 -177 -193 11 13 17 16 15 15 14 13 13 13 13 11 10 11 10 11 11 9 0 0 0 0 0 0 0 0 0 0 0 0 0 0 0 0 0 9 9 10 9 10 9 9 9 0 0 0 0 10 0 9 0 0 9 9 9 0 0 0 0 0 9 9 9 9 9 0 0 0 0 0 0 0 0 0 0 0 0 0 0 0 0 9 10 10 10 9 10 10 9 9 0 9 0 0 0 0 0 0 0 0 0 0 9 0 0 13 10 11 10 10 11 10 11 12 9 11 11 11 11 11 13 14 12 11 12 11 10 9 10 10 9 9 17 12 12 12 14 13 14 15 14 11 13 14 13 13 14 14 13 13 14 18 14 14 14 17 18 20 21 19 16 23 20 20 -193 16 15 14 17 16 12 17 17 17 15 16 21 15 15 15 19 16 16 16 16 13 18 18 18 12 23 23 24 25 24 27 31 33 36 -193 37 38 -193 -177 -193 30 30 28 25 26 26 27 27 29 32 31 30 30 30 30 33 34 35 33 32 32 34 33 32 30 31 30 32 33 33 0 0 0 0 0
    0 0 0 0 0 0 0 0 0 0 0 0 0 0 0 0 0 0 0 0 0 0 0 0 0 0 0 0 0 0 0 0 0 0 0 0 0 0 0 0 0 0 0 0 0 0 0 0 0 0 0 0 0 0 0 0 0 0 0 0 0 0 0 0 0 0 0 0 0 -177 -209 -209 -209 -193 -193 -193 -193 -209 -177 -209 11 14 17 16 15 16 14 14 14 14 13 11 11 11 11 11 12 9 0 0 0 0 0 0 0 0 0 0 0 0 0 0 0 0 9 10 9 10 9 9 0 0 9 0 0 0 0 10 0 9 0 0 0 0 0 0 0 0 0 0 9 9 0 9 9 0 0 0 0 0 0 0 0 0 0 0 0 0 0 0 0 9 9 9 9 9 9 10 9 0 0 9 0 0 0 0 0 0 0 0 0 0 10 0 0 13 10 11 10 10 11 10 11 12 9 11 11 11 11 11 13 14 12 11 12 11 10 9 9 9 9 0 16 11 11 12 14 13 14 16 16 12 14 15 14 14 15 15 14 14 15 19 15 15 14 18 19 20 21 19 16 23 20 20 -193 16 15 14 17 17 12 18 18 18 16 16 21 15 15 15 19 16 15 16 16 13 18 18 18 12 23 24 25 25 25 28 33 36 38 46 39 -209 -177 -177 -193 35 35 30 26 26 27 28 27 29 33 32 31 31 32 34 36 37 38 37 36 35 36 35 33 32 32 31 31 34 34 0 0 0 0 0
    0 0 0 0 0 0 0 0 0 0 0 0 0 0 0 0 0 0 0 0 0 0 0 0 0 0 0 0 0 0 0 0 0 0 0 0 0 0 0 0 0 0 0 0 0 0 0 0 0 0 0 0 0 0 0 0 0 0 0 0 0 0 0 0 0 0 0 0 0 -177 -209 -209 -209 -193 -193 -193 -209 -209 -193 -209 11 14 16 16 15 15 14 14 14 14 14 12 12 12 12 12 12 9 0 0 0 0 0 0 0 0 0 0 0 0 0 0 0 0 9 11 10 10 9 9 0 0 0 0 0 0 0 9 0 9 0 0 0 0 9 0 0 0 0 0 0 9 0 0 9 0 0 0 0 0 0 0 0 0 0 0 0 0 0 0 0 0 9 9 0 0 9 9 9 0 0 9 0 0 0 0 0 0 0 0 0 0 11 9 9 13 11 11 10 11 11 10 11 12 9 11 10 11 12 11 13 14 12 12 13 11 11 10 10 10 9 0 15 11 11 12 15 14 15 18 17 13 15 16 15 14 16 16 14 14 15 20 15 16 15 18 19 20 21 19 16 23 20 20 -193 16 15 15 17 17 12 19 19 19 17 17 21 15 15 15 19 16 16 16 16 14 19 19 19 13 24 24 25 26 26 28 34 36 38 46 39 41 -193 -193 40 38 38 35 27 27 28 28 27 30 33 33 33 33 35 36 38 40 40 40 39 38 38 37 36 34 33 32 31 36 36 0 0 0 0 0
    0 0 0 0 0 0 0 0 0 0 0 0 0 0 0 0 0 0 0 0 0 0 0 0 0 0 0 0 0 0 0 0 0 0 0 0 0 0 0 0 0 0 0 0 0 0 0 0 0 0 0 0 0 0 0 0 0 0 0 0 0 0 0 0 0 0 0 0 0 -177 -193 -209 -209 -193 -193 -193 -209 -209 -209 14 12 14 16 16 15 15 14 14 14 15 14 12 12 12 12 12 12 9 0 0 0 0 0 0 0 0 0 0 0 0 0 0 0 0 9 11 10 10 9 9 0 0 9 0 0 0 0 9 0 9 0 0 0 0 9 9 0 0 0 0 0 0 0 0 0 0 0 0 0 0 0 0 0 0 0 0 0 0 0 0 0 0 0 0 0 0 0 9 9 0 0 0 0 0 0 0 0 0 -193 0 0 9 12 10 10 14 11 12 11 11 11 10 11 12 9 11 10 11 11 11 13 14 13 12 13 12 12 11 11 10 9 0 15 11 11 12 15 14 15 19 17 14 16 16 15 15 16 16 14 14 14 20 16 16 15 19 18 20 21 19 16 23 19 19 -193 16 15 14 17 16 12 19 19 19 17 17 21 15 16 15 20 16 16 17 17 14 20 19 19 13 24 25 27 27 28 32 37 38 39 47 41 42 42 43 41 40 40 39 28 33 30 29 27 31 35 34 35 35 36 38 40 42 42 42 41 39 39 39 37 36 33 33 32 37 -209 0 0 0 0 0
    0 0 0 0 0 0 0 0 0 0 0 0 0 0 0 0 0 0 0 0 0 0 0 0 0 0 0 0 0 0 0 0 0 0 0 0 0 0 0 0 0 0 0 0 0 0 0 0 0 0 0 0 0 0 0 0 0 0 0 0 0 0 0 0 0 0 0 0 0 -193 -193 15 -209 -193 -193 -209 -193 -209 -209 14 12 14 16 15 15 15 14 15 14 15 15 13 13 13 13 12 12 10 0 0 0 0 0 0 0 0 0 0 0 0 0 9 10 0 9 11 10 9 9 9 0 0 9 0 0 0 0 9 0 9 0 0 0 9 9 9 0 0 0 0 0 0 0 0 0 0 0 0 0 0 0 0 0 0 0 0 0 0 0 0 0 0 0 0 0 0 0 0 0 0 0 0 0 0 0 0 0 0 -193 0 0 0 12 10 10 15 12 12 11 11 12 10 11 12 9 10 10 10 11 10 12 14 13 12 12 11 12 10 10 10 9 0 14 10 10 12 14 13 15 20 18 15 16 17 16 16 16 17 14 13 14 20 16 16 15 19 18 20 21 19 15 23 19 19 -193 16 15 14 16 16 11 18 19 19 18 18 22 16 17 17 21 18 18 18 18 16 -193 -193 -193 14 25 27 29 28 31 36 40 40 41 49 44 44 44 45 43 41 42 42 32 41 37 33 29 35 38 36 37 37 38 39 41 43 43 43 43 40 41 41 39 39 35 36 34 -193 -209 0 0 0 0 0
    0 0 0 0 0 0 0 0 0 0 0 0 0 0 0 0 0 0 0 0 0 0 0 0 0 0 0 0 0 0 0 0 0 0 0 0 0 0 0 0 0 0 0 0 0 0 0 0 0 0 0 0 0 0 0 0 0 0 0 0 0 0 0 0 0 0 0 0 0 -193 -193 13 -209 -193 -193 196 -209 -209 0 13 11 14 15 15 14 15 14 15 15 15 15 13 13 13 13 13 12 10 0 0 0 0 0 0 0 0 0 0 0 0 0 10 10 0 10 11 10 10 9 9 0 0 9 0 0 0 0 10 0 9 0 0 0 9 9 9 0 0 0 0 0 0 0 0 0 0 0 0 0 0 0 0 0 0 0 0 0 0 0 0 0 0 0 0 0 0 0 0 0 0 0 0 0 0 0 0 0 0 0 0 0 0 11 10 10 15 12 12 11 11 12 10 11 12 9 10 9 10 11 10 12 13 13 12 11 12 12 11 11 10 9 9 13 10 10 12 14 13 15 20 18 16 17 17 16 16 16 17 13 13 14 20 16 16 15 19 18 20 21 20 15 23 19 19 -193 15 14 14 16 15 11 18 19 20 19 20 23 18 18 19 22 19 19 20 20 19 -193 -177 -193 19 27 32 33 31 36 38 41 42 43 50 46 45 45 46 44 43 43 44 40 42 42 41 36 40 43 39 40 38 39 41 42 44 43 43 44 42 43 43 41 41 38 38 -193 -209 -209 0 0 0 0 0
    0 0 0 0 0 0 0 0 0 0 0 0 0 0 0 0 0 0 0 0 0 0 0 0 0 0 0 0 0 0 0 0 0 0 0 0 0 0 0 0 0 0 0 0 0 0 0 0 0 0 0 0 0 0 0 0 0 0 0 0 0 0 0 0 0 0 0 0 0 -193 -209 -193 -209 -193 -193 -193 -209 -209 0 12 11 13 15 15 14 15 13 14 14 15 15 13 13 13 13 13 12 10 0 0 0 0 0 0 0 0 0 0 0 0 9 10 11 9 10 12 10 10 10 10 9 0 9 0 0 0 0 10 0 9 9 0 0 9 9 9 0 0 0 0 0 0 0 0 0 0 0 0 0 0 0 0 0 0 0 0 0 0 0 0 0 0 0 0 0 0 0 0 0 0 0 0 0 0 0 0 0 0 0 0 0 0 10 9 10 15 12 12 11 11 12 10 11 12 9 11 9 10 11 11 12 13 13 12 12 13 13 12 11 11 10 10 12 10 10 11 13 12 15 21 18 17 17 17 16 15 16 16 13 13 12 19 15 15 15 18 18 20 21 20 15 23 20 19 15 15 14 13 15 15 11 18 20 21 20 21 24 19 20 20 23 20 20 21 -193 21 -193 -193 -193 -209 29 37 37 36 39 40 43 42 43 49 46 45 45 46 45 43 45 45 42 44 44 43 42 43 45 42 42 40 41 43 43 44 44 44 45 43 44 44 43 43 39 40 -193 -193 -193 0 0 0 0 0
    0 0 0 0 0 0 0 0 0 0 0 0 0 0 0 0 0 0 0 0 0 0 0 0 0 0 0 0 0 0 0 0 0 0 0 0 0 0 0 0 0 0 0 0 0 0 0 0 0 0 0 0 0 0 0 0 0 0 0 0 0 0 0 0 0 0 0 0 0 -193 -193 -193 -209 -209 -193 -193 -209 -209 0 12 11 13 16 15 14 15 13 15 13 15 14 12 13 12 12 12 11 10 0 0 0 0 0 0 0 0 0 0 0 0 0 10 11 9 10 11 10 10 10 9 9 0 9 0 0 0 0 10 0 9 9 0 9 9 10 10 0 0 0 0 0 0 0 0 0 0 0 0 0 0 0 0 0 0 0 0 0 0 0 0 0 0 0 0 0 0 0 0 0 0 0 0 0 0 0 0 0 0 0 0 0 0 10 9 10 15 12 13 12 12 12 10 12 12 9 11 9 10 11 11 12 13 13 13 13 14 14 13 12 12 11 11 12 9 9 11 12 12 14 21 18 17 17 16 16 15 16 15 13 12 12 18 15 14 15 18 18 19 20 19 15 23 19 18 14 14 13 14 15 15 12 18 22 23 22 23 25 21 22 22 24 22 22 23 -193 -193 27 28 28 -193 34 40 40 40 42 42 43 43 43 48 44 44 45 45 45 44 46 46 44 47 47 46 44 45 46 44 44 42 42 43 44 45 44 44 45 44 45 45 44 44 41 42 -193 44 -193 0 0 0 0 0
    0 0 0 0 0 0 0 0 0 0 0 0 0 0 0 0 0 0 0 0 0 0 0 0 0 0 0 0 0 0 0 0 0 0 0 0 0 0 0 0 0 0 0 0 0 0 0 0 0 0 0 0 0 0 0 0 0 0 0 0 0 0 0 0 0 0 0 0 0 17 14 12 -193 -209 -193 -193 -193 -209 0 12 11 13 16 15 14 15 13 15 13 15 14 12 12 12 11 12 10 10 0 0 0 0 0 0 0 0 0 0 0 0 9 10 11 9 10 11 10 9 10 9 0 0 0 0 0 0 0 10 9 9 10 9 9 10 10 11 0 0 0 0 0 0 0 0 0 0 0 0 0 0 0 0 0 0 0 0 0 0 0 0 0 0 0 0 0 0 0 0 0 0 0 0 -193 0 0 0 0 0 0 0 0 0 11 10 10 17 13 14 13 12 12 11 12 12 9 11 9 10 12 12 12 14 14 14 14 14 14 13 13 13 12 12 12 10 10 11 12 11 13 20 17 17 17 16 16 15 15 15 13 13 12 17 15 14 15 18 18 19 20 19 14 22 19 18 13 14 14 14 16 16 13 19 23 24 23 25 26 22 24 24 29 24 24 -193 -209 27 31 33 33 33 38 41 41 41 42 42 43 43 43 46 43 43 44 44 44 44 45 46 45 47 48 47 46 46 47 45 45 43 43 44 44 45 44 44 45 44 45 46 44 45 42 43 -193 44 -193 0 0 0 0 0
    0 0 0 0 0 0 0 0 0 0 0 0 0 0 0 0 0 0 0 0 0 0 0 0 0 0 0 0 0 0 0 0 0 0 0 0 0 0 0 0 0 0 0 0 0 0 0 0 0 0 0 0 0 0 0 0 0 0 0 0 0 0 0 0 0 0 0 0 0 16 12 11 -209 -209 -209 -209 -193 -193 0 12 11 13 16 15 15 15 13 15 12 14 13 12 12 11 11 11 10 10 0 0 0 0 0 0 0 0 0 0 0 0 -193 10 10 9 11 11 10 9 9 9 0 0 0 0 0 0 0 10 9 9 10 9 10 10 11 11 0 9 9 0 0 0 0 0 0 0 0 0 0 0 0 0 0 0 0 0 0 0 0 0 0 0 0 0 0 0 0 0 0 0 0 0 -193 0 0 0 0 0 0 0 0 0 11 10 11 18 14 14 13 13 13 11 12 12 9 11 10 11 14 14 14 17 16 17 15 15 14 14 13 13 12 13 12 10 10 11 11 11 12 20 16 17 16 15 16 15 15 15 13 13 12 17 15 14 15 18 18 19 20 18 14 22 19 17 13 13 14 14 16 16 14 19 25 25 25 28 28 34 30 36 36 30 28 31 31 32 35 36 36 37 40 42 42 41 43 42 43 43 43 46 43 42 43 43 44 43 44 45 45 46 48 47 46 46 46 45 44 44 43 44 44 45 44 44 45 44 45 46 44 45 42 43 43 44 47 0 0 0 0 0
    0 0 0 0 0 0 0 0 0 0 0 0 0 0 0 0 0 0 0 0 0 0 0 0 0 0 0 0 0 0 0 0 0 0 0 0 0 0 0 0 0 0 0 0 0 0 0 0 0 0 0 0 0 0 0 0 0 0 0 0 0 0 0 0 0 0 0 0 0 16 12 11 -193 -209 -209 -209 0 0 0 13 12 14 16 15 15 15 13 15 12 14 13 11 12 11 11 12 11 11 9 9 0 0 0 0 0 0 0 0 0 0 -193 9 10 9 10 10 10 9 9 0 0 0 0 0 0 0 0 10 9 9 10 9 10 10 11 11 0 9 9 0 0 0 0 0 0 0 0 0 0 0 0 0 0 0 0 0 0 0 0 0 0 0 0 0 0 0 0 0 0 0 0 0 -177 0 0 0 0 0 0 0 0 0 10 10 11 18 14 14 14 13 13 11 12 12 0 12 11 12 16 18 18 19 19 19 17 16 14 14 13 13 12 13 12 10 10 11 10 10 11 19 15 16 15 15 16 15 16 15 13 13 12 17 15 14 16 17 17 18 20 18 14 21 20 16 13 13 15 15 17 18 16 20 25 26 27 29 29 39 36 39 38 35 34 35 36 35 37 38 38 39 41 42 43 42 44 43 43 43 43 45 42 41 42 41 42 42 43 44 44 45 48 47 45 46 45 45 44 44 44 44 44 45 44 44 44 44 45 47 45 45 44 44 44 44 46 0 0 0 0 0
    0 0 0 0 0 0 0 0 0 0 0 0 0 0 0 0 0 0 0 0 0 0 0 0 0 0 0 0 0 0 0 0 0 0 0 0 0 0 0 0 0 0 0 0 0 0 0 0 0 0 0 0 0 0 0 0 0 0 0 0 0 0 0 0 0 0 0 0 0 16 -193 -193 -193 -209 -209 -209 0 0 0 13 12 14 16 15 15 15 13 15 12 14 12 11 12 11 11 13 11 12 10 11 0 0 0 0 0 0 0 0 0 0 0 9 9 9 10 9 9 0 9 0 0 0 0 0 0 0 0 10 0 0 10 9 9 9 10 11 0 9 9 0 0 0 0 0 0 0 0 0 -177 0 0 0 0 0 0 0 0 0 0 0 0 0 0 0 0 0 0 0 0 0 0 0 389 -193 0 0 0 0 0 0 0 0 9 10 10 18 14 14 14 13 13 12 13 12 9 12 12 13 19 21 21 21 20 21 18 16 14 14 14 13 12 13 11 10 9 10 9 9 11 17 14 16 15 14 16 15 16 16 14 14 12 17 16 15 17 17 17 19 20 19 15 21 20 15 13 13 15 16 19 19 18 20 26 27 27 31 30 39 38 40 39 38 37 37 38 37 38 39 39 40 41 42 43 42 44 43 43 43 43 44 42 41 42 41 42 41 43 44 44 45 47 46 45 46 45 45 44 44 44 44 44 44 44 44 44 45 45 48 46 46 45 45 45 44 46 0 0 0 0 0
    0 0 0 0 0 0 0 0 0 0 0 0 0 0 0 0 0 0 0 0 0 0 0 0 0 0 0 0 0 0 0 0 0 0 0 0 0 0 0 0 0 0 0 0 0 0 0 0 0 0 0 0 0 0 0 0 0 0 0 0 0 0 0 0 0 0 0 0 0 16 13 12 12 10 -193 -193 -193 10 9 13 12 14 16 15 15 15 13 15 13 14 13 11 13 12 12 14 -193 -193 13 13 0 0 0 0 0 0 0 0 0 0 0 9 9 9 9 9 9 0 0 0 0 0 0 0 0 0 0 10 0 0 9 9 9 9 10 10 0 9 10 0 0 0 0 0 0 0 0 0 -177 0 0 0 0 0 0 0 0 0 0 0 0 0 0 0 0 0 0 0 0 0 0 0 389 -193 0 0 0 0 0 0 0 0 0 9 10 18 14 14 14 14 13 12 13 13 9 13 13 14 21 23 23 22 21 21 19 17 15 14 14 13 12 13 11 10 9 9 0 0 10 16 13 16 14 14 16 15 17 16 14 16 13 18 17 16 18 17 18 19 20 19 15 21 20 15 14 14 16 16 20 20 19 20 26 28 28 32 30 40 39 40 39 39 38 38 39 38 40 40 40 41 41 42 43 42 44 42 43 43 42 44 42 41 42 40 41 42 44 44 45 45 47 46 45 46 45 45 44 45 44 45 44 44 44 44 44 45 45 48 45 46 45 45 45 44 45 0 0 0 0 0
    0 0 0 0 0 0 0 0 0 0 0 0 0 0 0 0 0 0 0 0 0 0 0 0 0 0 0 0 0 0 0 0 0 0 0 0 0 0 0 0 0 0 0 0 0 0 0 0 0 0 0 0 0 0 0 0 0 0 0 0 0 0 0 0 0 0 0 0 0 15 12 11 11 10 -193 -193 9 10 9 12 13 14 16 15 15 15 14 15 14 14 14 12 14 14 14 -193 -177 -193 -193 19 -209 0 0 0 0 0 0 0 0 0 0 9 0 0 9 0 0 0 0 0 0 0 0 0 9 0 0 10 0 0 9 0 0 0 9 9 0 10 10 0 0 0 0 0 0 0 0 0 -177 0 0 0 0 0 0 0 0 0 0 0 0 0 0 0 0 0 0 0 0 0 0 0 389 -193 0 0 0 0 0 0 0 0 0 9 9 18 14 14 15 14 13 12 13 13 9 13 14 15 23 25 25 24 22 22 20 18 15 14 14 13 12 13 11 10 9 9 0 0 9 15 12 15 13 14 16 15 17 16 15 17 14 19 18 17 19 17 18 18 20 19 16 20 20 15 14 14 17 17 20 21 -193 -193 26 28 29 32 30 40 39 40 39 39 39 39 39 39 40 41 40 42 42 43 43 42 44 42 42 42 42 43 41 40 41 38 40 42 44 44 45 45 47 46 45 46 45 45 44 45 45 46 45 45 45 44 45 46 45 48 45 46 45 44 45 44 45 0 0 0 0 0
    0 0 0 0 0 0 0 0 0 0 0 0 0 0 0 0 0 0 0 0 0 0 0 0 0 0 0 0 0 0 0 0 0 0 0 0 0 0 0 0 0 0 0 0 0 0 0 0 0 0 0 0 0 0 0 0 0 0 0 0 0 0 0 0 0 0 0 0 0 15 11 11 12 11 10 11 10 11 9 12 14 14 17 16 15 16 14 15 14 14 14 13 15 16 -193 -193 -177 -177 -209 -209 -209 -193 0 0 0 0 0 0 0 0 0 9 9 0 9 0 0 0 0 0 0 0 0 0 9 0 0 9 0 0 0 0 0 0 0 0 0 10 11 0 0 0 0 0 0 0 0 0 -177 0 0 0 0 0 0 0 0 0 0 0 0 0 0 0 0 0 0 0 0 0 0 -193 389 -193 0 0 0 0 0 0 0 0 9 0 9 18 14 14 16 14 14 13 14 14 10 14 15 17 25 27 27 26 23 23 21 19 16 15 14 13 12 13 11 10 0 9 0 0 0 14 12 15 13 14 16 16 18 17 16 18 15 19 19 18 20 17 18 18 20 18 16 19 20 14 14 15 18 18 21 22 -193 -177 27 28 29 32 30 39 39 41 40 40 39 39 40 40 -193 41 40 42 42 42 43 42 44 41 42 42 41 42 41 40 40 36 39 43 44 45 45 45 47 46 45 46 45 45 44 45 45 46 45 45 45 45 45 46 45 48 45 46 45 45 45 44 45 0 0 0 0 0
    0 0 0 0 0 0 0 0 0 0 0 0 0 0 0 0 0 0 0 0 0 0 0 0 0 0 0 0 0 0 0 0 0 0 0 0 0 0 0 0 0 0 0 0 0 0 0 0 0 0 0 0 0 0 0 0 0 0 0 0 0 0 0 0 0 0 0 0 0 16 12 12 14 12 12 12 11 12 10 12 15 13 16 16 15 16 15 16 15 14 15 14 18 19 -193 -193 -177 -177 -193 -193 -177 750 -193 0 0 0 0 0 0 9 9 10 9 9 8 0 0 0 0 0 0 0 0 0 9 0 0 9 0 0 0 0 0 0 0 0 0 9 11 0 0 0 0 0 0 0 0 0 0 0 0 0 0 0 0 0 0 0 0 0 0 0 0 0 0 0 0 0 0 0 0 -193 -177 0 0 0 0 0 0 0 0 0 9 0 -177 19 13 14 16 14 14 13 14 14 10 16 19 20 27 29 30 30 28 25 22 20 16 15 14 12 12 13 11 10 0 0 0 0 0 13 11 14 12 14 16 17 18 18 17 19 16 20 20 19 21 17 18 18 19 18 16 18 20 14 14 16 18 18 21 22 -193 -177 27 29 29 33 30 40 39 41 40 40 40 40 40 40 -193 41 40 41 41 42 43 42 44 41 41 42 41 42 41 40 40 36 40 43 44 45 45 45 46 46 45 46 45 45 44 46 46 46 46 46 46 46 45 46 45 48 45 46 46 45 45 45 46 0 0 0 0 0
    0 0 0 0 0 0 0 0 0 0 0 0 0 0 0 0 0 0 0 0 0 0 0 0 0 0 0 0 0 0 0 0 0 0 0 0 0 0 0 0 0 0 0 0 0 0 0 0 0 0 0 0 0 0 0 0 0 0 0 0 0 0 0 0 0 0 0 0 0 17 12 13 15 13 12 12 12 13 10 12 15 13 16 16 15 16 15 16 17 15 18 17 20 22 22 -193 -193 -193 -209 -193 -193 750 -193 -193 0 0 0 0 0 10 10 10 10 9 9 0 0 0 0 0 0 0 0 0 10 0 0 0 0 0 0 0 0 0 0 0 0 9 9 0 0 0 0 0 0 0 0 0 0 0 0 0 0 0 0 0 0 0 0 0 0 0 0 0 0 0 0 0 0 0 0 0 -177 -193 0 0 0 0 0 0 0 0 11 0 9 19 13 14 15 14 13 13 14 16 12 19 21 24 29 32 34 34 35 28 23 20 17 15 14 12 12 13 10 11 9 9 0 -177 0 14 12 15 12 14 16 18 19 19 18 21 17 21 21 20 22 17 18 17 20 18 17 19 20 14 15 16 19 18 22 22 543 542 27 28 29 32 30 40 39 41 40 41 41 40 40 40 -209 40 -193 -193 -193 41 42 42 43 41 41 -193 41 42 40 40 39 36 40 43 44 45 45 45 46 46 45 45 44 45 44 46 47 47 -193 -193 -193 -193 -193 -193 45 48 46 47 46 46 46 45 47 0 0 0 0 0
    0 0 0 0 0 0 0 0 0 0 0 0 0 0 0 0 0 0 0 0 0 0 0 0 0 0 0 0 0 0 0 0 0 0 0 0 0 0 0 0 0 0 0 0 0 0 0 0 0 0 0 0 0 0 0 0 0 0 0 0 0 0 0 0 0 0 0 0 0 18 12 12 15 13 13 13 13 13 10 12 16 13 16 16 16 16 16 17 18 17 21 21 23 -193 25 27 30 31 31 28 27 -193 0 0 0 0 0 0 0 10 11 11 10 9 9 0 0 0 0 0 0 0 0 0 12 0 0 0 0 0 0 0 0 0 0 0 0 9 9 0 0 0 0 0 0 0 0 0 -177 0 0 0 0 0 0 0 0 0 9 0 -193 0 0 0 0 0 0 0 0 0 0 -193 388 389 -193 -193 0 -193 15 24 20 14 17 9 9 18 12 13 15 14 13 13 15 17 13 20 23 25 32 34 36 36 36 29 24 21 17 16 14 12 12 13 10 10 0 9 0 -177 9 14 12 15 13 15 17 19 20 20 19 22 19 22 22 21 22 17 18 18 20 18 18 19 19 13 15 16 19 18 22 -193 542 542 27 29 30 32 31 39 39 40 40 40 41 40 40 -193 -193 -193 -193 -177 -193 41 42 42 43 41 42 42 41 43 40 39 39 36 40 42 43 44 45 44 46 46 45 45 44 45 44 47 48 49 -193 -193 -193 -193 -193 -193 45 49 46 47 46 46 46 46 47 0 0 0 0 0
    0 0 0 0 0 0 0 0 0 0 0 0 0 0 0 0 0 0 0 0 0 0 0 0 0 0 0 0 0 0 0 0 0 0 0 0 0 0 0 0 0 0 0 0 0 0 0 0 0 0 0 0 0 0 0 0 0 0 0 0 0 0 0 0 0 0 0 0 0 19 13 13 16 14 13 14 14 13 10 12 17 13 15 15 16 16 17 18 20 18 22 -193 -193 28 27 29 31 33 33 29 28 0 0 0 0 0 0 0 0 11 12 12 11 10 9 9 0 0 0 0 0 0 0 10 15 0 9 9 0 0 0 0 0 0 0 0 0 9 9 0 0 0 0 0 0 0 0 0 0 0 0 0 0 0 0 0 0 0 11 -209 -209 -209 23 -193 -193 0 0 -193 0 0 -193 -193 -177 -177 -177 -193 -209 -193 25 28 27 -193 20 10 9 16 11 12 13 13 12 12 14 18 15 22 23 26 33 34 36 36 36 29 24 22 18 16 15 12 12 12 9 9 0 0 0 0 9 14 12 15 13 15 17 19 21 20 20 22 -193 -177 -193 22 23 18 19 18 20 19 18 19 20 13 15 17 19 17 22 -177 -193 -177 28 30 30 32 31 38 38 40 40 40 40 40 39 -193 -193 -193 -193 -177 -193 41 42 42 44 41 42 42 41 43 41 40 39 36 40 42 43 44 45 44 46 46 45 45 44 44 44 47 49 -193 -193 -193 -193 -193 -193 -193 46 49 46 47 46 46 46 46 47 0 0 0 0 0
    0 0 0 0 0 0 0 0 0 0 0 0 0 0 0 0 0 0 0 0 0 0 0 0 0 0 0 0 0 0 0 0 0 0 0 0 0 0 0 0 0 0 0 0 0 0 0 0 0 0 0 0 0 0 0 0 0 0 0 0 0 0 0 0 0 0 0 0 0 19 13 13 16 14 14 14 14 14 9 11 17 12 15 15 15 17 18 19 21 19 24 -193 27 30 30 31 33 34 35 29 28 0 0 0 0 0 9 9 9 12 13 13 13 11 10 10 9 9 9 10 10 0 10 12 18 11 10 11 0 0 0 0 -193 0 0 0 0 9 10 0 0 0 0 0 0 0 0 0 -177 0 0 0 0 0 10 12 16 14 21 26 27 28 28 28 28 20 -209 -209 -193 -193 -193 -193 389 389 -177 -193 -209 -193 28 34 33 33 -209 -193 -193 -193 10 11 12 12 12 12 14 18 16 24 25 28 36 36 36 37 36 30 26 -193 20 17 16 13 12 12 9 0 0 0 0 0 9 14 12 16 14 16 17 19 21 21 20 23 -193 -177 -193 22 23 19 19 18 20 19 19 19 20 13 15 16 19 -193 -193 -177 -177 -193 28 30 30 31 31 37 37 39 39 39 40 40 40 -193 -209 40 -193 -193 -209 41 43 42 44 41 42 42 42 43 41 40 40 36 41 42 44 44 46 45 47 46 46 45 45 44 44 47 49 -193 -193 -193 -193 -193 -193 -193 46 49 46 47 46 46 47 46 47 0 0 0 0 0
    0 0 0 0 0 0 0 0 0 0 0 0 0 0 0 0 0 0 0 0 0 0 0 0 0 0 0 0 0 0 0 0 0 0 0 0 0 0 0 0 0 0 0 0 0 0 0 0 0 0 0 0 0 0 0 0 0 0 0 0 0 0 0 0 0 0 0 0 0 19 13 14 17 15 15 15 15 14 9 10 18 12 15 15 16 18 19 21 22 20 25 26 28 31 29 30 31 33 33 29 28 -193 0 0 0 9 11 11 10 13 15 15 15 12 11 13 11 14 13 17 16 12 16 19 21 17 12 15 0 0 0 -209 -193 -193 -193 -193 0 10 11 0 0 0 0 9 0 0 0 0 0 0 0 10 -209 13 21 25 26 25 26 29 31 31 30 30 30 27 27 26 -209 -193 -193 -193 -193 -193 -193 -209 -209 -209 33 38 37 39 -209 -209 -193 -209 -193 10 11 11 12 13 15 20 21 26 29 29 35 35 35 35 35 31 28 -193 -193 19 17 14 12 12 9 0 0 9 9 9 9 15 12 16 15 16 17 20 21 21 20 23 20 -177 -193 22 23 19 20 19 21 19 19 20 20 13 15 16 19 -193 -193 -177 -177 -209 28 31 30 31 31 36 36 38 38 39 40 40 40 40 -193 40 -193 -193 -209 41 43 43 44 41 42 43 42 43 41 40 40 36 41 43 46 46 47 46 48 47 46 46 45 45 45 48 49 -193 -193 -193 -193 -193 -193 -193 46 48 45 47 46 46 47 46 48 0 0 0 0 0
    0 0 0 0 0 0 0 0 0 0 0 0 0 0 0 0 0 0 0 0 0 0 0 0 0 0 0 0 0 0 0 0 0 0 0 0 0 0 0 0 0 0 0 0 0 0 0 0 0 0 0 0 0 0 0 0 0 0 0 0 0 0 0 0 0 0 0 0 0 19 14 14 16 15 15 16 15 14 9 10 18 12 -193 15 17 19 20 22 22 22 26 27 29 31 29 30 32 33 32 30 28 26 20 24 20 15 14 14 13 15 17 17 17 14 13 16 -193 -193 19 22 22 18 22 23 24 25 16 23 -193 0 11 -193 -193 -177 -193 -193 0 10 12 9 0 -193 -193 13 0 12 11 -193 12 -193 25 26 -209 25 26 26 28 27 28 31 33 33 31 31 32 29 29 28 28 15 11 -193 -193 -193 -193 26 -193 30 36 38 38 40 -209 -209 270 -209 -209 -193 -193 11 12 15 17 22 24 29 32 31 36 36 35 35 35 33 30 32 -193 22 19 16 13 12 9 0 0 10 9 9 10 15 13 16 15 16 17 20 21 21 20 23 21 -193 -193 23 23 20 20 19 21 19 19 20 19 14 15 16 19 16 21 -193 -177 -209 28 30 30 30 30 35 36 37 37 38 39 40 39 40 41 40 39 41 41 41 42 43 44 41 43 43 42 43 41 40 40 36 41 42 46 45 47 46 48 47 46 45 45 45 46 48 49 50 -193 -193 -193 -193 -193 -193 45 48 45 47 46 46 47 46 48 0 0 0 0 0
    0 0 0 0 0 0 0 0 0 0 0 0 0 0 0 0 0 0 0 0 0 0 0 0 0 0 0 0 0 0 0 0 0 0 0 0 0 0 0 0 0 0 0 0 0 0 0 0 0 0 0 0 0 0 0 0 0 0 0 0 0 0 0 0 0 0 0 0 0 19 14 14 16 15 15 16 15 13 9 10 18 -193 -177 16 18 -193 21 23 24 24 27 29 31 31 29 31 33 34 33 30 28 26 25 26 25 22 18 17 17 18 20 20 19 16 15 -209 -193 -193 -193 -193 26 24 25 26 26 27 22 28 30 -193 -209 -193 -193 -177 -193 -193 0 11 12 9 9 -193 -193 20 -193 25 27 26 26 27 27 29 28 27 28 28 31 29 30 32 34 34 32 33 34 32 31 31 31 26 22 22 -193 23 27 31 -193 34 37 38 38 -193 -209 -193 268 -193 -209 -209 -209 -193 12 17 20 -193 29 32 35 33 35 36 35 35 35 34 32 35 28 24 22 20 13 12 9 0 9 10 10 9 10 15 13 16 15 17 17 20 21 21 21 23 21 -193 -193 23 24 21 21 20 22 20 20 20 19 14 15 16 19 16 20 -193 -177 -193 28 30 30 30 31 34 35 37 37 38 39 39 39 39 40 40 39 41 40 40 42 42 44 42 43 43 42 43 42 40 41 36 41 42 44 44 46 45 46 45 45 44 44 44 45 47 48 49 -193 -193 -193 -193 -193 48 45 48 45 46 46 46 47 47 48 0 0 0 0 0
    0 0 0 0 0 0 0 0 0 0 0 0 0 0 0 0 0 0 0 0 0 0 0 0 0 0 0 0 0 0 0 0 0 0 0 0 0 0 0 0 0 0 0 0 0 0 0 0 0 0 0 0 0 0 0 0 0 0 0 0 0 0 0 0 0 0 0 0 0 19 14 14 16 15 15 16 16 14 9 10 18 -193 -177 -193 19 -193 23 24 25 26 29 31 33 33 31 33 35 34 34 30 29 28 28 28 27 25 22 21 21 21 22 21 21 19 -193 -177 -177 -193 -209 -193 29 28 28 29 28 31 27 35 34 29 28 -209 -209 -193 -209 -209 -193 10 10 -193 9 -193 -193 24 28 28 32 29 29 31 30 32 30 29 30 29 32 30 31 33 34 34 32 34 35 34 34 34 33 29 27 27 26 28 30 35 34 36 37 38 38 -193 -209 -177 -177 -193 -209 -209 -209 -193 -193 -193 23 31 36 35 36 35 35 36 36 35 35 35 34 37 37 34 32 -193 15 13 9 0 9 10 10 10 11 16 14 17 16 17 17 20 21 21 21 23 22 -193 24 24 24 22 22 21 22 20 20 21 19 14 16 17 19 17 20 21 -193 -193 28 31 30 30 31 34 35 36 36 37 39 39 38 39 40 39 39 41 40 40 42 42 44 42 43 43 42 43 42 41 41 37 41 41 44 43 45 44 45 44 44 43 43 43 44 46 48 49 49 49 -193 -193 49 48 45 48 45 46 46 46 47 46 48 0 0 0 0 0
    0 0 0 0 0 0 0 0 0 0 0 0 0 0 0 0 0 0 0 0 0 0 0 0 0 0 0 0 0 0 0 0 0 0 0 0 0 0 0 0 0 0 0 0 0 0 0 0 0 0 0 0 0 0 0 0 0 0 0 0 0 0 0 0 0 0 0 0 0 19 14 14 16 15 16 17 17 15 10 12 19 -193 -177 -193 21 -193 24 26 28 29 31 34 35 35 33 35 35 34 34 32 30 29 29 29 28 26 24 23 24 23 24 24 24 -193 -193 -177 -177 -193 -193 30 31 30 30 31 30 35 35 38 37 33 33 -193 -209 -193 -193 -193 -193 9 -193 -209 9 -177 -193 26 30 31 37 34 34 34 34 35 33 31 31 30 33 32 33 34 34 35 33 34 35 35 35 35 35 31 31 35 35 35 34 37 36 37 38 38 37 38 -209 -209 -177 -209 -209 -209 -209 -209 -209 -209 28 38 40 39 38 37 37 37 37 37 36 36 35 37 37 36 37 38 21 14 10 0 9 11 11 10 12 16 14 18 17 18 17 21 21 21 21 23 22 23 24 24 25 23 22 22 23 21 21 21 19 15 16 17 19 17 20 22 -193 -193 28 32 30 30 31 34 35 35 35 37 38 38 38 38 39 39 39 41 41 40 42 42 44 42 43 42 42 43 42 41 41 37 41 41 43 42 44 44 45 44 43 43 43 42 44 45 47 48 49 49 50 -193 49 48 45 48 45 46 45 46 47 46 47 0 0 0 0 0
    0 0 0 0 0 0 0 0 0 0 0 0 0 0 0 0 0 0 0 0 0 0 0 0 0 0 0 0 0 0 0 0 0 0 0 0 0 0 0 0 0 0 0 0 0 0 0 0 0 0 0 0 0 0 0 0 0 0 0 0 0 0 0 0 0 0 0 0 0 20 15 14 16 15 16 18 18 16 11 13 20 15 -193 -193 22 -193 26 28 31 31 33 35 36 36 34 36 35 35 35 33 31 30 30 30 29 27 25 24 26 26 27 29 29 30 32 35 -193 33 33 32 31 31 32 31 29 36 38 39 38 35 36 -193 -193 305 306 -177 -193 -209 -209 -193 0 -193 -193 -209 32 34 39 37 37 36 36 36 35 34 33 32 34 34 35 35 35 36 33 35 36 36 36 36 36 34 36 40 40 39 38 39 38 38 39 38 37 39 -193 -209 -193 -209 -209 -209 -209 -209 -209 -193 -193 40 41 39 38 37 36 36 36 36 35 36 35 37 37 36 37 38 28 18 11 0 9 11 11 10 12 15 14 18 17 18 17 21 21 21 21 23 22 23 24 24 25 23 23 23 23 21 21 21 20 15 16 17 19 18 21 22 -177 -193 29 34 31 31 32 35 35 34 35 36 36 37 37 37 39 38 39 41 41 40 42 42 44 42 43 43 42 43 42 41 41 37 41 41 43 42 43 43 45 44 43 43 43 42 44 45 46 47 47 48 49 49 48 48 45 48 45 46 45 45 46 45 46 0 0 0 0 0
    0 0 0 0 0 0 0 0 0 0 0 0 0 0 0 0 0 0 0 0 0 0 0 0 0 0 0 0 0 0 0 0 0 0 0 0 0 0 0 0 0 0 0 0 0 0 0 0 0 0 0 0 0 0 0 0 0 0 0 0 0 0 0 0 0 0 0 0 0 20 16 15 16 15 17 19 19 17 11 15 21 17 -193 -193 23 28 27 30 33 32 34 35 36 37 35 36 36 35 35 34 32 32 32 31 30 27 25 25 27 27 29 31 31 32 34 36 35 34 34 33 32 32 33 31 28 36 39 39 38 37 38 -193 -193 -177 -177 -177 -177 -209 -209 -209 -193 -177 -209 -209 -193 36 39 38 38 37 37 37 35 35 34 32 34 34 35 35 36 36 33 35 37 36 36 37 36 36 37 40 40 39 39 40 39 38 39 38 37 39 -193 -209 -209 -193 -209 -209 -209 -209 -209 -209 -209 41 41 39 38 37 37 37 36 36 36 37 36 37 37 36 37 38 33 -193 13 0 9 11 11 10 12 15 14 18 18 18 17 21 21 21 22 23 22 23 24 24 24 25 25 25 25 22 22 22 21 16 17 18 19 18 21 22 -209 -193 29 34 32 32 32 35 35 34 35 36 34 36 36 35 38 38 39 40 41 40 42 42 44 43 43 43 42 43 43 41 42 38 41 41 42 42 43 43 44 44 44 43 43 42 43 44 45 46 47 47 47 48 47 47 45 47 45 45 44 45 46 45 46 0 0 0 0 0
    0 0 0 0 0 0 0 0 0 0 0 0 0 0 0 0 0 0 0 0 0 0 0 0 0 0 0 0 0 0 0 0 0 0 0 0 0 0 0 0 0 0 0 0 0 0 0 0 0 0 0 0 0 0 0 0 0 0 0 0 0 0 0 0 0 0 0 0 0 21 17 15 16 16 18 20 20 18 13 18 22 20 -193 -193 24 30 29 33 34 34 35 37 37 37 36 37 36 36 36 35 34 33 34 33 30 28 26 25 27 27 29 31 31 33 34 36 35 34 35 34 34 34 34 32 29 36 38 39 38 37 38 -193 -193 -177 -177 -177 -177 -177 -177 -193 -193 -177 -209 -209 -193 37 39 38 38 37 37 37 36 35 34 32 34 34 35 35 35 36 32 34 36 36 35 36 36 35 37 41 40 -193 39 40 40 39 40 38 37 39 35 -209 -209 -209 -209 -209 -209 -209 -193 -193 -209 41 41 40 39 37 37 37 37 37 36 37 36 37 37 37 37 38 36 33 21 10 10 13 11 10 13 16 15 20 18 18 18 22 21 21 22 23 22 23 24 24 24 26 26 26 26 23 23 23 21 18 18 19 19 19 21 23 -209 -193 28 33 31 32 33 35 35 34 35 36 34 35 35 33 37 38 38 40 40 40 42 42 44 43 42 42 42 43 43 41 42 38 40 41 43 42 43 43 45 44 44 43 43 43 43 44 45 45 46 47 47 48 47 47 45 47 45 44 44 44 45 44 46 0 0 0 0 0
    0 0 0 0 0 0 0 0 0 0 0 0 0 0 0 0 0 0 0 0 0 0 0 0 0 0 0 0 0 0 0 0 0 0 0 0 0 0 0 0 0 0 0 0 0 0 0 0 0 0 0 0 0 0 0 0 0 0 0 0 0 0 0 0 0 0 0 0 0 21 18 16 16 16 18 21 21 20 17 22 24 23 -193 26 25 34 31 34 35 35 36 36 36 37 35 37 36 36 36 35 34 34 34 33 30 28 25 25 27 28 29 31 31 33 35 36 35 34 35 35 35 34 34 31 30 36 39 39 39 37 39 -177 -177 -177 -177 -177 -177 -177 -193 -193 -209 -177 -209 -209 -193 36 39 38 37 37 37 37 36 34 34 33 34 35 35 35 35 35 32 33 36 35 35 35 36 35 36 41 40 -193 39 40 41 40 40 38 37 38 35 -209 -209 -209 -209 -209 -209 -209 -193 -193 -193 39 39 39 38 37 36 37 37 37 37 38 37 38 38 38 37 38 36 36 25 25 14 18 14 13 16 18 17 20 19 18 18 22 20 21 22 23 22 24 24 25 24 26 27 27 27 24 23 23 21 19 20 20 20 20 21 23 24 25 28 34 32 33 35 36 36 34 35 34 34 34 33 30 34 37 38 39 39 39 41 41 43 42 42 42 42 43 42 41 42 38 40 41 42 42 43 43 45 44 44 43 43 43 43 44 45 45 47 47 47 48 47 48 45 47 45 43 43 44 44 44 45 0 0 0 0 0
    0 0 0 0 0 0 0 0 0 0 0 0 0 0 0 0 0 0 0 0 0 0 0 0 0 0 0 0 0 0 0 0 0 0 0 0 0 0 0 0 0 0 0 0 0 0 0 0 0 0 0 0 0 0 0 0 0 0 0 0 0 0 0 0 0 0 0 0 0 -193 20 18 16 17 19 22 23 24 24 27 29 29 34 35 30 37 33 35 36 36 37 37 37 37 36 37 37 37 36 35 34 34 33 31 29 27 23 24 27 29 30 32 32 34 35 36 35 34 35 35 35 34 33 31 31 36 38 38 38 37 -193 -177 -177 -177 -177 -177 -177 -193 -193 -193 -209 -177 -193 -209 36 36 38 38 37 37 37 37 36 35 34 34 34 36 36 35 36 36 32 34 36 35 35 35 35 34 36 40 39 -193 39 40 41 40 40 38 38 38 35 -209 -209 -193 -209 -209 -209 -209 -193 -209 -209 -193 39 39 39 38 37 38 38 39 38 39 37 38 37 37 37 37 36 36 28 30 23 24 21 19 22 22 21 23 21 20 20 24 22 23 24 25 25 26 27 28 25 27 28 28 28 26 24 24 22 22 22 22 22 22 22 23 25 26 29 36 35 38 39 39 39 37 36 35 35 34 33 31 33 36 37 38 39 39 40 40 42 42 41 41 41 42 41 41 41 38 39 40 42 41 42 43 44 43 43 43 43 42 42 43 44 45 47 46 47 47 47 48 46 47 45 43 43 43 44 44 45 0 0 0 0 0
    0 0 0 0 0 0 0 0 0 0 0 0 0 0 0 0 0 0 0 0 0 0 0 0 0 0 0 0 0 0 0 0 0 0 0 0 0 0 0 0 0 0 0 0 0 0 0 0 0 0 0 0 0 0 0 0 0 0 0 0 0 0 0 0 0 0 0 0 0 -209 -209 -209 -209 -193 21 -193 31 34 36 37 37 36 39 39 36 38 35 37 37 37 37 37 36 37 37 37 37 36 36 35 33 33 32 29 27 25 19 22 27 29 31 32 32 35 35 35 34 33 34 34 34 35 32 32 32 36 37 37 37 37 38 -193 -177 -177 -177 -177 -177 -193 -193 -193 -193 -193 -209 -209 37 38 39 39 38 39 38 38 37 36 36 36 36 37 37 36 36 36 33 34 36 36 35 35 36 35 37 41 40 40 39 40 42 41 41 39 38 38 36 -209 -209 -209 -209 -209 -209 -193 -209 -209 -209 36 38 38 39 39 38 39 39 39 39 39 38 38 37 37 36 36 35 36 30 35 28 29 30 29 30 30 29 32 32 33 30 31 29 29 29 30 28 28 29 31 29 31 32 33 32 35 29 27 25 24 24 24 24 24 23 25 28 29 36 41 41 43 43 42 41 40 38 36 34 34 33 31 33 36 36 37 38 38 39 39 41 41 41 41 41 42 41 41 41 38 39 40 41 41 42 43 44 43 43 43 42 42 42 43 43 44 46 46 46 47 46 48 46 -193 45 44 44 44 44 45 45 0 0 0 0 0
    0 0 0 0 0 0 0 0 0 0 0 0 0 0 0 0 0 0 0 0 0 0 0 0 0 0 0 0 0 0 0 0 0 0 0 0 0 0 0 0 0 0 0 0 0 0 0 0 0 0 0 0 0 0 0 0 0 0 0 0 0 0 0 0 0 0 0 0 0 -209 -193 -209 39 26 26 30 33 36 37 39 40 39 40 40 38 38 36 37 37 37 37 37 36 37 37 37 36 36 36 35 33 33 32 28 27 25 16 22 27 29 -209 32 32 34 34 35 34 33 34 34 34 36 34 34 33 36 37 37 37 38 38 -193 -177 -177 -177 -177 -177 -209 -193 -193 -209 -209 -209 -193 38 39 40 39 39 39 39 39 39 37 37 37 37 38 38 37 37 37 34 35 37 37 36 35 36 36 38 42 41 41 41 42 43 42 42 39 38 38 36 -193 -209 -209 -209 -209 -209 -209 -209 -209 203 34 37 39 40 40 39 40 40 41 40 40 38 38 37 37 36 36 34 36 31 36 29 31 33 33 33 35 35 38 39 41 41 39 41 39 39 38 33 36 38 41 42 39 41 39 39 41 40 36 35 34 32 33 30 32 30 33 38 40 41 43 43 44 44 43 43 42 39 36 32 32 32 30 32 36 36 37 38 39 39 39 41 41 41 41 41 42 41 41 41 38 39 40 42 42 -193 44 45 44 44 44 43 43 41 42 43 44 46 45 46 46 46 48 -193 -193 -193 -193 45 45 45 45 46 0 0 0 0 0
    0 0 0 0 0 0 0 0 0 0 0 0 0 0 0 0 0 0 0 0 0 0 0 0 0 0 0 0 0 0 0 0 0 0 0 0 0 0 0 0 0 0 0 0 0 0 0 0 0 0 0 0 0 0 0 0 0 0 0 0 0 0 0 0 0 0 0 0 0 41 44 39 36 28 31 31 32 34 36 38 40 39 39 39 38 38 37 37 36 37 37 37 36 37 36 37 36 36 36 35 34 33 33 28 28 26 14 23 28 30 -209 32 33 33 33 34 34 32 34 33 35 37 35 36 35 37 37 37 37 38 39 -209 -177 -177 -177 -177 -177 -209 -193 -193 -193 -177 -209 38 40 40 41 40 40 40 40 40 40 38 37 38 38 38 40 38 39 37 36 36 37 37 36 35 36 36 38 42 41 41 42 43 44 43 42 40 38 38 37 39 -193 -193 -209 -209 -177 -209 -209 -209 -193 32 36 39 40 41 40 40 41 41 40 40 38 38 36 36 35 35 33 34 31 34 28 30 31 30 30 33 32 36 37 39 39 38 40 39 -193 -193 -209 39 -209 42 45 41 42 40 -193 -193 42 36 36 36 34 36 34 37 37 38 39 41 41 43 43 44 44 43 43 42 40 37 33 31 31 30 31 35 36 37 38 39 40 39 41 41 40 40 41 42 41 40 41 38 37 40 42 42 -193 44 46 44 44 44 43 43 42 42 43 44 46 45 45 46 46 48 46 -193 -193 -193 -193 45 45 46 46 0 0 0 0 0
    0 0 0 0 0 0 0 0 0 0 0 0 0 0 0 0 0 0 0 0 0 0 0 0 0 0 0 0 0 0 0 0 0 0 0 0 0 0 0 0 0 0 0 0 0 0 0 0 0 0 0 0 0 0 0 0 0 0 0 0 0 0 0 0 0 0 0 0 0 -193 42 37 33 28 30 29 30 34 35 38 40 39 39 39 37 38 36 37 36 36 36 36 36 36 37 37 36 37 36 36 34 34 34 29 29 27 21 25 29 31 -209 33 33 33 34 34 34 33 35 35 36 38 36 37 36 37 37 37 38 39 40 41 -209 -193 -193 -177 -209 -209 -209 -177 -177 -177 -193 38 41 41 40 40 41 41 42 42 41 40 40 41 41 40 42 39 40 38 37 37 38 37 36 35 36 36 38 41 40 40 41 42 44 43 42 40 39 39 38 -193 -193 -193 -193 -193 -209 -193 -209 -209 -193 29 34 37 39 40 39 40 40 41 40 40 39 39 37 37 35 35 34 35 32 34 28 31 32 31 32 34 33 36 36 39 39 39 40 40 40 42 -193 40 -209 40 44 40 41 41 -209 -209 42 36 36 37 33 35 33 36 36 37 38 39 39 41 42 43 42 42 42 42 41 38 34 31 32 31 33 37 36 37 39 40 41 40 41 42 41 41 41 42 40 41 41 39 38 40 43 43 -193 45 46 44 44 44 43 43 42 42 43 44 46 46 46 46 46 48 46 -193 46 45 45 45 45 46 46 0 0 0 0 0
    0 0 0 0 0 0 0 0 0 0 0 0 0 0 0 0 0 0 0 0 0 0 0 0 0 0 0 0 0 0 0 0 0 0 0 0 0 0 0 0 0 0 0 0 0 0 0 0 0 0 0 0 0 0 0 0 0 0 0 0 0 0 0 0 0 0 0 0 0 42 43 37 33 29 30 28 30 34 35 -193 -193 39 -193 39 38 37 36 37 35 36 36 36 36 35 36 37 36 36 36 36 34 34 35 30 30 28 26 27 31 32 -209 33 34 34 35 35 35 34 36 35 37 38 36 38 37 38 37 38 39 40 41 44 42 49 -193 -209 -209 -209 -209 -209 -193 -193 37 40 42 42 41 42 43 43 44 44 43 42 42 44 43 42 45 40 40 39 38 38 38 37 35 35 36 36 37 41 40 40 41 41 43 42 42 40 39 39 38 -193 -193 -193 -193 -193 -209 -193 -209 -209 28 28 32 37 40 41 41 41 41 42 42 41 41 40 38 38 37 37 36 36 34 35 29 34 33 33 34 35 34 36 36 39 39 39 40 40 41 42 40 40 41 40 43 42 43 43 43 52 50 40 39 38 34 34 33 35 35 35 37 38 38 40 41 42 42 41 41 42 41 40 38 35 35 34 35 38 37 37 39 41 41 40 41 41 41 41 41 42 41 41 42 41 41 41 44 45 -193 45 46 44 44 44 43 43 41 42 43 44 47 46 46 47 46 48 46 49 46 46 46 46 45 46 46 0 0 0 0 0
    0 0 0 0 0 0 0 0 0 0 0 0 0 0 0 0 0 0 0 0 0 0 0 0 0 0 0 0 0 0 0 0 0 0 0 0 0 0 0 0 0 0 0 0 0 0 0 0 0 0 0 0 0 0 0 0 0 0 0 0 0 0 0 0 0 0 0 0 0 -193 -209 -209 34 29 31 29 30 35 35 37 38 38 -193 -193 38 38 36 37 36 37 37 37 36 35 36 36 36 36 35 35 34 34 34 30 32 30 28 29 32 34 -193 34 36 35 36 36 36 36 37 35 38 38 37 38 37 38 38 38 40 41 42 44 44 49 51 52 48 48 -209 40 40 42 40 41 44 44 44 45 47 49 50 48 46 45 47 51 47 45 49 41 41 39 39 39 38 37 36 35 36 36 38 41 42 41 41 41 42 42 41 40 39 39 -193 -193 41 -209 35 29 -209 -193 -209 -193 27 28 31 37 39 41 40 41 41 42 42 41 42 41 39 39 38 38 37 37 36 36 29 35 35 34 34 35 34 36 35 38 38 39 39 39 40 41 40 40 40 39 41 41 43 43 45 53 54 44 41 39 35 35 35 36 36 37 39 40 39 41 42 41 41 41 41 41 41 40 39 36 37 36 36 38 39 39 41 43 41 41 41 42 42 41 42 43 41 42 42 42 42 42 47 49 47 46 47 44 44 44 44 43 41 42 43 44 46 46 46 46 46 48 46 49 46 46 47 46 46 47 46 0 0 0 0 0
    0 0 0 0 0 0 0 0 0 0 0 0 0 0 0 0 0 0 0 0 0 0 0 0 0 0 0 0 0 0 0 0 0 0 0 0 0 0 0 0 0 0 0 0 0 0 0 0 0 0 0 0 0 0 0 0 0 0 0 0 0 0 0 0 0 0 0 0 0 -209 -209 -209 -209 28 32 30 31 34 35 37 38 38 -193 39 39 38 37 37 35 37 37 36 35 35 37 36 35 36 35 35 33 34 33 29 33 31 29 30 33 35 -193 36 37 36 37 38 37 37 37 36 39 39 37 39 38 38 38 39 40 41 43 44 44 49 50 51 46 47 46 42 42 44 43 44 47 47 48 50 52 54 55 53 51 50 53 55 52 50 53 44 44 41 40 40 39 39 38 36 37 37 39 42 43 41 41 40 40 41 41 40 40 40 -193 -193 42 -193 36 32 -209 -209 26 27 27 28 30 37 39 42 41 42 42 43 43 43 44 43 40 40 39 39 38 38 37 36 30 35 36 35 36 36 35 36 35 37 38 39 38 39 39 40 41 41 41 40 41 41 42 42 42 45 44 40 41 39 35 34 35 37 37 39 40 42 42 43 44 43 42 42 41 41 41 40 40 38 39 39 39 40 44 42 43 45 42 42 41 42 43 42 42 43 42 42 42 43 43 42 48 50 47 46 47 45 45 45 44 43 42 43 44 44 46 45 46 46 45 48 46 49 46 47 47 47 47 47 46 0 0 0 0 0
    0 0 0 0 0 0 0 0 0 0 0 0 0 0 0 0 0 0 0 0 0 0 0 0 0 0 0 0 0 0 0 0 0 0 0 0 0 0 0 0 0 0 0 0 0 0 0 0 0 0 0 0 0 0 0 0 0 0 0 0 0 0 0 0 0 0 0 0 0 24 -209 -209 -193 28 32 30 30 34 34 36 37 37 37 38 38 37 36 37 35 37 37 37 35 35 37 36 35 36 34 34 32 34 32 30 33 31 31 32 34 36 37 37 38 37 39 39 38 37 38 37 39 39 38 39 38 39 39 39 40 42 44 46 46 51 52 53 48 48 47 44 44 46 45 47 49 51 52 53 54 56 56 55 54 54 55 57 54 53 55 48 46 44 44 43 41 40 40 38 39 38 41 42 43 41 40 39 39 39 39 39 39 39 -193 -193 43 43 39 38 -193 -193 28 30 30 29 31 38 41 43 41 42 42 42 43 42 43 42 40 40 40 40 39 39 38 36 32 36 37 36 37 36 35 36 36 37 38 39 38 38 39 40 40 40 41 39 40 40 42 41 42 -209 -209 43 42 40 35 33 36 38 39 40 41 43 -193 43 45 43 43 42 40 40 40 38 39 38 40 41 42 43 46 44 45 47 43 43 41 42 43 42 42 43 42 42 42 43 43 42 49 50 47 46 46 45 45 45 44 43 42 43 44 45 46 45 46 46 45 48 46 49 47 47 47 47 47 48 46 0 0 0 0 0
    0 0 0 0 0 0 0 0 0 0 0 0 0 0 0 0 0 0 0 0 0 0 0 0 0 0 0 0 0 0 0 0 0 0 0 0 0 0 0 0 0 0 0 0 0 0 0 0 0 0 0 0 0 0 0 0 0 0 0 0 0 0 0 0 0 0 0 0 0 37 38 33 34 31 33 31 31 34 34 35 36 35 36 37 37 35 35 36 34 36 35 35 34 35 36 36 35 36 33 35 35 35 32 31 33 32 33 34 36 36 38 37 39 37 39 39 38 38 39 37 40 40 39 40 39 39 40 40 42 43 47 48 49 52 53 53 48 48 48 45 44 47 46 48 49 52 53 55 55 57 57 57 56 56 57 58 56 54 55 49 46 46 47 45 42 42 43 40 41 41 42 42 42 42 40 39 39 38 38 38 38 37 37 38 39 40 39 39 40 40 41 40 -209 38 37 39 41 41 41 42 41 42 42 42 44 43 41 41 41 40 39 39 39 37 33 37 37 37 38 38 37 37 37 37 39 40 40 40 42 43 42 42 42 41 42 41 42 41 42 -193 -193 45 45 42 38 36 39 38 39 -193 -193 -193 -193 43 44 42 41 40 38 37 38 37 38 37 38 40 43 46 52 47 49 50 47 46 43 44 44 42 42 43 42 43 43 44 43 43 49 49 46 45 46 45 45 45 44 43 42 43 45 45 46 46 46 46 46 48 46 49 47 47 47 47 47 48 46 0 0 0 0 0
    0 0 0 0 0 0 0 0 0 0 0 0 0 0 0 0 0 0 0 0 0 0 0 0 0 0 0 0 0 0 0 0 0 0 0 0 0 0 0 0 0 0 0 0 0 0 0 0 0 0 0 0 0 0 0 0 0 0 0 0 0 0 0 0 0 0 0 0 0 38 39 37 37 35 36 33 33 34 33 33 35 34 34 35 36 34 34 35 34 35 35 35 35 36 38 38 36 37 36 37 37 36 34 32 35 34 35 36 36 37 39 38 39 37 39 39 38 38 40 38 42 43 40 43 41 42 43 44 46 48 52 52 52 54 54 55 51 51 51 48 47 50 50 50 51 53 54 56 56 57 58 59 58 58 59 60 58 58 58 56 52 52 51 47 44 43 44 41 41 41 42 41 40 41 40 40 39 38 38 37 37 36 36 36 38 39 39 40 42 42 43 46 47 43 41 41 40 40 40 40 40 42 42 42 44 44 41 41 41 40 39 39 39 37 33 37 38 38 39 39 38 38 39 39 41 42 42 43 44 46 45 44 45 44 45 44 43 43 43 45 45 45 45 43 41 38 40 40 40 -193 42 -193 -193 42 43 43 41 40 38 37 38 37 37 34 35 32 -209 46 53 -193 52 52 50 49 45 46 47 43 43 44 43 43 43 44 43 43 49 49 46 45 45 45 44 44 43 43 42 43 45 45 46 46 46 46 46 48 45 50 47 47 47 46 47 48 46 0 0 0 0 0
    0 0 0 0 0 0 0 0 0 0 0 0 0 0 0 0 0 0 0 0 0 0 0 0 0 0 0 0 0 0 0 0 0 0 0 0 0 0 0 0 0 0 0 0 0 0 0 0 0 0 0 0 0 0 0 0 0 0 0 0 0 0 0 0 0 0 0 0 0 38 39 37 37 36 36 35 34 34 34 33 35 34 34 35 34 33 33 35 34 35 36 36 36 38 39 38 37 38 37 38 38 37 35 33 37 36 37 38 37 37 39 39 39 36 38 38 37 38 40 37 42 46 43 45 44 46 49 50 52 52 54 55 55 56 56 57 54 54 54 53 52 53 54 53 53 54 55 57 56 58 58 60 59 58 59 60 58 59 59 57 53 53 55 51 44 43 44 41 38 37 -209 -209 37 38 39 38 38 37 37 37 37 36 36 36 38 39 40 41 43 43 45 47 -193 44 -193 -193 40 38 39 39 39 -193 40 41 43 43 41 41 41 40 39 39 39 37 33 37 37 38 40 39 38 39 40 40 42 -193 -193 45 46 -193 46 46 45 45 45 44 44 44 44 45 45 45 44 43 41 38 40 40 40 40 41 41 40 41 43 43 40 40 37 37 38 38 40 35 37 -209 -209 47 51 -209 -193 -209 49 48 42 44 47 43 43 44 43 43 43 44 44 43 50 49 45 44 45 44 44 43 43 43 42 43 45 45 46 46 46 46 45 47 45 49 46 46 46 46 47 48 47 0 0 0 0 0
    0 0 0 0 0 0 0 0 0 0 0 0 0 0 0 0 0 0 0 0 0 0 0 0 0 0 0 0 0 0 0 0 0 0 0 0 0 0 0 0 0 0 0 0 0 0 0 0 0 0 0 0 0 0 0 0 0 0 0 0 0 0 0 0 0 0 0 0 0 39 41 39 37 36 37 35 34 36 35 34 36 35 34 35 34 33 34 37 35 36 37 37 37 39 39 39 37 38 37 38 38 37 36 34 37 37 38 39 38 38 40 39 39 36 38 38 36 38 40 38 43 49 45 47 48 52 54 54 54 54 55 56 56 57 56 57 55 56 56 56 55 55 56 55 55 56 56 58 57 58 58 60 59 58 59 59 58 59 59 58 55 56 57 54 46 43 45 -209 -209 -209 -193 -209 -209 -193 39 38 39 -193 -193 37 37 36 36 36 38 39 40 42 44 44 45 48 -193 -193 -209 -209 -209 -193 -193 -193 -193 -193 40 41 44 44 41 41 41 41 39 40 39 37 34 38 38 39 -193 -193 40 40 42 -209 45 47 47 48 49 50 -193 -193 46 45 45 44 44 43 43 45 45 45 44 43 40 37 40 39 39 40 41 40 41 40 43 43 40 41 38 38 40 40 45 -193 40 44 -209 53 -209 -193 -193 -209 53 -209 41 42 50 45 44 45 44 45 45 46 46 44 51 49 46 44 45 44 44 43 43 43 42 44 45 45 46 46 46 46 45 47 44 49 45 45 46 46 47 49 49 0 0 0 0 0
    0 0 0 0 0 0 0 0 0 0 0 0 0 0 0 0 0 0 0 0 0 0 0 0 0 0 0 0 0 0 0 0 0 0 0 0 0 0 0 0 0 0 0 0 0 0 0 0 0 0 0 0 0 0 0 0 0 0 0 0 0 0 0 0 0 0 0 0 0 42 43 41 39 37 37 35 35 36 36 34 36 35 35 36 35 33 34 37 36 36 37 37 37 39 40 39 38 38 37 38 38 37 35 32 37 36 -193 -193 38 38 -193 39 40 36 38 37 36 38 41 39 45 53 50 50 51 54 55 55 55 55 55 55 56 56 56 56 54 55 56 57 56 57 57 57 56 57 57 59 58 58 58 60 59 59 59 59 58 58 58 58 55 55 57 54 45 43 -193 -209 -209 -209 -209 -209 -209 -209 -209 -209 -193 -193 -193 -193 38 36 36 36 38 39 41 42 45 45 47 49 -193 -193 -209 -193 -209 -193 -193 -193 -193 -193 39 40 43 43 41 41 41 41 39 40 39 38 35 38 38 39 -193 -193 41 40 43 -193 47 50 49 50 51 -193 -193 -193 46 45 45 45 45 43 43 46 46 45 45 43 41 38 41 40 40 41 42 41 42 41 43 44 -193 -193 37 38 39 39 45 38 39 43 46 -209 -209 -209 -209 -209 -209 -209 -209 -193 52 45 44 45 45 45 46 47 48 45 52 50 48 46 47 46 45 44 44 44 43 44 46 45 46 46 46 46 46 47 44 49 46 46 47 47 48 50 51 0 0 0 0 0
    0 0 0 0 0 0 0 0 0 0 0 0 0 0 0 0 0 0 0 0 0 0 0 0 0 0 0 0 0 0 0 0 0 0 0 0 0 0 0 0 0 0 0 0 0 0 0 0 0 0 0 0 0 0 0 0 0 0 0 0 0 0 0 0 0 0 0 0 0 43 44 41 39 38 37 35 35 36 36 34 36 35 35 35 34 33 34 36 36 36 37 38 38 40 41 39 38 38 37 38 38 37 34 29 35 35 -193 -209 -193 -193 -193 39 40 36 38 37 35 39 46 42 50 55 53 53 54 55 56 56 56 55 55 55 55 55 55 55 54 55 57 57 57 58 58 57 57 57 58 59 57 58 58 59 59 59 59 59 58 59 59 58 55 55 57 55 45 43 -193 -209 -209 -209 -209 -209 90 -209 -209 -209 -209 -209 -209 -193 38 -193 36 36 38 39 41 43 45 45 48 -193 -193 -193 -193 -193 -193 -193 -193 -193 -193 -193 39 40 43 44 41 41 41 41 39 40 39 37 35 37 38 39 -193 -193 41 41 44 45 47 50 -193 -193 -193 -209 -193 -193 47 46 45 45 44 43 43 45 45 44 46 45 43 40 42 41 41 41 43 42 43 41 44 44 -193 40 37 38 40 39 42 37 37 -193 -209 -209 -209 -209 -209 -209 -209 -209 -209 41 -209 45 44 45 45 45 45 47 47 45 52 50 48 46 47 47 46 45 44 44 43 45 47 46 46 46 46 46 46 47 44 49 45 46 46 -193 48 49 50 0 0 0 0 0
    0 0 0 0 0 0 0 0 0 0 0 0 0 0 0 0 0 0 0 0 0 0 0 0 0 0 0 0 0 0 0 0 0 0 0 0 0 0 0 0 0 0 0 0 0 0 0 0 0 0 0 0 0 0 0 0 0 0 0 0 0 0 0 0 0 0 0 0 0 43 44 41 38 37 37 35 34 36 36 32 36 35 35 35 34 32 33 35 35 34 37 38 38 40 42 40 39 38 38 38 38 37 34 29 34 -193 -209 -193 -193 -209 -193 41 41 37 38 -225 -225 -225 -225 46 52 55 53 53 54 56 56 56 56 55 56 56 56 56 56 56 55 56 57 58 58 58 58 57 57 57 57 58 57 57 57 59 58 58 59 59 58 59 59 58 56 56 57 56 48 44 -193 -209 -209 -209 -193 92 92 -193 -209 -209 -193 -209 -209 -193 -193 -193 -193 35 37 -193 -193 -193 -193 -193 48 -193 364 365 366 369 -193 -209 -209 -209 -209 -209 38 40 -193 44 42 41 41 41 39 40 39 38 36 37 38 39 41 -193 42 42 46 48 50 52 51 -193 -193 -193 -209 -209 47 46 45 45 45 44 44 46 46 -209 46 47 43 -209 -209 39 41 -193 43 -193 43 44 47 49 54 45 39 39 41 38 41 35 35 35 34 -209 -209 -209 -209 -209 -209 -209 -209 -209 -209 45 42 44 44 44 45 46 46 47 51 49 47 46 47 47 46 44 43 43 43 45 47 46 46 47 47 48 46 46 43 48 40 43 -193 -193 44 46 49 0 0 0 0 0
    0 0 0 0 0 0 0 0 0 0 0 0 0 0 0 0 0 0 0 0 0 0 0 0 0 0 0 0 0 0 0 0 0 0 0 0 0 0 0 0 0 0 0 0 0 0 0 0 0 0 0 0 0 0 0 0 0 0 0 0 0 0 0 0 0 0 0 0 0 44 44 41 39 38 37 35 34 36 35 31 35 34 34 34 33 32 32 34 33 32 36 38 39 41 43 41 41 39 39 39 39 38 35 29 -193 -225 -225 -225 -225 -225 -225 -225 -225 -225 -225 -225 -225 -225 -225 49 53 55 53 53 54 56 56 57 57 56 57 58 58 58 57 57 56 57 58 58 58 59 58 58 57 57 57 58 57 56 56 58 58 57 58 59 58 58 59 58 56 57 58 57 -193 -193 -225 -225 -225 -209 -193 -193 -193 -193 -193 -209 -209 251 254 254 -193 -193 -193 34 36 -193 -209 -209 -193 -193 50 -193 364 365 366 -225 -193 -225 -193 -209 -209 -209 -193 -209 -209 -193 -193 42 42 41 41 41 40 39 38 37 39 40 44 -193 45 45 51 53 53 53 52 52 -193 -193 -209 -209 49 48 47 47 -193 -209 -209 -209 -209 -193 -209 -209 -209 -209 -209 43 45 45 51 54 54 57 55 54 57 55 48 -209 45 -193 46 36 36 -209 -209 -193 -209 -209 -209 -209 -209 -209 -209 63 -209 -209 -209 48 50 50 52 51 50 50 53 52 53 52 52 53 48 46 43 44 45 48 51 48 48 51 51 51 47 45 -193 -209 33 -209 -209 -209 -209 -209 -209 0 0 0 0 0
    0 0 0 0 0 0 0 0 0 0 0 0 0 0 0 0 0 0 0 0 0 0 0 0 0 0 0 0 0 0 0 0 0 0 0 0 0 0 0 0 0 0 0 0 0 0 0 0 0 0 0 0 0 0 0 0 0 0 0 0 0 0 0 0 0 0 0 0 0 44 45 42 40 39 38 37 36 38 37 32 36 35 35 34 34 32 31 33 31 27 31 38 41 41 44 41 41 40 40 39 39 38 36 30 -225 -225 -225 -225 -225 -225 -225 -225 -225 -225 -225 -225 -225 -225 -225 51 52 54 53 53 54 56 56 56 56 56 56 56 57 57 55 55 56 57 58 58 59 59 59 58 58 57 57 58 57 57 56 58 58 57 58 58 58 58 58 58 56 57 58 57 -193 -225 -225 -225 -225 -193 -193 -193 -193 -193 -193 -193 1008 -193 254 254 -193 -193 -193 32 35 -193 -209 -209 -193 -193 51 -193 364 -225 -225 -225 -225 -225 -225 -225 366 367 -193 -209 -209 -209 -209 -193 42 42 42 42 41 39 38 34 37 43 -225 -225 -225 48 52 54 54 53 52 52 -193 -193 -209 -209 52 51 -193 -209 -209 -209 -193 -209 -209 -209 -209 -209 -209 56 57 54 54 55 57 59 59 60 59 56 56 56 55 52 50 51 52 -209 -209 -209 -209 72 -193 72 71 -193 -209 -209 66 63 -193 -193 -209 56 55 57 56 55 53 53 55 56 56 57 55 57 54 54 56 53 -209 -193 -209 53 53 55 55 54 51 49 -209 -209 -209 -209 -209 -209 -209 -209 -209 0 0 0 0 0
    0 0 0 0 0 0 0 0 0 0 0 0 0 0 0 0 0 0 0 0 0 0 0 0 0 0 0 0 0 0 0 0 0 0 0 0 0 0 0 0 0 0 0 0 0 0 0 0 0 0 0 0 0 0 0 0 0 0 0 0 0 0 0 0 0 0 0 0 0 48 48 45 43 -193 40 39 39 43 49 36 40 40 40 40 41 34 32 35 -209 -225 -225 -225 -225 -225 -225 42 43 41 41 40 40 39 -225 -225 -225 -225 -225 -225 -225 -225 -225 -225 -225 -225 -225 -225 -225 -225 -225 51 52 55 53 53 54 56 56 56 57 57 56 57 58 57 56 56 57 58 59 59 59 60 60 59 59 58 58 58 58 57 57 58 57 56 57 58 58 58 58 58 57 58 59 59 -209 -225 -225 -225 -225 -225 -225 -225 -225 -225 -225 -225 -225 -225 -225 -225 -225 -193 -193 -193 -193 -225 -209 -209 -225 -225 -225 -225 -225 -225 -225 -225 -225 -225 -225 -225 -225 -225 -225 -225 -225 -225 -225 -225 27 32 38 37 32 35 34 30 -225 -225 -225 -225 -225 -225 53 54 54 54 53 52 53 54 54 55 54 53 -193 -209 -209 -209 -209 -193 66 -193 63 66 60 60 61 60 60 59 59 61 61 62 60 57 57 57 57 56 54 56 55 -193 61 65 68 69 70 70 67 67 -209 -209 -193 -193 -193 -193 -209 56 56 57 56 55 54 53 56 57 58 59 58 60 -193 57 58 55 61 62 -209 58 57 60 58 56 55 54 56 58 -209 -209 -209 -209 -209 -209 68 0 0 0 0 0
    0 0 0 0 0 0 0 0 0 0 0 0 0 0 0 0 0 0 0 0 0 0 0 0 0 0 0 0 0 0 0 0 0 0 0 0 0 0 0 0 0 0 0 0 0 0 0 0 0 0 0 0 0 0 0 0 0 0 0 0 0 0 0 0 0 0 0 0 0 54 54 53 -193 -193 48 44 48 50 55 -193 54 50 49 51 51 52 44 44 -225 -225 -225 -225 -225 -225 -225 -225 -225 -225 -225 -225 -225 -225 -225 -225 -225 -225 -225 -225 -225 -225 -225 -225 -225 -225 -225 -225 -225 -225 -225 52 51 53 52 51 53 55 55 54 55 55 55 57 58 57 56 57 57 59 60 60 60 60 61 60 59 59 58 58 58 56 56 56 56 54 54 55 56 56 57 57 55 57 59 60 -225 -225 -225 -225 -225 -225 -225 -225 -225 -225 -225 -225 -225 -225 -225 -225 -225 -225 -225 -225 -225 -225 -225 -225 -225 -225 -225 -225 -225 -225 -225 -225 -225 -225 -225 -225 -225 -225 -225 -225 -225 -225 -225 -225 -225 -225 -225 -225 -225 -225 -225 -225 -225 -225 -225 -225 -225 -225 -225 -225 56 56 55 55 55 55 55 57 58 58 -209 -209 -209 -209 -209 70 71 73 71 68 62 62 62 61 60 61 60 62 61 62 60 57 56 57 56 56 55 57 56 58 60 63 66 67 68 68 62 63 -209 -209 -193 -193 -193 -193 -209 56 56 57 56 55 54 54 57 59 61 62 63 65 -209 -209 64 -209 67 70 -193 65 65 67 64 60 58 -193 58 -193 -209 -209 -209 -209 -209 -193 68 0 0 0 0 0
    0 0 0 0 0 0 0 0 0 0 0 0 0 0 0 0 0 0 0 0 0 0 0 0 0 0 0 0 0 0 0 0 0 0 0 0 0 0 0 0 0 0 0 0 0 0 0 0 0 0 0 0 0 0 0 0 0 0 0 0 0 0 0 0 0 0 0 0 0 56 56 55 58 59 56 55 55 52 55 57 -225 -225 -225 56 56 57 53 -225 -225 -225 -225 -225 -225 -225 -225 -225 -225 -225 -225 -225 -225 -225 -225 -225 -225 -225 -225 -225 -225 -225 -225 -225 -225 -225 -225 -225 -225 -225 -225 -225 52 53 53 52 53 55 55 54 56 55 56 56 57 57 55 56 57 58 60 60 60 60 61 60 60 58 59 -209 59 57 57 -193 57 55 56 56 58 57 58 58 57 59 60 60 -225 -225 -225 -225 -225 -225 -225 -225 -225 -225 -225 -225 -225 -225 -225 -225 -225 -225 -225 -225 -225 -225 -225 -225 -225 -225 -225 -225 -225 -225 -225 -225 -225 -225 -225 -225 -225 -225 -225 -225 -225 -225 -225 -225 -225 -225 -225 -225 -225 -225 -225 -225 -225 -225 -225 -225 -225 -225 -225 -225 -225 -225 56 56 55 56 56 58 59 61 -209 -209 -209 -209 -193 72 72 73 71 66 61 61 61 60 60 61 61 62 62 62 60 58 56 57 57 57 55 58 56 59 61 65 67 67 68 68 60 62 61 -193 62 63 -193 61 57 56 56 56 54 55 53 53 56 59 62 63 65 68 -209 -209 -193 -193 -193 -193 -193 69 69 70 68 67 61 -193 -193 -193 -209 139 -193 -209 -193 -193 -193 0 0 0 0 0
    0 0 0 0 0 0 0 0 0 0 0 0 0 0 0 0 0 0 0 0 0 0 0 0 0 0 0 0 0 0 0 0 0 0 0 0 0 0 0 0 0 0 0 0 0 0 0 0 0 0 0 0 0 0 0 0 0 0 0 0 0 0 0 0 0 0 0 0 0 58 58 57 59 59 55 55 55 -225 -225 -225 -225 -225 -225 56 56 57 53 -225 -225 -225 -225 -225 -225 -225 -225 -225 -225 -225 -225 -225 -225 -225 -225 -225 -225 -225 -225 -225 -225 -225 -225 -225 -225 -225 -225 -225 -225 -225 -225 -225 52 52 52 52 54 55 54 52 56 56 56 56 57 57 55 56 59 59 60 59 60 60 60 59 59 57 -209 -209 -209 -209 -209 -177 57 55 56 56 58 57 58 57 57 58 59 60 -225 -225 -225 -225 -225 -225 -225 -225 -225 -225 -225 -225 -225 -225 -225 -225 -225 -225 -225 -225 -225 -225 -225 -225 -225 -225 -225 -225 -225 -225 -225 -225 -225 -225 -225 -225 -225 -225 -225 -225 -225 -225 -225 -225 -225 -225 -225 -225 -225 -225 -225 -225 -225 -225 -225 -225 -225 -225 -225 -225 -225 -225 -225 -225 -225 -225 56 59 62 63 -209 -209 -209 -209 72 72 73 73 71 66 61 61 61 61 60 61 61 62 62 62 61 58 56 58 57 58 55 59 56 -209 61 66 67 68 69 69 58 62 62 60 62 63 62 60 56 56 54 54 52 54 52 53 54 59 63 66 69 -193 86 -209 -209 -193 -193 -193 -193 71 70 72 69 68 -177 -209 -209 -209 -193 139 140 -209 -209 -209 -193 0 0 0 0 0
    0 0 0 0 0 0 0 0 0 0 0 0 0 0 0 0 0 0 0 0 0 0 0 0 0 0 0 0 0 0 0 0 0 0 0 0 0 0 0 0 0 0 0 0 0 0 0 0 0 0 0 0 0 0 0 0 0 0 0 0 0 0 0 0 0 0 0 0 0 60 61 60 61 58 -225 -225 -225 -225 -225 -225 -225 -225 -225 56 56 57 53 -225 -225 -225 -225 -225 -225 -225 -225 -225 -225 -225 -225 -225 -225 -225 -225 -225 -225 -225 -225 -225 -225 -225 -225 -225 -225 -225 -225 -225 -225 -225 -225 -225 52 52 52 53 55 56 56 55 57 60 60 59 59 58 57 57 60 60 60 59 59 59 59 -209 58 55 -209 -209 -209 -209 -193 -177 -193 56 57 56 61 58 59 58 58 60 62 62 -225 -225 -225 -225 -225 -225 -225 -225 -225 -225 -225 -225 -225 -225 -225 -225 -225 -225 -225 -225 -225 -225 -225 -225 -225 -225 -225 -225 -225 -225 -225 -225 -225 -225 -225 -225 -225 -225 -225 -225 -225 -225 -225 -225 -225 -225 -225 -225 -225 -225 -225 -225 -225 -225 -225 -225 -225 -225 -225 -225 -225 -225 -225 -225 -225 -225 -225 59 63 64 -209 -209 -209 -209 -193 72 73 73 71 66 61 61 61 60 60 60 60 61 62 62 61 58 56 58 58 59 55 -193 56 54 59 63 62 64 65 66 57 60 61 60 61 63 60 58 54 55 53 53 50 52 52 52 53 58 -209 -209 -209 -193 90 89 -209 -209 -193 -193 -193 71 70 72 69 69 -177 -209 62 -209 -193 140 140 -193 -209 17 18 0 0 0 0 0
    0 0 0 0 0 0 0 0 0 0 0 0 0 0 0 0 0 0 0 0 0 0 0 0 0 0 0 0 0 0 0 0 0 0 0 0 0 0 0 0 0 0 0 0 0 0 0 0 0 0 0 0 0 0 0 0 0 0 0 0 0 0 0 0 0 0 0 0 0 68 69 69 66 -225 -225 -225 -225 -225 -225 -225 -225 -225 -225 56 56 57 53 -225 -225 -225 -225 -225 -225 -225 -225 -225 -225 -225 -225 -225 -225 -225 -225 -225 -225 -225 -225 -225 -225 -225 -225 -225 -225 -225 -225 -225 -225 -225 -225 -225 -225 53 53 54 55 58 57 57 58 61 62 60 60 58 -225 -225 -225 -225 -225 -225 -225 -225 -225 -225 -225 -209 -225 -225 -225 -209 -193 260 -209 -193 57 57 62 59 59 58 58 60 62 -225 -225 -225 -225 -225 -225 -225 -225 -225 -225 -225 -225 -225 -225 -225 -225 -225 -225 -225 -225 -225 -225 -225 -225 -225 -225 -225 -225 -225 -225 -225 -225 -225 -225 -225 -225 -225 -225 -225 -225 -225 -225 -225 -225 -225 -225 -225 -225 -225 -225 -225 -225 -225 -225 -225 -225 -225 -225 -225 -225 -225 -225 -225 -225 -225 -225 -225 -225 60 64 64 61 68 -193 -209 72 72 73 73 72 66 61 61 61 60 60 60 59 60 61 61 60 58 56 58 58 60 56 -193 58 57 59 63 61 63 63 64 58 59 60 60 61 63 60 59 54 55 54 54 53 54 55 54 54 59 -209 80 85 -193 90 90 -193 82 77 -193 74 72 71 72 69 68 61 59 62 -209 -193 -177 -193 -193 -209 15 16 0 0 0 0 0
    0 0 0 0 0 0 0 0 0 0 0 0 0 0 0 0 0 0 0 0 0 0 0 0 0 0 0 0 0 0 0 0 0 0 0 0 0 0 0 0 0 0 0 0 0 0 0 0 0 0 0 0 0 0 0 0 0 0 0 0 0 0 0 0 0 0 0 0 0 67 69 69 66 -225 -225 -225 -225 -225 -225 -225 -225 -225 -225 56 56 57 53 -225 -225 -225 -225 -225 -225 -225 -225 -225 -225 -225 -225 -225 -225 -225 -225 -225 -225 -225 -225 -225 -225 -225 -225 -225 -225 -225 -225 -225 -225 -225 -225 -225 -225 -225 54 55 56 59 58 58 57 60 61 59 -225 -225 -225 -225 -225 -225 -225 -225 -225 -225 -225 -225 -225 -225 -225 -225 -225 -225 -225 -225 -193 -209 58 57 61 59 59 58 57 58 61 -225 -225 -225 -225 -225 -225 -225 -225 -225 -225 -225 -225 -225 -225 -225 -225 -225 -225 -225 -225 -225 -225 -225 -225 -225 -225 -225 -225 -225 -225 -225 -225 -225 -225 -225 -225 -225 -225 -225 -225 -225 -225 -225 -225 -225 -225 -225 -225 -225 -225 -225 -225 -225 -225 -225 -225 -225 -225 -225 -225 -225 -225 -225 -225 -225 -225 -225 -225 60 63 64 61 66 70 -209 72 72 73 73 73 66 60 61 61 60 60 60 59 60 61 61 60 57 55 57 58 61 59 59 63 59 61 64 63 65 65 64 59 61 63 64 67 70 69 68 68 67 -209 68 72 63 63 62 58 -209 81 83 88 90 90 92 92 88 76 72 72 70 69 71 67 66 60 59 -193 -193 -177 -193 -193 -193 -193 -193 -193 0 0 0 0 0
    0 0 0 0 0 0 0 0 0 0 0 0 0 0 0 0 0 0 0 0 0 0 0 0 0 0 0 0 0 0 0 0 0 0 0 0 0 0 0 0 0 0 0 0 0 0 0 0 0 0 0 0 0 0 0 0 0 0 0 0 0 0 0 0 0 0 0 0 0 69 71 72 69 -225 -225 -225 -225 -225 -225 -225 -225 -225 -225 56 56 57 53 -225 -225 -225 -225 -225 -225 -225 -225 -225 -225 -225 -225 -225 -225 -225 -225 -225 -225 -225 -225 -225 -225 -225 -225 -225 -225 -225 -225 -225 -225 -225 -225 -225 -225 -225 -225 -225 55 57 57 56 56 59 -225 -225 -225 -225 -225 -225 -225 -225 -225 -225 -225 -225 -225 -225 -225 -225 -225 -225 -225 -225 -225 -225 -225 -225 -225 56 58 57 57 -225 -225 -225 -225 -225 -225 -225 -225 -225 -225 -225 -225 -225 -225 -225 -225 -225 -225 -225 -225 -225 -225 -225 -225 -225 -225 -225 -225 -225 -225 -225 -225 -225 -225 -225 -225 -225 -225 -225 -225 -225 -225 -225 -225 -225 -225 -225 -225 -225 -225 -225 -225 -225 -225 -225 -225 -225 -225 -225 -225 -225 -225 -225 -225 -225 -225 -225 -225 -225 -225 -225 -225 -225 -225 -225 -225 -225 -225 -225 72 73 74 73 73 67 60 60 60 60 59 59 58 59 61 60 61 59 57 59 60 67 71 75 72 -209 65 67 66 68 66 61 58 61 65 67 71 76 79 78 -209 85 -209 -209 80 79 75 77 76 81 86 88 89 91 91 92 -193 -193 74 70 71 68 68 69 65 64 60 60 62 -193 -193 -193 67 71 72 75 75 0 0 0 0 0
    0 0 0 0 0 0 0 0 0 0 0 0 0 0 0 0 0 0 0 0 0 0 0 0 0 0 0 0 0 0 0 0 0 0 0 0 0 0 0 0 0 0 0 0 0 0 0 0 0 0 0 0 0 0 0 0 0 0 0 0 0 0 0 0 0 0 0 0 0 72 75 78 80 -225 -225 -225 -225 -225 -225 -225 -225 -225 -225 55 55 56 53 -225 -225 -225 -225 -225 -225 -225 -225 -225 -225 -225 -225 -225 -225 -225 -225 -225 -225 -225 -225 -225 -225 -225 -225 -225 -225 -225 -225 -225 -225 -225 -225 -225 -225 -225 -225 -225 -225 -225 -225 -225 -225 -225 -225 -225 -225 -225 -225 -225 -225 -225 -225 -225 -225 -225 -225 -225 -225 -225 -225 -225 -225 -225 -225 -225 -225 -225 -225 -225 -225 -225 -225 -225 -225 -225 -225 -225 -225 -225 -225 -225 -225 -225 -225 -225 -225 -225 -225 -225 -225 -225 -225 -225 -225 -225 -225 -225 -225 -225 -225 -225 -225 -225 -225 -225 -225 -225 -225 -225 -225 -225 -225 -225 -225 -225 -225 -225 -225 -225 -225 -225 -225 -225 -225 -225 -225 -225 -225 -225 -225 -225 -225 -225 -225 -225 -225 -225 -225 -225 -225 -225 -225 -225 -225 -225 -225 -225 -225 -225 -225 -225 -225 74 74 71 70 64 58 57 57 58 57 57 56 57 60 59 64 68 68 68 70 73 77 84 80 83 -193 73 72 74 -209 58 53 -193 -209 -209 -209 87 89 90 89 90 91 86 85 86 87 85 85 88 88 89 91 92 91 91 -193 -193 -209 70 72 69 69 70 69 67 64 63 65 65 67 67 68 70 72 74 75 0 0 0 0 0
    0 0 0 0 0 0 0 0 0 0 0 0 0 0 0 0 0 0 0 0 0 0 0 0 0 0 0 0 0 0 0 0 0 0 0 0 0 0 0 0 0 0 0 0 0 0 0 0 0 0 0 0 0 0 0 0 0 0 0 0 0 0 0 0 0 0 0 0 0 79 83 84 88 88 -225 -225 -225 -225 -225 -225 -225 -225 -225 -225 -225 -225 -225 -225 -225 -225 -225 -225 -225 -225 -225 -225 -225 -225 -225 -225 -225 -225 -225 -225 -225 -225 -225 -225 -225 -225 -225 -225 -225 -225 -225 -225 -225 -225 -225 -225 -225 -225 -225 -225 -225 -225 -225 -225 -225 -225 -225 -225 -225 -225 -225 -225 -225 -225 -225 -225 -225 -225 -225 -225 -225 -225 -225 -225 -225 -225 -225 -225 -225 -225 -225 -225 -225 -225 -225 -225 -225 -225 -225 -225 -225 -225 -225 -225 -225 -225 -225 -225 -225 -225 -225 -225 -225 -225 -225 -225 -225 -225 -225 -225 -225 -225 -225 -225 -225 -225 -225 -225 -225 -225 -225 -225 -225 -225 -225 -225 -225 -225 -225 -225 -225 -225 -225 -225 -225 -225 -225 -225 -225 -225 -225 -225 -225 -225 -225 -225 -225 -225 -225 -225 -225 -225 -225 -225 -225 -225 -225 -225 -225 -225 -225 -225 -225 -225 -225 -225 -209 -209 -209 -209 23 25 24 -209 43 42 44 52 58 58 68 73 74 73 74 76 81 86 84 83 74 76 76 79 81 -209 53 -193 -209 -209 90 90 90 91 90 90 92 88 87 88 90 88 88 90 90 90 91 93 91 90 -193 -193 78 73 75 73 73 73 73 70 71 69 69 69 70 70 70 72 73 76 76 0 0 0 0 0
    0 0 0 0 0 0 0 0 0 0 0 0 0 0 0 0 0 0 0 0 0 0 0 0 0 0 0 0 0 0 0 0 0 0 0 0 0 0 0 0 0 0 0 0 0 0 0 0 0 0 0 0 0 0 0 0 0 0 0 0 0 0 0 0 0 0 0 0 0 -193 88 89 90 91 91 -225 -225 -225 -225 -225 -225 -225 -225 -225 -225 -225 -225 -225 -225 -225 -225 -225 -225 -225 -225 -225 -225 -225 -225 -225 -225 -225 -225 -225 -225 -225 -225 -225 -225 -225 -225 -225 -225 -225 -225 -225 -225 -225 -225 -225 -225 -225 -225 -225 -225 -225 -225 -225 -225 -225 -225 -225 -225 -225 -225 -225 -225 -225 -225 -225 -225 -225 -225 -225 -225 -225 -225 -225 -225 -225 -225 -225 -225 -225 -225 -225 -225 -225 -225 -225 -225 -225 -225 -225 -225 -225 -225 -225 -225 -225 -225 -225 -225 -225 -225 -225 -225 -225 -225 -225 -225 -225 -225 -225 -225 -225 -225 -225 -225 -225 -225 -225 -225 -225 -225 -225 -225 -225 -225 -225 -225 -225 -225 -225 -225 -225 -225 -225 -225 -225 -225 -225 -225 -225 -225 -225 -225 -225 -225 -225 -225 -225 -225 -225 -225 -225 -225 -225 -225 -225 -225 -225 -225 -225 -225 -225 -225 -225 -225 -225 -225 21 -209 -193 22 28 -209 46 48 48 50 55 59 62 71 75 76 76 78 81 84 88 86 85 76 80 79 84 86 -209 61 77 89 90 91 91 92 92 91 92 94 90 89 89 91 90 90 91 91 91 91 93 91 89 -193 88 79 75 76 74 75 -209 74 70 72 70 70 70 72 71 72 75 76 78 78 0 0 0 0 0
    0 0 0 0 0 0 0 0 0 0 0 0 0 0 0 0 0 0 0 0 0 0 0 0 0 0 0 0 0 0 0 0 0 0 0 0 0 0 0 0 0 0 0 0 0 0 0 0 0 0 0 0 0 0 0 0 0 0 0 0 0 0 0 0 0 0 0 0 0 -193 88 -193 90 90 91 91 -225 -225 -225 -225 -225 -225 -225 -225 -225 -225 -225 -225 -225 -225 -225 -225 -225 -225 -225 -225 -225 -225 -225 -225 -225 -225 -225 -225 -225 -225 -225 -225 -225 -225 -225 -225 -225 -225 -225 -225 -225 -225 -225 -225 -225 -225 -225 -225 -225 -225 -225 -225 -225 -225 -225 -225 -225 -225 -225 -225 -225 -225 -225 -225 -225 -225 -225 -225 -225 -225 -225 -225 -225 -225 -225 -225 -225 -225 -225 -225 -225 -225 -225 -225 -225 -225 -225 -225 -225 -225 -225 -225 -225 -225 -225 -225 -225 -225 -225 -225 -225 -225 -225 -225 -225 -225 -225 -225 -225 -225 -225 -225 -225 -225 -225 -225 -225 -225 -225 -225 -225 -225 -225 -225 -225 -225 -225 -225 -225 -225 -225 -225 -225 -225 -225 -225 -225 -225 -225 -225 -225 -225 -225 -225 -225 -225 -225 -225 -225 -225 -225 -225 -225 -225 -225 -225 -225 -225 -225 -225 -225 -225 -225 -225 -225 -225 -225 -209 19 24 -209 53 55 55 52 57 61 63 71 76 77 78 81 84 86 88 88 88 87 89 87 89 89 -209 -209 81 89 92 92 92 93 93 92 94 96 91 89 90 92 90 90 91 92 91 92 94 92 90 93 -209 -209 -209 -209 -209 -209 -209 -209 -209 74 70 69 70 71 70 72 75 76 78 78 0 0 0 0 0
    0 0 0 0 0 0 0 0 0 0 0 0 0 0 0 0 0 0 0 0 0 0 0 0 0 0 0 0 0 0 0 0 0 0 0 0 0 0 0 0 0 0 0 0 0 0 0 0 0 0 0 0 0 0 0 0 0 0 0 0 0 0 0 0 0 0 0 0 0 -193 -193 -209 -209 90 91 91 -225 -225 -225 -225 -225 -225 -225 -225 -225 -225 -225 -225 -225 -225 -225 -225 -225 -225 -225 -225 -225 -225 -225 -225 -225 -225 -225 -225 -225 -225 -225 -225 -225 -225 -225 -225 -225 -225 -225 -225 -225 -225 -225 -225 -225 -225 -225 -225 -225 -225 -225 -225 -225 -225 -225 -225 -225 -225 -225 -225 -225 -225 -225 -225 -225 -225 -225 -225 -225 -225 -225 -225 -225 -225 -225 -225 -225 -225 -225 -225 -225 -225 -225 -225 -225 -225 -225 -225 -225 -225 -225 -225 -225 -225 -225 -225 -225 -225 -225 -225 -225 -225 -225 -225 -225 -225 -225 -225 -225 -225 -225 -225 -225 -225 -225 -225 -225 -225 -225 -225 -225 -225 -225 -225 -225 -225 -225 -225 -225 -225 -225 -225 -225 -225 -225 -225 -225 -225 -225 -225 -225 -225 -225 -225 -225 -225 -225 -225 -225 -225 -225 -225 -225 -225 -225 -225 -225 -225 -225 -225 -225 -225 -225 -225 -225 -225 -225 -209 14 24 -209 51 -209 -209 49 56 61 64 71 77 78 79 83 86 87 89 89 89 88 90 89 91 90 90 -209 83 90 93 93 93 94 95 94 96 98 93 91 91 93 91 91 92 92 92 93 95 94 92 98 -209 -209 96 -209 103 -193 -209 -209 -209 -209 -193 69 70 72 71 72 75 77 79 79 0 0 0 0 0
    0 0 0 0 0 0 0 0 0 0 0 0 0 0 0 0 0 0 0 0 0 0 0 0 0 0 0 0 0 0 0 0 0 0 0 0 0 0 0 0 0 0 0 0 0 0 0 0 0 0 0 0 0 0 0 0 0 0 0 0 0 0 0 0 0 0 0 0 0 -193 -193 -209 -209 90 91 91 -225 -225 -225 -225 -225 -225 -225 -225 -225 -225 -225 -225 -225 -225 -225 -225 -225 -225 -225 -225 -225 -225 -225 -225 -225 -225 -225 -225 -225 -225 -225 -225 -225 -225 -225 -225 -225 -225 -225 -225 -225 -225 -225 -225 -225 -225 -225 -225 -225 -225 -225 -225 -225 -225 -225 -225 -225 -225 -225 -225 -225 -225 -225 -225 -225 -225 -225 -225 -225 -225 -225 -225 -225 -225 -225 -225 -225 -225 -225 -225 -225 -225 -225 -225 -225 -225 -225 -225 -225 -225 -225 -225 -225 -225 -225 -225 -225 -225 -225 -225 -225 -225 -225 -225 -225 -225 -225 -225 -225 -225 -225 -225 -225 -225 -225 -225 -225 -225 -225 -225 -225 -225 -225 -225 -225 -225 -225 -225 -225 -225 -225 -225 -225 -225 -225 -225 -225 -225 -225 -225 -225 -225 -225 -225 -225 -225 -225 -225 -225 -225 -225 -225 -225 -225 -225 -225 -225 -225 -225 -225 -225 -225 -225 -225 -225 -225 -209 -209 10 21 -209 -209 -209 -209 50 57 62 66 71 79 79 79 84 87 87 90 90 88 87 90 90 92 90 91 87 86 91 95 94 94 96 97 96 99 99 94 92 92 94 92 92 93 92 92 94 97 96 93 100 99 98 104 -193 104 -193 -209 98 -209 -209 -209 71 71 74 73 73 77 79 80 81 0 0 0 0 0
    0 0 0 0 0 0 0 0 0 0 0 0 0 0 0 0 0 0 0 0 0 0 0 0 0 0 0 0 0 0 0 0 0 0 0 0 0 0 0 0 0 0 0 0 0 0 0 0 0 0 0 0 0 0 0 0 0 0 0 0 0 0 0 0 0 0 0 0 0 -193 -193 -209 -209 90 91 91 -225 -225 -225 -225 -225 -225 -225 -225 -225 -225 -225 -225 -225 -225 -225 -225 -225 -225 -225 -225 -225 -225 -225 -225 -225 -225 -225 -225 -225 -225 -225 -225 -225 -225 -225 -225 -225 -225 -225 -225 -225 -225 -225 -225 -225 -225 -225 -225 -225 -225 -225 -225 -225 -225 -225 -225 -225 -225 -225 -225 -225 -225 -225 -225 -225 -225 -225 -225 -225 -225 -225 -225 -225 -225 -225 -225 -225 -225 -225 -225 -225 -225 -225 -225 -225 -225 -225 -225 -225 -225 -225 -225 -225 -225 -225 -225 -225 -225 -225 -225 -225 -225 -225 -225 -225 -225 -225 -225 -225 -225 -225 -225 -225 -225 -225 -225 -225 -225 -225 -225 -225 -225 -225 -225 -225 -225 -225 -225 -225 -225 -225 -225 -225 -225 -225 -225 -225 -225 -225 -225 -225 -225 -225 -225 -225 -225 -225 -225 -225 -225 -225 -225 -225 -225 -225 -225 -225 -225 -225 -225 -225 -225 -225 -225 -225 -225 -209 -209 9 13 -209 -209 -209 -209 -209 58 63 69 71 81 81 81 86 88 88 90 90 89 88 91 91 92 91 91 89 88 92 95 95 96 97 98 98 100 100 95 93 93 95 92 93 93 93 92 95 98 97 93 99 100 100 104 107 105 -193 -209 100 102 89 -209 80 72 75 74 73 77 78 79 80 0 0 0 0 0
    0 0 0 0 0 0 0 0 0 0 0 0 0 0 0 0 0 0 0 0 0 0 0 0 0 0 0 0 0 0 0 0 0 0 0 0 0 0 0 0 0 0 0 0 0 0 0 0 0 0 0 0 0 0 0 0 0 0 0 0 0 0 0 0 0 0 0 0 0 -193 -193 -209 -209 90 91 91 -225 -225 -225 -225 -225 -225 -225 -225 -225 -225 -225 -225 -225 -225 -225 -225 -225 -225 -225 -225 -225 -225 -225 -225 -225 -225 -225 -225 -225 -225 -225 -225 -225 -225 -225 -225 -225 -225 -225 -225 -225 -225 -225 -225 -225 -225 -225 -225 -225 -225 -225 -225 -225 -225 -225 -225 -225 -225 -225 -225 -225 -225 -225 -225 -225 -225 -225 -225 -225 -225 -225 -225 -225 -225 -225 -225 -225 -225 -225 -225 -225 -225 -225 -225 -225 -225 -225 -225 -225 -225 -225 -225 -225 -225 -225 -225 -225 -225 -225 -225 -225 -225 -225 -225 -225 -225 -225 -225 -225 -225 -225 -225 -225 -225 -225 -225 -225 -225 -225 -225 -225 -225 -225 -225 -225 -225 -225 -225 -225 -225 -225 -225 -225 -225 -225 -225 -225 -225 -225 -225 -225 -225 -225 -225 -225 -225 -225 -225 -225 -225 -225 -225 -225 -225 -225 -225 -225 -225 -225 -225 -225 -225 -225 -225 -225 -209 -209 -209 10 -209 -209 -209 -209 -209 -209 59 64 69 71 82 83 83 88 89 89 90 90 89 89 91 91 92 90 90 89 89 92 94 94 95 96 98 99 100 101 96 95 96 98 94 95 95 94 93 97 99 99 94 100 100 102 105 108 106 106 -209 102 104 101 99 91 -193 74 72 71 72 74 74 76 0 0 0 0 0
    0 0 0 0 0 0 0 0 0 0 0 0 0 0 0 0 0 0 0 0 0 0 0 0 0 0 0 0 0 0 0 0 0 0 0 0 0 0 0 0 0 0 0 0 0 0 0 0 0 0 0 0 0 0 0 0 0 0 0 0 0 0 0 0 0 0 0 0 0 -193 -193 -209 -209 91 92 -225 -225 -225 -225 -225 -225 -225 -225 -225 -225 -225 -225 -225 -225 -225 -225 -225 -225 -225 -225 -225 -225 -225 -225 -225 -225 -225 -225 -225 -225 -225 -225 -225 -225 -225 -225 -225 -225 -225 -225 -225 -225 -225 -225 -225 -225 -225 -225 -225 -225 -225 -225 -225 -225 -225 -225 -225 -225 -225 -225 -225 -225 -225 -225 -225 -225 -225 -225 -225 -225 -225 -225 -225 -225 -225 -225 -225 -225 -225 -225 -225 -225 -225 -225 -225 -225 -225 -225 -225 -225 -225 -225 -225 -225 -225 -225 -225 -225 -225 -225 -225 -225 -225 -225 -225 -225 -225 -225 -225 -225 -225 -225 -225 -225 -225 -225 -225 -225 -225 -225 -225 -225 -225 -225 -225 -225 -225 -225 -225 -225 -225 -225 -225 -225 -225 -225 -225 -225 -225 -225 -225 -225 -225 -225 -225 -225 -225 -225 -225 -225 -225 -225 -225 -225 -225 -225 -225 -225 -225 -225 -225 -225 -225 -225 -225 -225 -209 -209 -209 0 -209 -209 -209 -209 -209 -209 60 64 -209 -193 83 86 87 90 91 90 91 89 89 89 91 91 91 90 90 90 90 93 94 94 95 95 97 98 99 100 97 97 97 99 97 97 97 96 95 98 100 100 95 100 101 102 105 108 106 105 105 102 104 101 100 95 -193 74 -209 -193 70 -193 71 72 0 0 0 0 0
    0 0 0 0 0 0 0 0 0 0 0 0 0 0 0 0 0 0 0 0 0 0 0 0 0 0 0 0 0 0 0 0 0 0 0 0 0 0 0 0 0 0 0 0 0 0 0 0 0 0 0 0 0 0 0 0 0 0 0 0 0 0 0 0 0 0 0 0 0 -209 -209 -209 -193 -225 -225 -225 -225 -225 -225 -225 -225 -225 -225 -225 -225 -225 -225 -225 -225 -225 -225 -225 -225 -225 -225 -225 -225 -225 -225 -225 -225 -225 -225 -225 -225 -225 -225 -225 -225 -225 -225 -225 -225 -225 -225 -225 -225 -225 -225 -225 -225 -225 -225 -225 -225 -225 -225 -225 -225 -225 -225 -225 -225 -225 -225 -225 -225 -225 -225 -225 -225 -225 -225 -225 -225 -225 -225 -225 -225 -225 -225 -225 -225 -225 -225 -225 -225 -225 -225 -225 -225 -225 -225 -225 -225 -225 -225 -225 -225 -225 -225 -225 -225 -225 -225 -225 -225 -225 -225 -225 -225 -225 -225 -225 -225 -225 -225 -225 -225 -225 -225 -225 -225 -225 -225 -225 -225 -225 -225 -225 -225 -225 -225 -225 -225 -225 -225 -225 -225 -225 -225 -225 -225 -225 -225 -225 -225 -225 -225 -225 -225 -225 -225 -225 -225 -225 -225 -225 -225 -225 -225 -225 -225 -225 -225 -225 -225 -225 -225 -225 -225 -225 -209 -193 0 -193 15 -209 -209 -209 -209 -209 -209 -209 -193 85 87 88 90 92 92 91 90 -193 -209 102 -209 -209 -209 -209 -209 92 96 97 96 96 96 98 99 100 101 99 100 101 101 100 101 100 99 97 100 100 100 97 99 101 103 105 107 105 105 105 103 105 102 101 96 -193 79 -209 -209 69 -193 -193 -209 0 0 0 0 0
    0 0 0 0 0 0 0 0 0 0 0 0 0 0 0 0 0 0 0 0 0 0 0 0 0 0 0 0 0 0 0 0 0 0 0 0 0 0 0 0 0 0 0 0 0 0 0 0 0 0 0 0 0 0 0 0 0 0 0 0 0 0 0 0 0 0 0 0 0 -209 -209 -209 -225 -225 -225 -225 -225 -225 -225 -225 -225 -225 -225 -225 -225 -225 -225 -225 -225 0 -256 -1 14117 -225 -225 -225 -225 -225 -225 -225 -225 -225 -225 -225 -225 -225 -225 -225 -225 -225 -225 -225 -225 -225 -225 -225 -225 -225 -225 -225 -225 -225 -225 -225 -225 -225 -225 -225 -225 -225 -225 -225 -225 -225 -225 -225 -225 -225 -225 -225 -225 -225 -225 -225 -225 -225 -225 -225 -225 -225 -225 -225 -225 -225 -225 -225 -225 -225 -225 -225 -225 -225 -225 -225 -225 -225 -225 -225 -225 -225 -225 -225 -225 -225 -225 -225 -225 -225 -225 -225 -225 -225 -225 -225 -225 -225 -225 -225 -225 -225 -225 -225 -225 -225 -225 -225 -225 -225 -225 -225 -225 -225 -225 -225 -225 -225 -225 -225 -225 -225 -225 -225 -225 -225 -225 -225 -225 -225 -225 -225 -225 -225 -225 -225 -225 -225 -225 -225 -225 -225 -225 -225 -225 -225 -225 -225 -225 -225 -225 -225 -225 -225 -209 -209 -209 -209 -209 -209 -209 30 36 -209 -209 -209 -209 -209 88 89 90 92 91 90 92 -209 -209 109 114 118 -209 116 119 -209 -193 101 99 98 97 100 101 102 102 101 101 102 103 103 103 102 100 100 102 102 101 100 100 102 103 105 106 104 104 104 103 105 103 102 99 97 -209 -209 -209 -209 -209 -209 -209 0 0 0 0 0
    0 0 0 0 0 0 0 0 0 0 0 0 0 0 0 0 0 0 0 0 0 0 0 0 0 0 0 0 0 0 0 0 0 0 0 0 0 0 0 0 0 0 0 0 0 0 0 0 0 0 0 0 0 0 0 0 0 0 0 0 0 0 0 0 0 0 0 0 0 -225 -225 -225 -225 -225 -225 -225 -225 -225 -225 -225 -225 -225 -225 -225 -225 -225 -225 -225 -225 -225 -225 -225 -225 -225 -225 -225 -225 -225 -225 -225 -225 -225 -225 -225 -225 -225 -225 -225 -225 -225 -225 -225 -225 -225 -225 -225 -225 -225 -225 -225 -225 -225 -225 -225 -225 -225 -225 -225 -225 -225 -225 -225 -225 -225 -225 -225 -225 -225 -225 -225 -225 -225 -225 -225 -225 -225 -225 -225 -225 -225 -225 -225 -225 -225 -225 -225 -225 -225 -225 -225 -225 -225 -225 -225 -225 -225 -225 -225 -225 -225 -225 -225 -225 -225 -225 -225 -225 -225 -225 -225 -225 -225 -225 -225 -225 -225 -225 -225 -225 -225 -225 -225 -225 -225 -225 -225 -225 -225 -225 -225 -225 -225 -225 -225 -225 -225 -225 -225 -225 -225 -225 -225 -225 -225 -225 -225 -225 -225 -225 -225 -225 -225 -225 -225 -225 -225 -225 -225 -225 -225 -225 -225 -225 -225 -225 -225 -225 -225 -225 -225 -225 -225 -209 -209 -209 -209 -209 -209 -209 32 35 -209 -209 -209 -209 -209 89 90 91 93 94 94 -209 -209 118 114 118 118 117 117 118 112 -209 -209 -209 99 99 101 101 102 102 102 103 104 104 104 104 103 102 103 104 102 102 103 102 102 102 104 104 102 103 103 102 104 102 102 100 101 99 -209 -209 -209 -209 -209 -209 0 0 0 0 0
    0 0 0 0 0 0 0 0 0 0 0 0 0 0 0 0 0 0 0 0 0 0 0 0 0 0 0 0 0 0 0 0 0 0 0 0 0 0 0 0 0 0 0 0 0 0 0 0 0 0 0 0 0 0 0 0 0 0 0 0 0 0 0 0 0 0 0 0 0 -225 -225 -225 -225 -225 -225 -225 -225 -225 -225 -225 -225 -225 -225 -225 -225 -225 -225 -225 -225 -225 -225 -225 -225 -225 -225 -225 -225 -225 -225 -225 -225 -225 -225 -225 -225 -225 -225 -225 -225 -225 -225 -225 -225 -225 -225 -225 -225 -225 -225 -225 -225 -225 -225 -225 -225 -225 -225 -225 -225 -225 -225 -225 -225 -225 -225 -225 -225 -225 -225 -225 -225 -225 -225 -225 -225 -225 -225 -225 -225 -225 -225 -225 -225 -225 -225 -225 -225 -225 -225 -225 -225 -225 -225 -225 -225 -225 -225 -225 -225 -225 -225 -225 -225 -225 -225 -225 -225 -225 -225 -225 -225 -225 -225 -225 -225 -225 -225 -225 -225 -225 -225 -225 -225 -225 -225 -225 -225 -225 -225 -225 -225 -225 -225 -225 -225 -225 -225 -225 -225 -225 -225 -225 -225 -225 -225 -225 -225 -225 -225 -225 -225 -225 -225 -225 -225 -225 -225 -225 -225 -225 -225 -225 -225 -225 -225 -225 -225 -225 -225 -225 -225 -209 -209 -209 -209 -209 -209 -209 -209 -209 31 -209 -209 -209 -209 -209 -209 89 91 93 -209 -209 -193 121 121 118 120 120 119 118 117 -209 -209 -209 -209 -193 100 102 102 102 102 103 104 104 103 103 103 102 102 102 104 102 102 103 103 103 103 103 103 101 103 103 102 104 103 102 102 103 103 104 107 106 106 -193 -193 0 0 0 0 0
    0 0 0 0 0 0 0 0 0 0 0 0 0 0 0 0 0 0 0 0 0 0 0 0 0 0 0 0 0 0 0 0 0 0 0 0 0 0 0 0 0 0 0 0 0 0 0 0 0 0 0 0 0 0 0 0 0 0 0 0 0 0 0 0 0 0 0 0 0 -225 -225 -225 -225 -225 -225 -225 -225 -225 -225 -225 -225 -225 -225 -225 -225 -225 -225 -225 -225 -225 -225 -225 -225 -225 -225 -225 -225 -225 -225 -225 -225 -225 -225 -225 -225 -225 -225 -225 -225 -225 -225 -225 -225 -225 -225 -225 -225 -225 -225 -225 -225 -225 -225 -225 -225 -225 -225 -225 -225 -225 -225 -225 -225 -225 -225 -225 -225 -225 -225 -225 -225 -225 -225 -225 -225 -225 -225 -225 -225 -225 -225 -225 -225 -225 -225 -225 -225 -225 -225 -225 -225 -225 -225 -225 -225 -225 -225 -225 -225 -225 -225 -225 -225 -225 -225 -225 -225 -225 -225 -225 -225 -225 -225 -225 -225 -225 -225 -225 -225 -225 -225 -225 -225 -225 -225 -225 -225 -225 -225 -225 -225 -225 -225 -225 -225 -225 -225 -225 -225 -225 -225 -225 -225 -225 -225 -225 -225 -225 -225 -225 -225 -225 -225 -225 -225 -225 -225 -225 -225 -225 -225 -225 -225 -225 -225 -225 -225 -225 -225 -225 -209 -209 -209 -209 -209 -209 -209 -209 -209 -209 -209 -209 10 -209 -209 -209 -209 -209 -209 -209 -209 -209 121 122 121 119 120 121 120 120 119 118 -209 -209 -209 -209 -193 -209 -193 102 103 104 -193 -193 -193 102 101 99 101 100 103 102 102 104 104 104 104 104 104 102 103 105 102 103 103 103 102 104 104 105 108 109 109 110 110 0 0 0 0 0
    0 0 0 0 0 0 0 0 0 0 0 0 0 0 0 0 0 0 0 0 0 0 0 0 0 0 0 0 0 0 0 0 0 0 0 0 0 0 0 0 0 0 0 0 0 0 0 0 0 0 0 0 0 0 0 0 0 0 0 0 0 0 0 0 0 0 0 0 0 -225 -225 -225 -225 -225 -225 -225 -225 -225 -225 -225 -225 -225 -225 -225 -225 -225 -225 -225 -225 -225 -225 -225 -225 -225 -225 -225 -225 -225 -225 -225 -225 -225 -225 -225 -225 -225 -225 -225 -225 -225 -225 -225 -225 -225 -225 -225 -225 -225 -225 -225 -225 -225 -225 -225 -225 -225 -225 -225 -225 -225 -225 -225 -225 -225 -225 -225 -225 -225 -225 -225 -225 -225 -225 -225 -225 -225 -225 -225 -225 -225 -225 -225 -225 -225 -225 -225 -225 -225 -225 -225 -225 -225 -225 -225 -225 -225 -225 -225 -225 -225 -225 -225 -225 -225 -225 -225 -225 -225 -225 -225 -225 -225 -225 -225 -225 -225 -225 -225 -225 -225 -225 -225 -225 -225 -225 -225 -225 -225 -225 -225 -225 -225 -225 -225 -225 -225 -225 -225 -225 -225 -225 -225 -225 -225 -225 -225 -225 -225 -225 -225 -225 -225 -225 -225 -225 -225 -225 -225 -225 -225 -225 -225 -225 -225 -225 -225 -225 -225 -225 -225 -209 -209 -209 -209 -209 -209 -209 -209 -209 -209 -209 -209 0 -209 -209 -209 -209 -209 -209 -209 -209 -209 118 121 120 118 120 121 121 120 119 119 -209 -209 -209 -209 -209 -209 -209 -193 -209 -209 108 -209 -209 -193 102 99 101 101 103 102 102 105 106 107 110 111 111 -193 106 112 103 105 105 104 103 105 105 105 108 109 110 111 111 0 0 0 0 0
    0 0 0 0 0 0 0 0 0 0 0 0 0 0 0 0 0 0 0 0 0 0 0 0 0 0 0 0 0 0 0 0 0 0 0 0 0 0 0 0 0 0 0 0 0 0 0 0 0 0 0 0 0 0 0 0 0 0 0 0 0 0 0 0 0 0 0 0 0 -225 -225 -225 -225 -225 -225 -225 -225 -225 -225 -225 -225 -225 -225 -225 -225 -225 -225 -225 -225 -225 -225 -225 -225 -225 -225 -225 -225 -225 -225 -225 -225 -225 -225 -225 -225 -225 -225 -225 -225 -225 -225 -225 -225 -225 -225 -225 -225 -225 -225 -225 -225 -225 -225 -225 -225 -225 -225 -225 -225 -225 -225 -225 -225 -225 -225 -225 -225 -225 -225 -225 -225 -225 -225 -225 -225 -225 -225 -225 -225 -225 -225 -225 -225 -225 -225 -225 -225 -225 -225 -225 -225 -225 -225 -225 -225 -225 -225 -225 -225 -225 -225 -225 -225 -225 -225 -225 -225 -225 -225 -225 -225 -225 -225 -225 -225 -225 -225 -225 -225 -225 -225 -225 -225 -225 -225 -225 -225 -225 -225 -225 -225 -225 -225 -225 -225 -225 -225 -225 -225 -225 -225 -225 -225 -225 -225 -225 -225 -225 -225 -225 -225 -225 -225 -225 -225 -225 -225 -225 -225 -225 -225 -225 -225 -225 -225 -225 -225 -225 -225 -225 -209 -209 -209 -209 -209 -209 -209 -209 -209 -209 -209 -209 -209 -209 -209 -209 -209 -209 -209 -209 -209 -209 119 122 121 119 121 123 124 122 121 122 -209 -209 -209 -209 -209 -209 -209 -209 -209 -209 -209 -209 -209 -209 -209 -209 -209 -193 -193 109 105 110 115 115 120 120 121 119 115 118 114 108 106 105 104 106 106 106 108 109 111 113 114 0 0 0 0 0
    0 0 0 0 0 0 0 0 0 0 0 0 0 0 0 0 0 0 0 0 0 0 0 0 0 0 0 0 0 0 0 0 0 0 0 0 0 0 0 0 0 0 0 0 0 0 0 0 0 0 0 0 0 0 0 0 0 0 0 0 0 0 0 0 0 0 0 0 0 -225 -225 -225 -225 -225 -225 -225 -225 -225 -225 -225 -225 -225 -225 -225 -225 -225 -225 -225 -225 -225 -225 -225 -225 -225 -225 -225 -225 -225 -225 -225 -225 -225 -225 -225 -225 -225 -225 -225 -225 -225 -225 -225 -225 -225 -225 -225 -225 -225 -225 -225 -225 -225 -225 -225 -225 -225 -225 -225 -225 -225 -225 -225 -225 -225 -225 -225 -225 -225 -225 -225 -225 -225 -225 -225 -225 -225 -225 -225 -225 -225 -225 -225 -225 -225 -225 -225 -225 -225 -225 -225 -225 -225 -225 -225 -225 -225 -225 -225 -225 -225 -225 -225 -225 -225 -225 -225 -225 -225 -225 -225 -225 -225 -225 -225 -225 -225 -225 -225 -225 -225 -225 -225 -225 -225 -225 -225 -225 -225 -225 -225 -225 -225 -225 -225 -225 -225 -225 -225 -225 -225 -225 -225 -225 -225 -225 -225 -225 -225 -225 -225 -225 -225 -225 -225 -225 -225 -225 -225 -225 -225 -225 -225 -225 -225 -225 -225 -225 -225 -225 -209 -209 -209 -209 -209 -209 -209 -209 -209 -209 -209 -209 -209 -209 -209 -209 -209 -209 -209 -209 -209 -209 -209 121 123 122 121 123 125 126 125 124 125 125 128 130 -193 -209 -209 -209 -209 -209 -193 -209 -209 -209 126 127 127 -193 -209 -209 122 123 118 121 119 122 121 123 120 117 118 117 109 108 106 104 107 108 108 112 114 117 116 117 0 0 0 0 0
    0 0 0 0 0 0 0 0 0 0 0 0 0 0 0 0 0 0 0 0 0 0 0 0 0 0 0 0 0 0 0 0 0 0 0 0 0 0 0 0 0 0 0 0 0 0 0 0 0 0 0 0 0 0 0 0 0 0 0 0 0 0 0 0 0 0 0 0 0 -225 -225 -225 -225 -225 -225 -225 -225 -225 -225 -225 -225 -225 -225 -225 -225 -225 -225 -225 -225 -225 -225 -225 -225 -225 -225 -225 -225 -225 -225 -225 -225 -225 -225 -225 -225 -225 -225 -225 -225 -225 -225 -225 -225 -225 -225 -225 -225 -225 -225 -225 -225 -225 -225 -225 -225 -225 -225 -225 -225 -225 -225 -225 -225 -225 -225 -225 -225 -225 -225 -225 -225 -225 -225 -225 -225 -225 -225 -225 -225 -225 -225 -225 -225 -225 -225 -225 -225 -225 -225 -225 -225 -225 -225 -225 -225 -225 -225 -225 -225 -225 -225 -225 -225 -225 -225 -225 -225 -225 -225 -225 -225 -225 -225 -225 -225 -225 -225 -225 -225 -225 -225 -225 -225 -225 -225 -225 -225 -225 -225 -225 -225 -225 -225 -225 -225 -225 -225 -225 -225 -225 -225 -225 -225 -225 -225 -225 -225 -225 -225 -225 -225 -225 -225 -225 -225 -225 -225 -225 -225 -225 -225 -225 -225 -225 -225 -225 -225 -225 -209 -209 -209 -209 -209 -209 -209 -209 -209 -209 -209 -209 -209 -209 -209 -209 -209 -209 -209 -209 -209 -209 -209 -209 -209 123 123 122 123 125 126 126 125 127 129 -209 -209 -209 -209 -209 -209 -209 -209 -193 135 133 130 131 130 130 127 125 125 124 125 122 123 120 124 124 126 123 122 122 -193 117 -209 -193 106 110 110 111 116 117 118 118 119 0 0 0 0 0
    0 0 0 0 0 0 0 0 0 0 0 0 0 0 0 0 0 0 0 0 0 0 0 0 0 0 0 0 0 0 0 0 0 0 0 0 0 0 0 0 0 0 0 0 0 0 0 0 0 0 0 0 0 0 0 0 0 0 0 0 0 0 0 0 0 0 0 0 0 -225 -225 -225 -225 -225 -225 -225 -225 -225 -225 -225 -225 -225 -225 -225 -225 -225 -225 -225 -225 -225 -225 -225 -225 -225 -225 -225 -225 -225 -225 -225 -225 -225 -225 -225 -225 -225 -225 -225 -225 -225 -225 -225 -225 -225 -225 -225 -225 -225 -225 -225 -225 -225 -225 -225 -225 -225 -225 -225 -225 -225 -225 -225 -225 -225 -225 -225 -225 -225 -225 -225 -225 -225 -225 -225 -225 -225 -225 -225 -225 -225 -225 -225 -225 -225 -225 -225 -225 -225 -225 -225 -225 -225 -225 -225 -225 -225 -225 -225 -225 -225 -225 -225 -225 -225 -225 -225 -225 -225 -225 -225 -225 -225 -225 -225 -225 -225 -225 -225 -225 -225 -225 -225 -225 -225 -225 -225 -225 -225 -225 -225 -225 -225 -225 -225 -225 -225 -225 -225 -225 -225 -225 -225 -225 -225 -225 -225 -225 -225 -225 -225 -225 -225 -225 -225 -225 -225 -225 -225 -225 -225 -225 -225 -225 -225 -225 -225 -225 -225 -209 -209 -209 -209 -209 -209 -209 -209 -209 -209 -209 -209 -209 -209 -209 -209 -209 -209 -209 -209 -209 -209 -209 -209 -209 123 123 123 125 125 127 130 127 134 -193 -193 -193 -193 -209 -193 -209 -209 -209 -209 134 -209 131 132 132 132 131 130 131 128 129 127 125 121 127 129 131 129 131 129 132 127 -193 -209 -193 -193 118 120 118 119 119 119 120 0 0 0 0 0
    0 0 0 0 0 0 0 0 0 0 0 0 0 0 0 0 0 0 0 0 0 0 0 0 0 0 0 0 0 0 0 0 0 0 0 0 0 0 0 0 0 0 0 0 0 0 0 0 0 0 0 0 0 0 0 0 0 0 0 0 0 0 0 0 0 0 0 0 0 -225 -225 -225 -225 -225 -225 -225 -225 -225 -225 -225 -225 -225 -225 -225 -225 -225 -225 -225 -225 -225 -225 -225 -225 -225 -225 -225 -225 -225 -225 -225 -225 -225 -225 -225 -225 -225 -225 -225 -225 -225 -225 -225 -225 -225 -225 -225 -225 -225 -225 -225 -225 -225 -225 -225 -225 -225 -225 -225 -225 -225 -225 -225 -225 -225 -225 -225 -225 -225 -225 -225 -225 -225 -225 -225 -225 -225 -225 -225 -225 -225 -225 -225 -225 -225 -225 -225 -225 -225 -225 -225 -225 -225 -225 -225 -225 -225 -225 -225 -225 -225 -225 -225 -225 -225 -225 -225 -225 -225 -225 -225 -225 -225 -225 -225 -225 -225 -225 -225 -225 -225 -225 -225 -225 -225 -225 -225 -225 -225 -225 -225 -225 -225 -225 -225 -225 -225 -225 -225 -225 -225 -225 -225 -225 -225 -225 -225 -225 -225 -225 -225 -225 -225 -225 -225 -225 -225 -225 -225 -225 -225 -225 -225 -225 -225 -225 -225 -225 -225 -209 -209 -209 -209 -209 -209 -209 -209 -209 -209 -209 -209 -209 -209 -209 -209 -209 -209 -209 -209 -209 -209 -209 -209 -209 131 131 130 131 131 133 -209 -193 -193 -193 -193 142 142 142 141 -193 -209 -209 -209 -193 -209 131 132 132 132 133 132 134 132 134 134 132 129 133 135 135 133 -193 133 134 -193 -209 -209 -209 -193 114 119 118 118 120 121 121 0 0 0 0 0
    0 0 0 0 0 0 0 0 0 0 0 0 0 0 0 0 0 0 0 0 0 0 0 0 0 0 0 0 0 0 0 0 0 0 0 0 0 0 0 0 0 0 0 0 0 0 0 0 0 0 0 0 0 0 0 0 0 0 0 0 0 0 0 0 0 0 0 0 0 -225 -225 -225 -225 -225 -225 -225 -225 -225 -225 -225 -225 -225 -225 -225 -225 -225 -225 -225 -225 -225 -225 -225 -225 -225 -225 -225 -225 -225 -225 -225 -225 -225 -225 -225 -225 -225 -225 -225 -225 -225 -225 -225 -225 -225 -225 -225 -225 -225 -225 -225 -225 -225 -225 -225 -225 -225 -225 -225 -225 -225 -225 -225 -225 -225 -225 -225 -225 -225 -225 -225 -225 -225 -225 -225 -225 -225 -225 -225 -225 -225 -225 -225 -225 -225 -225 -225 -225 -225 -225 -225 -225 -225 -225 -225 -225 -225 -225 -225 -225 -225 -225 -225 -225 -225 -225 -225 -225 -225 -225 -225 -225 -225 -225 -225 -225 -225 -225 -225 -225 -225 -225 -225 -225 -225 -225 -225 -225 -225 -225 -225 -225 -225 -225 -225 -225 -225 -225 -225 -225 -225 -225 -225 -225 -225 -225 -225 -225 -225 -225 -225 -225 -225 -225 -225 -225 -225 -225 -225 -225 -225 -225 -225 -225 -225 -225 -225 -225 -225 -209 -209 -209 -209 -209 -209 -209 -209 -209 -209 -209 -209 -209 -209 -209 -209 -209 -209 -209 -209 -209 -209 -209 -209 -209 -193 134 132 133 132 134 136 135 136 -193 -193 143 144 144 143 145 -193 -209 -209 -193 -193 131 132 132 132 134 134 135 134 135 136 136 136 137 137 137 135 137 135 136 135 -193 -209 -209 -209 -209 -193 118 114 119 121 121 0 0 0 0 0
    0 0 0 0 0 0 0 0 0 0 0 0 0 0 0 0 0 0 0 0 0 0 0 0 0 0 0 0 0 0 0 0 0 0 0 0 0 0 0 0 0 0 0 0 0 0 0 0 0 0 0 0 0 0 0 0 0 0 0 0 0 0 0 0 0 0 0 0 0 -225 -225 -225 -225 -225 -225 -225 -225 -225 -225 -225 -225 -225 -225 -225 -225 -225 -225 -225 -225 -225 -225 -225 -225 -225 -225 -225 -225 -225 -225 -225 -225 -225 -225 -225 -225 -225 -225 -225 -225 -225 -225 -225 -225 -225 -225 -225 -225 -225 -225 -225 -225 -225 -225 -225 -225 -225 -225 -225 -225 -225 -225 -225 -225 -225 -225 -225 -225 -225 -225 -225 -225 -225 -225 -225 -225 -225 -225 -225 -225 -225 -225 -225 -225 -225 -225 -225 -225 -225 -225 -225 -225 -225 -225 -225 -225 -225 -225 -225 -225 -225 -225 -225 -225 -225 -225 -225 -225 -225 -225 -225 -225 -225 -225 -225 -225 -225 -225 -225 -225 -225 -225 -225 -225 -225 -225 -225 -225 -225 -225 -225 -225 -225 -225 -225 -225 -225 -225 -225 -225 -225 -225 -225 -225 -225 -225 -225 -225 -225 -225 -225 -225 -225 -225 -225 -225 -225 -225 -225 -225 -225 -225 -225 -225 -225 -225 -225 -225 -225 -225 -209 -209 -209 -209 -209 -209 -209 -209 -209 -209 -209 -209 -209 -209 0 0 -193 -209 -209 -209 -209 -209 -209 -209 -209 -209 -193 135 135 136 138 138 138 142 142 145 145 145 144 145 141 -193 -193 -193 132 131 132 132 133 135 135 137 136 137 137 138 138 137 138 137 136 137 137 137 -193 -209 -209 -209 -193 -209 -209 -209 110 -193 -193 122 0 0 0 0 0
    0 0 0 0 0 0 0 0 0 0 0 0 0 0 0 0 0 0 0 0 0 0 0 0 0 0 0 0 0 0 0 0 0 0 0 0 0 0 0 0 0 0 0 0 0 0 0 0 0 0 0 0 0 0 0 0 0 0 0 0 0 0 0 0 0 0 0 0 0 -225 -225 -225 -225 -225 -225 -225 -225 -225 -225 -225 -225 -225 -225 -225 -225 -225 -225 -225 -225 -225 -225 -225 -225 -225 -225 -225 -225 -225 -225 -225 -225 -225 -225 -225 -225 -225 -225 -225 -225 -225 -225 -225 -225 -225 -225 -225 -225 -225 -225 -225 -225 -225 -225 -225 -225 -225 -225 -225 -225 -225 -225 -225 -225 -225 -225 -225 -225 -225 -225 -225 -225 -225 -225 -225 -225 -225 -225 -225 -225 -225 -225 -225 -225 -225 -225 -225 -225 -225 -225 -225 -225 -225 -225 -225 -225 -225 -225 -225 -225 -225 -225 -225 -225 -225 -225 -225 -225 -225 -225 -225 -225 -225 -225 -225 -225 -225 -225 -225 -225 -225 -225 -225 -225 -225 -225 -225 -225 -225 -225 -225 -225 -225 -225 -225 -225 -225 -225 -225 -225 -225 -225 -225 -225 -225 -225 -225 -225 -225 -225 -225 -225 -225 -225 -225 -225 -225 -225 -225 -225 -225 -225 -225 -225 -225 -225 -225 -225 -225 -209 -209 -209 -209 -209 -209 -209 -209 -209 -209 -209 -209 -209 -209 -209 -193 0 -209 -209 -209 -193 -209 -209 -209 148 -209 -209 134 136 136 137 138 137 137 141 141 143 143 145 144 145 142 140 136 135 134 132 132 133 133 136 -193 138 137 138 138 139 139 138 138 138 137 139 138 139 138 -209 -209 -193 -209 -209 -209 -209 -209 -209 -209 126 0 0 0 0 0
    0 0 0 0 0 0 0 0 0 0 0 0 0 0 0 0 0 0 0 0 0 0 0 0 0 0 0 0 0 0 0 0 0 0 0 0 0 0 0 0 0 0 0 0 0 0 0 0 0 0 0 0 0 0 0 0 0 0 0 0 0 0 0 0 0 0 0 0 0 140 140 138 139 -225 -225 -225 -225 -225 -225 -225 -225 -225 -225 -225 -225 -225 -225 -225 -225 -225 -225 -225 -225 -225 -225 -225 -225 -225 -225 -225 -225 -225 -225 -225 -225 -225 -225 -225 -225 -225 -225 -225 -225 -225 -225 -225 -225 -225 -225 -225 -225 -225 -225 -225 -225 -225 -225 -225 -225 -225 -225 -225 -225 -225 -225 -225 -225 -225 -225 -225 -225 -225 -225 -225 -225 -225 -225 -225 -225 -225 -225 -225 -225 -225 -225 -225 -225 -225 -225 -225 -225 -225 -225 -225 -225 -225 -225 -225 -225 -225 -225 -225 -225 -225 -225 -225 -225 -225 -225 -225 -225 -225 -225 -225 -225 -225 -225 -225 -225 -225 -225 -225 -225 -225 -225 -225 -225 -225 -225 -225 -225 -225 -225 -225 -225 -225 -225 -225 -225 -225 -225 -225 -225 -225 -225 -225 -225 -225 -225 -225 -225 -225 -225 -225 -225 -225 -225 -225 -225 -225 -225 -225 -225 -225 -225 -225 -209 -209 -209 -209 -209 -209 -209 -209 -209 -209 -209 -209 -209 -209 -209 -209 -209 -209 -177 -209 -209 -209 -193 -209 -209 146 147 145 144 137 136 138 139 139 138 138 141 140 143 143 144 143 143 141 140 136 -193 -193 133 133 133 134 137 -193 138 138 138 139 140 140 140 140 139 139 141 141 143 142 140 142 140 142 -209 -209 -209 -209 134 135 135 0 0 0 0 0
    0 0 0 0 0 0 0 0 0 0 0 0 0 0 0 0 0 0 0 0 0 0 0 0 0 0 0 0 0 0 0 0 0 0 0 0 0 0 0 0 0 0 0 0 0 0 0 0 0 0 0 0 0 0 0 0 0 0 0 0 0 0 0 0 0 0 0 0 0 140 139 138 138 138 138 139 137 139 -225 -225 -225 -225 -225 -225 -225 -225 -225 -225 -225 -225 -225 -225 -225 -225 -225 -225 -225 -225 -225 -225 -225 -225 -225 -225 -225 -225 -225 -225 -225 -225 -225 -225 -225 -225 -225 -225 -225 -225 -225 -225 -225 -225 -225 -225 -225 -225 -225 -225 -225 -225 -225 -225 -225 -225 -225 -225 -225 -225 -225 -225 -225 -225 -225 -225 -225 -225 -225 -225 -225 -225 -225 -225 -225 -225 -225 -225 -225 -225 -225 -225 -225 -225 -225 -225 -225 -225 -225 -225 -225 -225 -225 -225 -225 -225 -225 -225 -225 -225 -225 -225 -225 -225 -225 -225 -225 -225 -225 -225 -225 -225 -225 -225 -225 -225 -225 -225 -225 -225 -225 -225 -225 -225 -225 -225 -225 -225 -225 -225 -225 -225 -225 -225 -225 -225 -209 -209 -209 -209 -209 -209 -209 -209 -209 -209 -209 -225 -225 -209 -225 -209 -225 -225 -209 -209 -209 -209 -209 -209 -209 -209 -209 -209 -209 -209 -209 -209 -209 -209 -209 -209 -209 -209 -209 -209 -209 -209 -209 -209 -209 142 143 146 146 146 146 141 140 142 144 143 141 142 144 143 145 144 145 143 143 142 141 138 136 135 134 134 134 135 139 138 140 140 140 140 142 142 144 143 143 143 145 146 148 147 144 145 146 144 -193 141 -209 -209 138 139 137 0 0 0 0 0
    0 0 0 0 0 0 0 0 0 0 0 0 0 0 0 0 0 0 0 0 0 0 0 0 0 0 0 0 0 0 0 0 0 0 0 0 0 0 0 0 0 0 0 0 0 0 0 0 0 0 0 0 0 0 0 0 0 0 0 0 0 0 0 0 0 0 0 0 0 140 139 137 138 138 138 139 138 139 139 144 147 150 -225 -225 -225 -225 -225 -225 -225 -225 -225 -225 -225 -225 -225 -225 -225 -225 -225 -225 -225 -225 -225 -225 -225 -225 -225 -225 -225 -225 -225 -225 -225 -225 -225 -225 -225 -225 -225 -225 -225 -225 -225 -225 -225 -225 -225 -225 -225 -225 -225 -225 -225 -225 -225 -225 -225 -225 -225 -225 -225 -225 -225 -225 -225 -225 -225 -225 -225 -225 -225 -225 -225 -225 -225 -225 -225 -225 -225 -225 -225 -225 -225 -225 -225 -225 -225 -225 -225 -225 -225 -225 -225 -225 -225 -225 -225 -225 -225 -225 -225 -225 -225 -225 -225 -225 -225 -225 -225 -225 -225 -225 -225 -225 -225 -225 -225 -225 -225 -225 -225 -225 -225 -225 -225 -225 -225 -225 -225 -225 -225 -225 -225 -209 -209 -209 -209 -209 -209 -209 -209 -209 -209 -209 -209 -209 -209 -209 -209 -209 -209 -209 -209 -209 -209 -209 -209 -209 -209 -209 -209 -209 -209 -209 -209 -209 -209 -209 142 -209 -209 -209 -209 -209 -209 -209 150 149 143 142 142 146 147 146 147 145 143 146 149 148 145 146 147 145 146 145 146 143 144 143 144 143 142 -209 -209 136 -193 136 143 141 143 143 142 142 144 145 146 145 145 146 147 147 149 149 149 148 151 148 149 149 -209 -193 141 141 139 0 0 0 0 0
    0 0 0 0 0 0 0 0 0 0 0 0 0 0 0 0 0 0 0 0 0 0 0 0 0 0 0 0 0 0 0 0 0 0 0 0 0 0 0 0 0 0 0 0 0 0 0 0 0 0 0 0 0 0 0 0 0 0 0 0 0 0 0 0 0 0 0 0 0 140 139 137 138 138 138 139 138 139 141 -193 148 151 150 149 149 148 149 -225 -225 -225 -225 -225 -225 -225 -225 -225 -225 -225 -225 -225 -225 -225 -225 -225 -225 -225 -225 -225 -225 -225 -225 -225 -225 -225 -225 -225 -225 -225 -225 -225 -225 -225 -225 -225 -225 -225 -225 -225 -225 -225 -225 -225 -225 -225 -225 -225 -225 -225 -225 -225 -225 -225 -225 -225 -225 -225 -225 -225 -225 -225 -225 -225 -225 -225 -225 -225 -225 -225 -225 -225 -225 -225 -225 -225 -225 -225 -225 -225 -225 -225 -225 -225 -225 -225 -225 -225 -225 -225 -225 -225 -225 -225 -225 -225 -225 -225 -225 -225 -225 -225 -225 -225 -225 -225 -225 -225 -225 -225 -225 -225 -225 -225 -225 -225 -225 -225 -225 -225 -225 -225 -225 -225 -225 -209 -209 -209 -209 -209 -209 -209 -209 -209 -209 -209 -209 -209 -209 -209 -209 -209 -209 -209 -209 -209 -209 -209 -209 -209 -209 -209 -209 -209 -209 -209 -209 147 145 143 146 150 -209 -209 148 150 149 149 151 150 146 143 142 146 146 146 147 144 143 146 149 149 147 147 148 146 147 146 147 144 144 146 147 151 -209 -209 157 -209 151 -209 149 -209 146 146 146 145 147 146 147 145 144 144 146 147 149 149 150 149 152 150 151 152 -209 -209 142 141 138 0 0 0 0 0
    0 0 0 0 0 0 0 0 0 0 0 0 0 0 0 0 0 0 0 0 0 0 0 0 0 0 0 0 0 0 0 0 0 0 0 0 0 0 0 0 0 0 0 0 0 0 0 0 0 0 0 0 0 0 0 0 0 0 0 0 0 0 0 0 0 0 0 0 0 140 139 138 139 138 138 140 140 142 -209 -193 150 152 151 151 151 150 150 151 154 -225 -225 -225 -225 -225 -225 161 163 164 163 165 165 166 -209 -209 159 158 156 156 153 153 -225 -225 -225 -225 -225 -225 -225 -225 -225 -225 -225 -225 -225 -225 -225 -225 -225 -225 -225 -225 -225 -225 -225 -225 -225 -225 -225 -225 -225 -225 -225 -225 -225 -225 -225 -225 -225 -225 -225 -225 -225 -225 -225 -225 -225 -225 -225 -225 -225 -225 -225 -225 -225 -225 -225 -225 -225 -225 -225 -225 -225 -225 -225 -225 -225 -225 -225 -225 -225 -225 -225 -225 -225 -225 -225 -225 -225 -225 -225 -225 -225 -225 -225 -225 -225 -225 -225 -225 -225 -225 -225 -225 -225 -225 -225 -225 -225 -225 -225 -225 -225 -225 -225 -209 -209 -209 -209 -209 -209 -209 -209 -209 -209 -209 -209 -209 -209 -209 -209 -209 -209 -209 -209 -209 -209 -209 -209 -209 -209 -209 -209 143 -209 -209 144 146 144 143 145 148 148 149 147 149 149 150 152 151 149 147 145 148 147 146 147 143 142 144 149 148 147 147 149 147 148 147 147 146 146 148 149 153 -193 -209 158 154 -209 -209 -193 -209 148 149 149 147 149 148 148 145 144 145 147 148 151 151 153 151 153 151 153 153 -209 -209 -209 142 139 0 0 0 0 0
    0 0 0 0 0 0 0 0 0 0 0 0 0 0 0 0 0 0 0 0 0 0 0 0 0 0 0 0 0 0 0 0 0 0 0 0 0 0 0 0 0 0 0 0 0 0 0 0 0 0 0 0 0 0 0 0 0 0 0 0 0 0 0 0 0 0 0 0 0 140 139 138 139 138 139 142 -193 -193 -209 -209 -193 155 154 154 154 151 151 153 155 -225 -225 -225 -225 164 163 161 162 163 161 164 162 163 -193 154 154 155 155 155 152 152 150 154 -225 -225 -225 -225 -225 -225 -225 -225 -225 -225 -225 -225 -225 -225 -225 -225 -225 -225 -225 -225 -225 -225 -225 -225 -225 -225 -225 -225 -225 -225 -225 -225 -225 -225 -225 -225 -225 -225 -225 -225 -225 -225 -225 -225 -225 -225 -225 -225 -225 -225 -225 -225 -225 -225 -225 -225 -225 -225 -225 -225 -225 -225 -225 -225 -225 -225 -225 -225 -225 -225 -225 -225 -225 -225 -225 -225 -225 -225 -225 -225 -225 -225 -225 -225 -225 -225 -225 -225 -225 -225 -225 -225 -225 -225 -225 -225 -225 -225 -225 -225 -225 -209 -209 -209 -209 -209 -209 -209 -209 -209 -209 -209 -209 -209 -209 -209 -209 -209 -209 -209 -209 -209 -209 -209 -209 -209 -209 -209 -209 -209 143 145 145 147 145 145 146 149 149 149 148 149 150 151 153 153 152 150 150 150 150 148 148 145 144 148 150 150 150 151 150 149 149 147 148 147 147 150 150 154 -209 -209 158 155 -193 -193 -193 -209 -209 151 152 150 151 150 150 147 145 147 148 148 152 153 154 153 155 152 155 154 155 -209 -193 -193 -209 0 0 0 0 0</data></disparity>
</opencv_storage>
