<?xml version="1.0"?>
<opencv_storage>
<gps_time_stamp>33042</gps_time_stamp>
<gps_x>-1.0214546203613281e+001</gps_x>
<gps_y>1.1680058240890503e+000</gps_y>
<gps_z>-2.6994285583496094e+000</gps_z>
<image_time_stamp>20964</image_time_stamp>
<disparity type_id="opencv-matrix">
  <rows>91</rows>
  <cols>320</cols>
  <dt>s</dt>
  <data>
    0 0 0 0 0 0 0 0 0 0 0 0 0 0 0 0 0 0 0 0 0 0 0 0 0 0 0 0 0 0 0 0 0 0 0 0 0 0 0 0 0 0 0 0 0 0 0 0 0 0 0 0 0 0 0 0 0 0 0 0 0 0 0 0 0 0 0 0 0 0 0 0 0 0 0 0 0 0 0 0 0 0 0 0 0 0 0 0 0 0 0 0 0 0 0 0 0 0 0 0 0 0 0 0 0 0 0 0 0 0 0 0 0 0 0 0 0 0 0 0 0 0 0 0 0 0 0 0 0 0 0 0 0 0 0 0 0 0 0 0 0 0 0 0 0 0 0 0 0 0 0 0 0 0 0 0 0 0 0 0 0 0 0 0 0 0 0 0 0 0 0 0 0 0 0 0 0 0 0 0 0 0 0 0 0 0 0 0 0 0 0 0 0 0 0 0 0 0 0 0 0 0 0 0 0 0 0 0 0 0 0 0 0 0 0 0 0 0 0 0 0 0 0 0 0 0 0 0 0 0 0 0 0 0 0 0 0 0 0 0 0 0 0 0 0 0 0 0 0 0 0 0 0 0 0 0 0 0 0 0 0 0 0 0 0 0 0 0 0 0 0 0 0 0 0 0 0 0 0 0 0 0 0 0 0 0 0 0 0 0 0 0 0 0 0 0 0 0 0 0 0 0 0 0 0 0 0 0 0 0 0 0 0 0 0 0 0 0 0 0
    0 0 0 0 0 0 0 0 0 0 0 0 0 0 0 0 0 0 0 0 0 0 0 0 0 0 0 0 0 0 0 0 0 0 0 0 0 0 0 0 0 0 0 0 0 0 0 0 0 0 0 0 0 0 0 0 0 0 0 0 0 0 0 0 0 0 0 0 0 0 0 0 0 0 0 0 0 0 0 0 0 0 0 0 0 0 0 0 0 0 0 0 0 0 0 0 0 0 0 0 0 0 0 0 0 0 0 0 0 0 0 0 0 0 0 0 0 0 0 0 0 0 0 0 0 0 0 0 0 0 0 0 0 0 0 0 0 0 0 0 0 0 0 0 0 0 0 0 0 0 0 0 0 0 0 0 0 0 0 0 0 0 0 0 0 0 0 0 0 0 0 0 0 0 0 0 0 0 0 0 0 0 0 0 0 0 0 0 0 0 0 0 0 0 0 0 0 0 0 0 0 0 0 0 0 0 0 0 0 0 0 0 0 0 0 0 0 0 0 0 0 0 0 0 0 0 0 0 0 0 0 0 0 0 0 0 0 0 0 0 0 0 0 0 0 0 0 0 0 0 0 0 0 0 0 0 0 0 0 0 0 0 0 0 0 0 0 0 0 0 0 0 0 0 0 0 0 0 0 0 0 0 0 0 0 0 0 0 0 0 0 0 0 0 0 0 0 0 0 0 0 0 0 0 0 0 0 0 0 0 0 0 0 0 0 0 0 0 0 0
    0 0 0 0 0 0 0 0 0 0 0 0 0 0 0 0 0 0 0 0 0 0 0 0 0 0 0 0 0 0 0 0 0 0 0 0 0 0 0 0 0 0 0 0 0 0 0 0 0 0 0 0 0 0 0 0 0 0 0 0 0 0 0 0 0 0 0 0 0 0 0 0 0 0 0 0 0 0 0 0 0 0 0 0 0 0 0 0 0 0 0 0 0 0 0 0 0 0 0 0 0 0 0 0 0 0 0 0 0 0 0 0 0 0 0 0 0 0 0 0 0 0 0 0 0 0 0 0 0 0 0 0 0 0 0 0 0 0 0 0 0 0 0 0 0 0 0 0 0 0 0 0 0 0 0 0 0 0 0 0 0 0 0 0 0 0 0 0 0 0 0 0 0 0 0 0 0 0 0 0 0 0 0 0 0 0 0 0 0 0 0 0 0 0 0 0 0 0 0 0 0 0 0 0 0 0 0 0 0 0 0 0 0 0 0 0 0 0 0 0 0 0 0 0 0 0 0 0 0 0 0 0 0 0 0 0 0 0 0 0 0 0 0 0 0 0 0 0 0 0 0 0 0 0 0 0 0 0 0 0 0 0 0 0 0 0 0 0 0 0 0 0 0 0 0 0 0 0 0 0 0 0 0 0 0 0 0 0 0 0 0 0 0 0 0 0 0 0 0 0 0 0 0 0 0 0 0 0 0 0 0 0 0 0 0 0 0 0 0 0
    0 0 0 0 0 0 0 0 0 0 0 0 0 0 0 0 0 0 0 0 0 0 0 0 0 0 0 0 0 0 0 0 0 0 0 0 0 0 0 0 0 0 0 0 0 0 0 0 0 0 0 0 0 0 0 0 0 0 0 0 0 0 0 0 0 0 0 0 0 0 0 0 0 0 0 0 0 0 0 0 0 0 0 0 0 0 0 0 0 0 0 0 0 0 0 0 0 0 0 0 0 0 0 0 0 0 0 0 0 0 0 0 0 0 0 0 0 0 0 0 0 0 0 0 0 0 0 0 0 0 0 0 0 0 0 0 0 0 0 0 0 0 0 0 0 0 0 0 0 0 0 0 0 0 0 0 0 0 0 0 0 0 0 0 0 0 0 0 0 0 0 0 0 0 0 0 0 0 0 0 0 0 0 0 0 0 0 0 0 0 0 0 0 0 0 0 0 0 0 0 0 0 0 0 0 0 0 0 0 0 0 0 0 0 0 0 0 0 0 0 0 0 0 0 0 0 0 0 0 0 0 0 0 0 0 0 0 0 0 0 0 0 0 0 0 0 0 0 0 0 0 0 0 0 0 0 0 0 0 0 0 0 0 0 0 0 0 0 0 0 0 0 0 0 0 0 0 0 0 0 0 0 0 0 0 0 0 0 0 0 0 0 0 0 0 0 0 0 0 0 0 0 0 0 0 0 0 0 0 0 0 0 0 0 0 0 0 0 0 0
    0 0 0 0 0 0 0 0 0 0 0 0 0 0 0 0 0 0 0 0 0 0 0 0 0 0 0 0 0 0 0 0 0 0 0 0 0 0 0 0 0 0 0 0 0 0 0 0 0 0 0 0 0 0 0 0 0 0 0 0 0 0 0 0 0 0 0 0 0 -225 -225 -225 -225 -225 -225 -225 -225 -225 -225 -225 -225 16 16 16 16 16 16 16 16 0 0 0 0 0 0 0 0 0 0 0 0 0 0 0 0 0 0 0 0 0 0 0 0 0 0 0 0 0 0 0 0 0 0 0 0 0 0 0 0 0 0 0 0 -209 0 0 0 0 0 9 9 9 9 9 0 9 9 9 9 10 10 10 12 -193 15 15 14 -193 12 12 10 10 9 9 9 9 9 0 0 0 0 9 20 0 0 16 11 12 12 13 11 11 12 13 11 13 11 12 10 13 13 11 11 11 9 10 12 0 0 0 14 11 10 11 11 10 13 12 12 10 11 11 11 11 17 12 14 14 14 14 14 14 14 -225 -225 -225 -225 -225 -225 -225 -225 -225 -225 -225 14 9 0 0 0 0 0 0 10 11 12 13 14 17 18 18 19 18 18 18 19 19 19 21 20 19 20 21 22 22 22 22 21 22 23 23 24 24 23 23 24 -193 24 24 25 28 27 28 29 28 28 32 34 35 34 40 40 42 41 41 40 40 41 40 40 40 39 39 40 39 40 40 40 40 41 40 41 40 41 41 41 0 0 0 0 0
    0 0 0 0 0 0 0 0 0 0 0 0 0 0 0 0 0 0 0 0 0 0 0 0 0 0 0 0 0 0 0 0 0 0 0 0 0 0 0 0 0 0 0 0 0 0 0 0 0 0 0 0 0 0 0 0 0 0 0 0 0 0 0 0 0 0 0 0 0 -225 -225 -225 -225 -225 -225 -225 -225 -225 -225 -225 -225 16 15 15 15 15 15 15 16 0 0 0 0 0 0 0 0 0 0 0 0 0 0 0 0 0 0 0 0 0 0 0 0 0 0 0 0 0 0 0 0 0 0 0 0 0 0 0 0 0 0 0 0 -193 0 0 0 0 0 9 9 0 9 9 0 0 9 9 9 10 11 10 12 -193 16 16 14 11 12 12 10 10 9 9 9 9 9 0 0 9 0 9 21 0 0 15 11 12 11 12 11 11 12 13 10 13 11 12 10 12 13 10 10 11 9 10 13 9 0 0 14 11 10 11 11 10 13 12 12 10 11 11 11 11 15 11 13 13 12 13 13 13 13 -225 -225 -225 -225 -225 -225 -225 -225 -225 -225 -225 12 9 0 9 9 9 9 10 11 12 13 14 15 17 17 18 19 18 18 18 18 18 19 20 20 19 20 20 22 22 22 22 22 22 23 23 24 25 24 24 25 -193 25 25 26 28 27 28 29 29 29 32 35 35 34 40 39 41 40 41 40 40 41 40 40 40 40 39 40 40 40 40 40 40 41 40 41 40 41 41 41 0 0 0 0 0
    0 0 0 0 0 0 0 0 0 0 0 0 0 0 0 0 0 0 0 0 0 0 0 0 0 0 0 0 0 0 0 0 0 0 0 0 0 0 0 0 0 0 0 0 0 0 0 0 0 0 0 0 0 0 0 0 0 0 0 0 0 0 0 0 0 0 0 0 0 -225 -225 -225 -225 -225 -225 -225 -225 -225 -225 -225 -225 16 15 15 15 15 15 15 15 0 0 0 0 0 0 0 0 0 0 0 0 0 0 0 0 0 0 0 0 0 0 0 0 0 0 0 0 0 0 0 0 0 0 0 0 0 0 0 0 0 0 0 0 0 0 0 0 0 0 9 9 9 9 9 0 0 0 9 9 9 10 9 11 13 14 12 11 10 11 11 9 9 9 0 9 9 9 0 0 -193 0 -209 -193 0 0 14 11 11 10 12 11 10 12 12 10 12 10 12 9 12 12 10 10 10 9 10 13 10 9 9 15 11 11 11 11 11 14 12 12 10 11 12 11 11 14 10 11 11 11 11 11 11 -225 -225 -225 -225 -225 -225 -225 -225 -225 -225 -225 -225 13 10 10 12 11 12 12 12 13 13 14 16 16 17 17 18 19 19 19 18 19 19 20 21 20 20 20 20 21 21 21 21 21 22 23 23 24 26 24 24 26 -193 26 26 27 29 27 28 30 30 30 33 35 35 35 39 39 40 39 40 39 40 41 40 40 40 40 40 40 40 40 40 40 40 41 41 41 40 41 41 41 0 0 0 0 0
    0 0 0 0 0 0 0 0 0 0 0 0 0 0 0 0 0 0 0 0 0 0 0 0 0 0 0 0 0 0 0 0 0 0 0 0 0 0 0 0 0 0 0 0 0 0 0 0 0 0 0 0 0 0 0 0 0 0 0 0 0 0 0 0 0 0 0 0 0 -225 -225 -225 -225 -225 -225 -225 -225 -225 -225 -225 -225 16 15 15 15 15 15 15 15 0 0 0 0 0 0 0 0 0 0 0 0 0 0 0 0 0 0 0 0 0 0 0 0 0 0 0 0 0 0 0 0 0 0 0 0 0 0 9 9 0 0 0 0 0 0 9 9 9 9 10 10 10 9 9 0 9 0 9 8 9 10 9 11 13 13 12 11 10 11 11 9 9 9 0 0 9 0 0 0 0 -193 -193 -209 0 0 13 10 11 10 11 10 10 11 12 10 11 10 11 9 11 11 10 10 10 9 10 13 10 9 9 15 12 11 11 12 11 14 12 12 10 11 12 12 12 12 9 9 9 9 9 9 9 -225 -225 -225 -225 -225 -225 -225 -225 -225 -225 -225 15 13 11 12 15 14 14 14 14 14 14 16 16 16 17 17 18 19 19 20 19 20 20 21 21 21 20 21 20 21 20 20 20 20 22 22 23 23 26 24 24 27 27 27 27 28 30 28 29 31 30 31 35 35 36 36 39 39 39 39 39 38 40 41 40 39 40 39 40 40 40 40 40 40 41 41 41 42 41 42 42 42 0 0 0 0 0
    0 0 0 0 0 0 0 0 0 0 0 0 0 0 0 0 0 0 0 0 0 0 0 0 0 0 0 0 0 0 0 0 0 0 0 0 0 0 0 0 0 0 0 0 0 0 0 0 0 0 0 0 0 0 0 0 0 0 0 0 0 0 0 0 0 0 0 0 0 -225 -225 -225 -225 -225 -225 -225 -225 -225 -225 -225 -225 17 15 15 15 15 15 15 16 0 0 0 0 0 0 0 0 0 0 0 0 0 0 0 0 0 0 0 0 0 0 0 0 0 0 0 0 0 0 0 0 0 0 0 0 0 0 9 9 0 0 0 0 0 0 9 9 10 10 11 10 10 10 10 0 9 0 9 0 9 10 10 11 13 13 12 11 10 11 11 9 9 9 0 9 9 9 0 0 9 -193 -193 -193 0 0 10 9 10 9 10 10 9 11 11 10 11 10 12 10 12 12 11 11 11 10 11 14 11 10 10 16 12 12 12 12 11 14 12 12 10 11 12 12 12 10 0 0 0 0 0 0 0 -225 -225 -225 -225 -225 -225 -225 -225 -225 -225 13 13 12 11 13 16 15 15 15 14 14 15 17 16 15 16 16 18 19 20 20 19 21 20 21 22 21 21 21 20 20 20 20 20 20 21 22 22 23 26 25 25 27 28 28 28 29 31 29 30 32 31 32 36 36 36 36 39 39 40 39 39 38 40 41 40 40 40 40 40 41 41 41 40 40 41 41 42 42 41 42 42 42 0 0 0 0 0
    0 0 0 0 0 0 0 0 0 0 0 0 0 0 0 0 0 0 0 0 0 0 0 0 0 0 0 0 0 0 0 0 0 0 0 0 0 0 0 0 0 0 0 0 0 0 0 0 0 0 0 0 0 0 0 0 0 0 0 0 0 0 0 0 0 0 0 0 0 -225 -225 -225 -225 -225 -225 -225 -225 -225 -225 -225 -225 19 16 16 16 16 16 16 16 0 0 0 0 0 0 0 0 0 0 0 0 0 0 0 0 0 0 0 0 0 0 0 0 0 0 0 0 0 0 0 0 0 9 0 0 9 0 9 10 0 0 0 8 0 0 9 9 10 10 11 10 10 10 10 9 10 9 9 9 9 10 10 11 13 13 13 11 10 11 11 9 9 10 9 10 10 10 9 9 11 9 -193 -193 0 0 9 9 9 0 10 9 9 11 11 10 11 10 12 10 12 12 11 11 12 11 11 14 12 11 11 17 12 12 12 12 11 14 12 12 10 11 12 12 12 0 0 0 0 0 0 0 0 -225 -225 -225 -225 -225 -225 -225 -225 -225 -225 13 12 12 12 14 16 15 16 16 14 14 15 16 15 15 15 16 17 19 20 20 20 22 21 21 22 21 22 21 21 21 20 21 21 20 22 23 23 23 26 25 25 29 29 30 30 31 33 30 31 33 33 34 37 36 36 37 39 39 40 38 40 38 40 41 40 40 40 40 40 40 41 41 41 41 41 42 42 42 42 42 42 42 0 0 0 0 0
    0 0 0 0 0 0 0 0 0 0 0 0 0 0 0 0 0 0 0 0 0 0 0 0 0 0 0 0 0 0 0 0 0 0 0 0 0 0 0 0 0 0 0 0 0 0 0 0 0 0 0 0 0 0 0 0 0 0 0 0 0 0 0 0 0 0 0 0 0 -225 -225 -225 -225 -225 -225 -225 -225 -225 -225 -225 -225 -225 17 17 17 17 17 17 17 8 0 0 0 0 0 0 0 0 0 0 0 0 0 0 0 0 0 0 0 0 0 0 0 0 0 0 0 0 0 0 0 0 9 0 0 9 0 10 10 0 0 0 9 0 0 9 10 10 10 11 10 10 11 11 9 10 8 9 9 10 11 11 12 13 13 12 10 -193 10 -193 0 9 9 9 9 10 9 9 9 10 9 -193 -193 0 0 0 0 9 0 9 9 9 10 11 10 11 10 12 10 12 12 11 11 11 11 11 13 11 11 11 17 13 12 12 12 11 14 12 12 9 11 12 12 12 0 0 0 0 0 0 0 0 -225 -225 -225 -225 -225 -225 -225 -225 -225 14 13 13 13 13 15 17 16 17 17 15 15 17 17 16 15 16 16 17 18 19 19 20 21 21 21 22 21 22 21 21 21 20 21 21 20 22 23 24 24 27 27 26 31 30 32 33 33 34 32 33 35 35 37 38 37 38 39 40 40 40 39 40 39 40 41 41 40 41 40 40 40 40 41 40 41 42 41 42 43 42 42 43 42 0 0 0 0 0
    0 0 0 0 0 0 0 0 0 0 0 0 0 0 0 0 0 0 0 0 0 0 0 0 0 0 0 0 0 0 0 0 0 0 0 0 0 0 0 0 0 0 0 0 0 0 0 0 0 0 0 0 0 0 0 0 0 0 0 0 0 0 0 0 0 0 0 0 0 10 -225 -225 -225 -225 -225 -225 -225 -225 -225 -225 -225 -225 17 17 17 17 17 17 18 9 0 0 0 0 0 0 0 0 0 0 0 0 0 0 0 0 0 0 0 0 0 0 0 0 0 0 0 0 0 0 0 0 9 0 0 9 9 10 10 0 0 0 9 0 0 9 10 10 9 10 10 10 11 11 0 0 0 0 9 10 10 10 10 11 11 11 0 -193 0 -193 0 0 9 0 9 9 9 9 9 10 9 -193 -209 0 0 0 0 9 0 -193 9 9 10 11 10 11 9 12 9 11 11 11 11 11 11 11 13 11 11 11 17 13 12 12 12 12 14 12 12 10 11 12 12 12 0 0 0 0 0 0 0 0 -225 -225 -225 -225 -225 -225 -225 -225 15 14 14 14 13 14 15 18 17 18 18 16 16 19 18 18 17 18 17 18 20 20 19 20 21 21 20 22 21 22 21 20 20 19 20 20 20 22 22 23 25 28 27 27 34 31 34 34 35 35 34 35 37 37 38 39 39 39 40 41 40 41 39 40 38 40 41 40 40 41 40 40 40 41 41 41 41 42 42 42 43 43 43 43 42 0 0 0 0 0
    0 0 0 0 0 0 0 0 0 0 0 0 0 0 0 0 0 0 0 0 0 0 0 0 0 0 0 0 0 0 0 0 0 0 0 0 0 0 0 0 0 0 0 0 0 0 0 0 0 0 0 0 0 0 0 0 0 0 0 0 0 0 0 0 0 0 0 0 0 10 10 -225 -225 -225 -225 -225 -225 -225 -225 -225 -225 -225 18 18 18 18 18 18 18 9 0 0 0 0 0 0 0 0 0 0 0 0 0 0 0 0 0 0 -193 0 0 0 0 0 0 0 0 0 0 0 0 0 9 0 0 9 9 10 10 0 0 0 9 0 0 0 9 9 8 9 0 0 9 9 0 0 0 0 0 9 0 9 0 10 -193 12 -209 -209 0 -209 0 8 9 0 9 9 0 0 9 10 9 -193 -209 0 0 0 0 9 0 -193 9 9 10 10 9 10 9 11 9 11 11 11 12 12 12 12 13 12 12 12 19 13 13 13 13 12 15 13 13 10 12 12 12 12 0 0 0 0 0 0 0 0 -225 -225 -225 -225 -225 -225 -225 -225 13 13 14 13 13 13 15 19 17 19 19 16 18 20 19 19 18 20 18 19 21 21 20 21 22 21 21 22 21 22 21 20 20 19 20 20 19 21 21 22 24 27 27 28 35 33 35 36 36 36 36 36 37 38 39 40 39 40 41 41 40 41 39 40 38 40 41 41 40 42 41 41 41 41 42 42 42 43 42 43 43 43 43 43 42 0 0 0 0 0
    0 0 0 0 0 0 0 0 0 0 0 0 0 0 0 0 0 0 0 0 0 0 0 0 0 0 0 0 0 0 0 0 0 0 0 0 0 0 0 0 0 0 0 0 0 0 0 0 0 0 0 0 0 0 0 0 0 0 0 0 0 0 0 0 0 0 0 0 0 9 9 8 -225 -225 -225 -225 -225 -225 -225 -225 -225 -225 19 19 19 19 19 19 19 10 0 0 0 0 0 0 0 0 0 0 0 0 0 0 0 0 0 -193 -193 0 0 0 0 0 0 9 0 0 0 0 0 0 9 0 0 9 0 9 10 0 0 0 9 0 0 0 9 0 0 0 0 0 0 0 0 0 0 0 0 0 -193 -193 -209 -209 -209 -209 -209 -209 0 -209 0 0 0 0 0 0 0 0 9 9 -193 -193 -209 0 0 0 0 9 0 -193 -193 9 10 10 9 10 9 11 9 11 12 12 13 12 12 12 14 12 12 12 19 14 14 13 14 13 16 13 13 10 12 13 12 12 0 0 0 0 0 0 0 0 -225 -225 -225 -225 -225 -225 -225 13 13 13 14 14 13 13 15 20 17 19 19 17 18 20 20 19 18 20 19 19 21 21 20 20 22 21 21 22 21 22 21 21 20 20 20 21 20 22 22 23 23 26 28 29 36 35 37 37 37 37 37 37 38 39 39 40 39 40 40 41 40 40 39 40 38 40 40 40 40 42 41 41 41 41 42 42 42 43 42 43 43 43 43 43 42 0 0 0 0 0
    0 0 0 0 0 0 0 0 0 0 0 0 0 0 0 0 0 0 0 0 0 0 0 0 0 0 0 0 0 0 0 0 0 0 0 0 0 0 0 0 0 0 0 0 0 0 0 0 0 0 0 0 0 0 0 0 0 0 0 0 0 0 0 0 0 0 0 0 0 9 9 9 0 -225 -225 -225 -225 -225 -225 -225 -225 -225 20 20 20 20 20 20 20 12 0 0 0 0 0 0 0 0 0 0 0 0 0 0 0 0 0 -193 -177 0 0 0 0 0 0 9 0 0 0 0 0 0 9 0 0 0 0 9 9 9 0 0 9 9 0 0 9 0 0 0 0 0 0 0 0 0 0 0 0 0 -193 -193 -209 -209 -209 -209 -209 -209 0 -209 0 0 0 0 0 0 0 0 0 9 -193 -193 -209 0 0 -193 0 9 0 -193 9 9 10 11 9 10 9 11 9 11 12 12 13 13 12 12 14 12 13 13 20 14 14 14 14 13 16 13 13 10 12 13 13 12 0 0 0 0 0 0 0 0 -225 -225 -225 -225 -225 -225 14 14 13 14 14 14 13 13 15 19 16 18 19 17 18 20 20 19 18 20 19 19 22 21 20 20 22 22 21 22 21 22 21 22 21 20 21 22 21 23 22 23 23 26 27 30 36 36 37 37 38 37 37 38 38 39 39 40 39 40 40 40 40 40 38 40 38 40 40 41 40 42 41 41 41 41 42 42 42 43 42 43 43 43 43 43 42 0 0 0 0 0
    0 0 0 0 0 0 0 0 0 0 0 0 0 0 0 0 0 0 0 0 0 0 0 0 0 0 0 0 0 0 0 0 0 0 0 0 0 0 0 0 0 0 0 0 0 0 0 0 0 0 0 0 0 0 0 0 0 0 0 0 0 0 0 0 0 0 0 0 0 9 9 9 0 0 -225 -225 -225 -225 -225 -225 -225 -225 20 20 20 20 20 20 20 14 0 0 0 0 0 0 0 0 0 0 0 0 0 0 0 0 0 -193 -177 0 0 0 0 0 0 9 0 0 0 0 0 0 0 0 0 0 0 9 9 9 0 0 9 9 0 0 0 0 0 0 0 0 0 0 0 0 0 0 0 0 0 -193 -209 -209 -209 -209 -209 -209 -209 -209 0 0 8 0 9 9 9 9 9 10 9 -193 11 0 0 9 9 10 9 -193 9 9 11 11 9 10 9 11 9 10 12 12 13 12 12 12 14 12 13 12 20 14 13 13 13 13 15 13 13 10 12 12 12 12 0 0 0 0 0 0 0 0 -225 -225 -225 -225 -225 15 14 14 14 13 14 13 12 13 15 19 16 18 19 17 18 20 20 19 18 20 19 20 22 21 20 20 22 21 21 22 21 21 21 22 21 21 22 22 21 23 23 24 23 25 27 30 37 36 37 38 38 38 38 38 38 39 39 41 39 40 40 41 40 40 39 40 38 41 41 41 41 42 41 42 41 42 42 42 42 43 42 43 43 43 43 43 42 0 0 0 0 0
    0 0 0 0 0 0 0 0 0 0 0 0 0 0 0 0 0 0 0 0 0 0 0 0 0 0 0 0 0 0 0 0 0 0 0 0 0 0 0 0 0 0 0 0 0 0 0 0 0 0 0 0 0 0 0 0 0 0 0 0 0 0 0 0 0 0 0 0 0 9 9 9 9 0 -225 -225 -225 -225 -225 -225 -225 -225 20 20 20 20 20 20 20 13 0 0 0 0 0 0 0 0 0 0 0 0 0 0 0 0 0 -193 -177 0 0 0 0 0 0 9 0 0 0 0 0 0 0 0 0 0 0 9 9 9 9 0 10 0 0 0 0 0 0 0 0 0 0 0 0 0 0 0 0 0 0 -193 -209 -209 -209 -209 -209 -209 -193 -193 0 0 9 0 9 9 9 9 9 9 9 -209 -193 0 0 11 10 11 10 11 10 10 12 12 9 10 9 10 0 10 11 11 12 11 12 12 15 13 13 13 20 14 14 13 13 13 15 13 13 10 12 12 12 12 0 0 0 0 0 0 0 0 -225 -225 -225 -225 -225 13 13 14 13 13 13 13 12 13 16 19 16 18 19 17 18 20 20 19 18 20 20 19 21 21 19 20 22 22 21 22 21 22 22 22 22 21 22 22 21 24 24 25 24 25 27 30 36 36 37 38 38 38 38 38 38 39 39 41 39 40 40 41 40 40 39 40 39 41 41 41 41 42 41 41 41 42 42 42 42 43 42 43 43 43 43 42 42 0 0 0 0 0
    0 0 0 0 0 0 0 0 0 0 0 0 0 0 0 0 0 0 0 0 0 0 0 0 0 0 0 0 0 0 0 0 0 0 0 0 0 0 0 0 0 0 0 0 0 0 0 0 0 0 0 0 0 0 0 0 0 0 0 0 0 0 0 0 0 0 0 0 0 0 9 9 9 9 9 -225 -225 -225 -225 -225 -225 -225 20 20 20 20 20 20 20 13 0 0 0 0 0 0 0 0 0 0 0 0 0 0 0 0 0 0 -177 0 0 0 0 0 0 9 0 0 0 0 0 0 0 0 0 0 0 0 0 8 0 0 9 0 0 0 0 0 0 0 0 0 0 0 0 0 0 0 0 0 0 -193 -209 -193 -209 -209 -209 -193 10 -193 0 0 0 0 0 0 0 0 0 0 -209 -209 -209 0 0 12 10 12 11 11 11 10 12 13 10 10 9 10 0 10 10 10 11 10 11 11 14 12 12 12 20 14 13 13 13 13 15 13 13 10 12 12 12 12 0 0 0 0 0 0 0 0 -225 -225 -225 -225 14 13 13 13 13 14 13 13 13 14 16 18 16 18 19 17 19 20 19 19 18 21 20 19 21 20 19 21 22 22 22 23 22 23 23 23 24 22 22 23 22 25 25 25 25 26 28 32 36 36 37 38 38 38 38 39 39 40 40 41 40 41 41 41 40 41 40 41 39 41 41 41 41 42 41 41 41 42 42 42 42 43 42 43 43 43 43 42 42 0 0 0 0 0
    0 0 0 0 0 0 0 0 0 0 0 0 0 0 0 0 0 0 0 0 0 0 0 0 0 0 0 0 0 0 0 0 0 0 0 0 0 0 0 0 0 0 0 0 0 0 0 0 0 0 0 0 0 0 0 0 0 0 0 0 0 0 0 0 0 0 0 0 0 8 9 9 9 9 9 9 -225 -225 -225 -225 -225 -225 19 19 19 19 19 19 19 12 0 0 0 0 0 0 0 0 0 0 0 0 0 0 0 0 0 0 -193 0 0 0 0 0 0 9 0 0 0 0 0 0 0 0 0 0 0 0 0 0 0 0 0 0 0 0 0 0 0 0 0 0 0 0 0 0 0 0 0 0 0 -193 -209 -209 -209 -209 -209 -209 -193 -209 0 0 0 0 0 0 0 0 0 0 -193 -209 -193 0 0 13 11 12 11 12 11 11 12 13 10 11 9 10 9 10 10 10 10 10 10 9 13 11 11 11 20 13 13 13 13 12 15 13 13 10 12 12 12 12 0 0 0 0 0 0 0 0 -225 -225 -225 14 14 14 14 14 14 14 14 14 15 15 16 19 16 18 19 18 19 20 20 19 19 21 20 19 21 20 19 21 22 21 22 23 22 23 23 23 24 22 22 23 23 24 24 26 26 26 29 34 37 36 38 39 38 38 39 39 39 40 40 41 40 41 41 41 41 41 40 41 39 41 40 41 41 42 41 41 41 41 42 42 42 42 42 43 43 42 43 42 42 0 0 0 0 0
    0 0 0 0 0 0 0 0 0 0 0 0 0 0 0 0 0 0 0 0 0 0 0 0 0 0 0 0 0 0 0 0 0 0 0 0 0 0 0 0 0 0 0 0 0 0 0 0 0 0 0 0 0 0 0 0 0 0 0 0 0 0 0 0 0 0 0 0 0 0 0 0 0 0 0 0 0 -225 -225 -225 -225 -225 19 19 19 19 19 19 18 12 0 0 0 0 0 0 0 0 0 0 0 0 0 0 0 0 0 0 -193 0 0 0 0 0 0 9 9 0 0 0 0 0 9 0 0 0 0 9 9 9 0 0 0 0 0 0 0 0 0 0 0 0 0 0 0 0 0 0 0 -193 0 -209 -209 -209 -193 -209 -209 -209 -209 -209 9 0 0 0 0 0 0 0 0 0 -193 -177 -193 0 0 13 11 12 11 12 11 11 13 14 11 12 10 10 9 11 10 9 10 9 9 0 12 11 10 11 20 13 13 13 13 12 14 13 12 10 11 11 12 12 0 0 0 0 0 0 0 0 -225 -225 14 14 14 15 14 15 14 15 15 15 17 16 16 19 16 18 20 18 19 19 20 20 19 21 21 19 21 20 20 20 21 22 22 23 23 23 23 24 25 23 23 23 23 24 25 27 27 27 31 36 37 37 38 38 38 38 39 39 39 39 40 41 40 41 41 41 40 41 40 41 40 41 40 41 41 42 41 41 41 42 42 42 42 42 42 43 43 42 43 42 42 0 0 0 0 0
    0 0 0 0 0 0 0 0 0 0 0 0 0 0 0 0 0 0 0 0 0 0 0 0 0 0 0 0 0 0 0 0 0 0 0 0 0 0 0 0 0 0 0 0 0 0 0 0 0 0 0 0 0 0 0 0 0 0 0 0 0 0 0 0 0 0 0 0 0 0 0 0 0 0 0 0 0 0 -225 -225 -225 -225 18 18 18 18 18 18 17 12 0 0 0 0 0 0 0 0 0 0 0 0 0 0 0 0 0 0 -193 0 0 0 0 0 0 9 9 9 0 0 0 0 9 0 0 0 0 9 9 0 0 0 9 0 9 0 0 0 0 0 0 0 0 0 0 0 0 -193 -193 -193 -193 -209 -209 -209 31 -209 -209 -209 -209 -209 9 0 0 0 0 0 0 0 0 0 -193 629 11 0 0 12 10 11 11 11 11 11 12 14 11 12 10 11 10 11 10 9 10 9 9 0 12 11 10 11 20 13 13 13 13 12 14 13 12 10 11 11 11 11 9 0 0 0 0 0 0 0 -225 -225 13 13 15 15 15 15 15 15 15 17 17 15 17 18 16 17 19 18 18 19 20 19 19 20 20 18 20 19 19 20 21 22 22 23 23 23 24 24 25 23 23 24 24 24 25 27 27 27 30 34 35 36 37 38 37 37 38 39 38 39 39 40 39 40 40 40 40 40 40 41 40 41 41 42 41 42 42 41 41 41 41 41 41 42 41 42 42 42 42 42 42 0 0 0 0 0
    0 0 0 0 0 0 0 0 0 0 0 0 0 0 0 0 0 0 0 0 0 0 0 0 0 0 0 0 0 0 0 0 0 0 0 0 0 0 0 0 0 0 0 0 0 0 0 0 0 0 0 0 0 0 0 0 0 0 0 0 0 0 0 0 0 0 0 0 0 0 0 0 0 0 0 0 0 0 0 -225 -225 -225 17 18 18 18 18 18 17 12 0 0 0 0 0 0 0 0 0 0 0 0 0 0 0 0 0 0 -193 -193 0 0 0 0 0 9 9 0 0 0 0 0 9 0 0 0 0 9 10 0 0 0 9 0 9 0 0 0 0 0 0 0 0 0 0 0 9 0 -193 22 9 -209 -225 -225 -193 -209 -209 -193 -193 -193 0 0 0 0 0 0 0 0 0 0 -193 -193 -193 0 0 10 9 11 10 11 10 10 12 13 11 12 10 11 10 11 10 10 10 9 9 0 12 10 10 11 19 13 13 13 13 12 14 13 12 9 10 10 10 11 9 0 0 0 0 0 0 0 9 10 13 14 15 15 15 14 15 15 16 16 16 15 16 17 17 17 19 17 18 19 19 19 18 19 19 18 19 19 18 20 21 21 21 23 23 23 24 25 25 24 24 24 24 25 26 27 27 27 28 30 31 32 35 37 36 36 38 38 38 38 39 39 38 40 39 39 40 40 40 41 41 42 41 42 42 42 42 41 41 41 41 41 40 41 41 42 41 41 41 41 41 0 0 0 0 0
    0 0 0 0 0 0 0 0 0 0 0 0 0 0 0 0 0 0 0 0 0 0 0 0 0 0 0 0 0 0 0 0 0 0 0 0 0 0 0 0 0 0 0 0 0 0 0 0 0 0 0 0 0 0 0 0 0 0 0 0 0 0 0 0 0 0 0 0 0 0 0 0 0 0 0 0 0 0 0 -225 -225 -225 16 17 17 17 17 17 16 12 0 0 0 0 0 0 0 0 0 0 0 0 0 0 0 0 0 0 -193 -193 0 0 0 0 0 9 0 0 0 0 0 9 10 0 0 0 0 10 10 0 0 0 9 0 0 0 0 0 0 0 0 0 0 -193 0 0 9 0 14 15 9 -193 -193 -193 -193 -209 -193 -193 -193 -193 0 0 0 0 0 0 0 0 0 0 -193 -193 -193 0 0 9 9 10 10 10 10 10 12 13 11 12 10 11 11 11 10 10 10 9 9 0 11 10 10 10 19 13 13 13 13 12 14 13 12 9 10 10 10 10 10 9 9 9 9 9 9 10 10 10 13 14 16 15 15 15 15 17 17 16 16 15 17 17 17 17 18 17 18 18 18 18 18 19 18 18 19 18 18 20 21 21 21 23 23 23 24 24 24 24 24 24 24 24 26 27 27 26 27 28 28 28 33 36 35 36 38 38 39 39 40 40 39 40 40 40 41 41 41 41 41 42 42 43 43 42 42 42 41 42 41 41 41 42 41 42 42 42 42 42 42 0 0 0 0 0
    0 0 0 0 0 0 0 0 0 0 0 0 0 0 0 0 0 0 0 0 0 0 0 0 0 0 0 0 0 0 0 0 0 0 0 0 0 0 0 0 0 0 0 0 0 0 0 0 0 0 0 0 0 0 0 0 0 0 0 0 0 0 0 0 0 0 0 0 0 0 0 0 0 0 8 0 0 0 0 9 -225 -225 14 15 16 16 16 16 15 11 0 0 0 0 0 0 0 0 0 0 0 0 0 0 0 0 0 0 -193 -193 0 0 0 0 0 0 0 0 0 0 9 9 10 0 0 0 0 10 11 0 0 0 9 0 0 0 0 0 0 0 0 0 0 -193 0 0 0 -177 20 14 0 -193 -193 -193 -209 -209 -193 -193 -193 -193 0 0 0 0 0 0 0 0 0 0 -193 -193 -193 0 0 9 9 10 10 10 10 10 12 13 11 12 11 11 11 12 10 10 10 9 10 0 11 9 9 10 18 13 13 13 13 12 15 13 12 9 10 9 10 10 12 9 10 11 11 11 11 11 11 10 14 14 15 14 15 15 17 17 16 16 17 16 18 17 18 18 19 17 17 19 18 18 18 18 18 17 18 18 17 20 20 21 21 22 23 23 24 24 24 23 23 24 23 23 25 26 26 26 27 27 27 27 31 36 36 37 39 39 39 40 40 40 40 41 40 41 42 41 41 42 42 43 42 44 43 43 43 43 42 42 42 42 42 43 42 43 43 43 42 42 42 0 0 0 0 0
    0 0 0 0 0 0 0 0 0 0 0 0 0 0 0 0 0 0 0 0 0 0 0 0 0 0 0 0 0 0 0 0 0 0 0 0 0 0 0 0 0 0 0 0 0 0 0 0 0 0 0 0 0 0 0 0 0 0 0 0 0 0 0 0 0 0 0 0 0 0 0 0 0 9 9 9 9 9 0 9 9 19 13 13 14 14 15 15 14 10 0 0 0 0 0 0 0 0 0 0 0 0 0 0 0 0 0 0 -193 -193 0 0 0 0 0 0 0 0 0 0 0 9 10 0 0 0 0 10 11 0 0 0 9 9 9 9 0 0 0 0 0 0 0 0 0 0 0 -193 -209 -209 -193 65 66 65 63 -193 -209 0 10 10 0 0 0 0 0 0 0 0 0 0 0 -193 12 0 0 9 9 10 9 10 10 10 12 12 11 12 11 11 11 12 11 10 11 10 10 0 11 9 9 10 18 13 13 13 13 12 15 13 12 9 10 9 10 10 14 10 11 12 13 12 12 12 12 10 13 14 15 14 15 16 17 17 17 17 17 17 17 18 18 18 19 18 18 19 18 19 19 18 18 17 19 19 17 21 20 20 21 22 23 23 23 24 23 23 23 23 23 22 24 25 25 25 27 27 27 27 30 34 34 37 37 37 39 40 40 40 40 41 40 41 42 42 42 42 43 43 42 44 44 43 44 43 42 42 42 43 42 43 42 44 43 43 43 43 42 0 0 0 0 0
    0 0 0 0 0 0 0 0 0 0 0 0 0 0 0 0 0 0 0 0 0 0 0 0 0 0 0 0 0 0 0 0 0 0 0 0 0 0 0 0 0 0 0 0 0 0 0 0 0 0 0 0 0 0 0 0 0 0 0 0 0 0 0 0 0 0 0 0 0 0 0 0 0 9 9 0 0 9 0 0 9 16 11 12 12 13 13 13 13 10 0 0 0 0 0 0 0 0 0 0 0 0 0 0 0 0 0 0 -193 -193 0 0 0 0 0 0 0 0 0 0 0 9 10 0 0 9 9 10 11 0 0 0 9 9 10 10 9 0 0 0 0 0 0 0 0 0 0 -177 -177 -177 -193 65 65 64 62 -193 -209 0 10 10 0 0 0 0 0 0 0 0 0 0 0 -193 11 0 0 0 0 10 9 10 10 9 11 12 10 11 11 11 11 12 11 10 11 10 11 0 11 9 9 10 17 13 14 13 14 12 16 14 13 10 10 10 10 10 15 11 12 14 13 13 13 13 13 11 14 14 15 15 16 16 16 16 16 17 18 17 17 18 18 18 19 18 18 19 18 19 19 19 18 17 19 19 17 21 20 20 20 22 23 23 23 23 22 23 23 23 23 22 24 25 26 26 28 28 28 28 30 33 33 36 37 36 38 39 40 40 40 41 40 41 42 42 41 42 42 42 43 44 44 44 44 44 43 43 43 43 42 44 43 44 43 44 44 43 42 0 0 0 0 0
    0 0 0 0 0 0 0 0 0 0 0 0 0 0 0 0 0 0 0 0 0 0 0 0 0 0 0 0 0 0 0 0 0 0 0 0 0 0 0 0 0 0 0 0 0 0 0 0 0 0 0 0 0 0 0 0 0 0 0 0 0 0 0 0 0 0 0 0 0 0 0 0 0 0 0 0 0 0 0 0 9 13 11 11 11 11 12 12 12 9 0 0 0 0 0 0 0 0 0 0 0 0 0 0 0 0 0 0 -193 -193 0 0 0 0 0 0 0 0 0 0 0 9 10 0 0 9 9 11 11 0 0 0 9 9 9 10 9 0 0 0 0 0 0 0 0 0 0 0 11 -177 -177 -193 64 63 61 -193 -193 0 9 9 0 0 0 0 0 0 0 0 0 0 0 0 14 0 0 -193 0 9 9 9 9 9 11 11 10 10 10 11 11 11 10 10 11 11 11 9 11 9 9 10 18 13 14 14 14 13 17 14 13 10 11 10 11 11 16 11 13 14 13 13 13 14 14 11 14 14 15 15 17 16 16 16 16 17 18 16 17 18 18 19 19 18 17 19 19 19 18 18 18 17 19 19 17 21 19 19 20 21 22 22 22 23 21 23 23 23 23 22 24 25 26 26 29 28 29 30 31 33 33 35 36 35 39 40 40 40 41 41 41 41 43 42 42 43 43 43 43 44 45 44 44 45 44 44 44 44 43 44 44 45 44 44 44 43 42 0 0 0 0 0
    0 0 0 0 0 0 0 0 0 0 0 0 0 0 0 0 0 0 0 0 0 0 0 0 0 0 0 0 0 0 0 0 0 0 0 0 0 0 0 0 0 0 0 0 0 0 0 0 0 0 0 0 0 0 0 0 0 0 0 0 0 0 0 0 0 0 0 0 0 0 9 0 0 0 0 0 0 0 0 0 9 12 10 10 10 11 10 11 11 0 0 0 0 0 0 0 0 0 0 0 0 0 0 0 0 0 0 0 -193 -193 0 0 0 0 0 0 0 0 0 0 0 9 10 0 0 9 9 11 11 0 0 0 9 9 9 10 9 0 0 0 0 0 0 0 0 0 0 0 -177 -177 0 -193 63 62 -193 -193 -193 0 0 0 0 0 0 0 0 0 0 0 0 0 0 0 -177 0 0 -193 0 9 0 -209 9 9 11 11 9 10 10 11 10 11 10 10 11 11 11 9 12 9 9 10 18 14 15 15 15 14 18 15 14 10 12 11 12 12 17 11 14 15 14 14 14 15 14 12 14 14 15 15 18 16 16 16 17 17 17 17 17 18 18 19 20 18 18 20 19 19 18 18 18 16 19 19 17 21 18 19 19 21 22 22 22 22 20 23 23 23 22 22 24 24 26 26 29 28 29 31 32 33 33 35 36 35 38 39 39 40 41 41 41 41 43 42 42 43 43 43 44 45 45 44 45 46 44 44 44 44 43 44 44 45 44 44 44 43 43 0 0 0 0 0
    0 0 0 0 0 0 0 0 0 0 0 0 0 0 0 0 0 0 0 0 0 0 0 0 0 0 0 0 0 0 0 0 0 0 0 0 0 0 0 0 0 0 0 0 0 0 0 0 0 0 0 0 0 0 0 0 0 0 0 0 0 0 0 0 0 0 0 0 0 0 0 0 0 8 0 0 0 0 9 0 9 10 10 10 10 10 10 9 10 0 0 0 0 0 0 0 0 0 0 0 0 0 0 0 0 0 0 0 -193 0 0 0 0 0 0 0 0 0 0 0 0 0 10 0 0 9 9 10 11 0 0 0 9 9 9 10 9 9 9 0 0 0 0 0 0 0 0 0 -177 -177 0 -193 63 62 -193 -193 -193 0 8 0 0 0 0 0 9 0 0 0 0 0 0 0 -177 0 0 -193 0 9 0 -209 9 0 10 10 9 9 9 10 10 11 10 10 12 12 12 9 12 10 10 11 19 14 15 15 15 14 19 15 15 11 12 12 12 14 19 12 16 17 16 16 16 16 15 13 15 15 15 16 16 16 15 16 16 16 16 16 17 18 18 18 19 17 17 20 18 18 17 18 17 16 19 19 17 21 18 18 18 20 21 21 21 21 20 23 23 23 22 22 23 23 24 26 28 28 30 32 33 34 35 37 37 37 39 40 40 40 41 41 40 41 42 42 42 43 43 43 44 45 45 44 44 46 44 44 44 44 44 45 44 45 44 45 44 43 42 0 0 0 0 0
    0 0 0 0 0 0 0 0 0 0 0 0 0 0 0 0 0 0 0 0 0 0 0 0 0 0 0 0 0 0 0 0 0 0 0 0 0 0 0 0 0 0 0 0 0 0 0 0 0 0 0 0 0 0 0 0 0 0 0 0 0 0 0 0 0 0 0 0 0 0 9 0 0 9 0 0 0 0 0 0 0 0 9 9 9 9 9 0 9 0 0 0 0 0 0 0 0 0 0 0 0 0 0 0 9 10 0 0 10 0 0 0 0 0 0 0 0 0 0 0 0 0 9 0 0 9 9 10 11 0 0 0 0 9 9 10 10 9 9 0 0 0 0 0 0 0 0 0 -177 -177 0 -193 62 61 -193 -193 -193 0 9 9 0 -193 -193 9 10 9 9 0 0 10 0 0 16 0 0 -193 0 9 0 -209 9 0 10 10 0 0 9 10 10 11 10 10 12 12 12 9 12 10 10 11 19 14 15 15 15 14 19 15 15 11 13 13 13 15 21 14 19 19 18 19 19 18 16 15 16 16 15 16 16 15 16 16 15 15 15 17 17 18 18 18 19 17 18 19 17 18 17 18 17 14 19 19 17 22 17 18 18 20 20 21 21 21 19 23 23 23 22 23 23 24 25 26 29 29 31 34 35 36 37 38 38 38 39 40 40 40 41 41 41 41 42 43 42 43 44 44 45 45 46 45 45 46 45 45 44 45 44 45 45 45 44 45 44 43 42 0 0 0 0 0
    0 0 0 0 0 0 0 0 0 0 0 0 0 0 0 0 0 0 0 0 0 0 0 0 0 0 0 0 0 0 0 0 0 0 0 0 0 0 0 0 0 0 0 0 0 0 0 0 0 0 0 0 0 0 0 0 0 0 0 0 0 0 0 0 0 0 0 0 0 0 0 0 0 0 0 0 0 0 0 0 0 0 0 0 0 0 0 0 0 0 0 0 0 0 0 0 0 0 0 0 0 0 9 0 10 12 9 8 11 0 0 0 0 0 0 0 0 0 0 0 0 0 9 0 0 9 9 10 10 0 0 0 0 9 9 11 11 10 9 9 9 9 0 0 0 0 0 0 0 0 0 -193 -193 -193 -209 -193 -193 0 9 9 -193 -193 10 10 10 10 10 9 9 12 10 10 15 0 0 -209 9 9 0 -209 9 0 10 10 0 0 9 10 9 10 10 10 11 12 12 9 12 10 10 11 19 14 14 15 15 14 19 16 15 12 14 14 14 17 21 16 20 19 19 19 18 18 16 15 16 16 15 16 16 16 16 16 15 15 16 17 16 18 17 18 19 17 17 18 17 18 17 17 17 13 19 20 19 22 17 18 19 20 20 20 20 20 19 23 22 22 21 23 23 24 25 27 30 29 33 36 36 38 39 39 39 39 40 41 41 41 41 41 41 41 42 43 43 43 44 44 45 45 46 46 46 46 46 46 45 46 45 45 45 45 44 45 44 44 42 0 0 0 0 0
    0 0 0 0 0 0 0 0 0 0 0 0 0 0 0 0 0 0 0 0 0 0 0 0 0 0 0 0 0 0 0 0 0 0 0 0 0 0 0 0 0 0 0 0 0 0 0 0 0 0 0 0 0 0 0 0 0 0 0 0 0 0 0 0 0 0 0 0 0 0 9 0 0 0 0 0 0 0 0 0 0 0 0 0 0 0 0 0 0 0 0 0 0 0 0 0 0 0 0 0 0 8 9 0 11 13 10 9 11 0 0 0 0 0 0 0 0 0 0 0 0 0 9 0 0 9 0 10 10 0 0 0 0 9 10 11 11 10 10 10 10 9 9 0 0 0 0 0 0 0 0 -193 -193 -193 -193 -193 -193 0 9 9 0 10 10 10 11 10 10 10 10 13 11 11 15 0 0 -193 9 9 0 -193 -193 0 10 10 0 0 9 10 9 10 9 9 11 11 11 9 12 10 10 11 19 14 14 15 15 14 19 15 15 12 14 14 14 18 20 16 20 19 20 19 18 18 16 16 16 16 15 16 16 16 16 15 15 16 16 17 17 17 17 18 20 18 17 18 17 18 17 18 17 13 20 21 20 22 18 19 19 20 20 20 20 20 20 22 22 21 20 22 22 23 24 27 29 30 34 36 37 39 39 39 39 40 40 41 41 41 40 41 40 41 41 42 42 42 43 44 44 45 46 46 46 47 47 47 45 46 45 46 46 45 45 45 44 43 42 0 0 0 0 0
    0 0 0 0 0 0 0 0 0 0 0 0 0 0 0 0 0 0 0 0 0 0 0 0 0 0 0 0 0 0 0 0 0 0 0 0 0 0 0 0 0 0 0 0 0 0 0 0 0 0 0 0 0 0 0 0 0 0 0 0 0 0 0 0 0 0 0 0 0 0 0 0 0 0 0 0 0 0 0 0 0 0 0 0 0 0 0 0 0 0 0 0 0 0 0 0 0 0 0 0 0 9 9 0 11 13 10 9 11 0 0 0 0 0 0 0 0 0 0 0 0 0 9 0 0 0 0 10 10 0 0 0 0 9 10 10 11 11 10 11 10 10 10 9 0 0 0 0 0 -177 0 -193 -193 60 -209 -209 -193 0 0 0 0 9 10 10 11 11 10 10 11 13 11 11 13 0 0 0 0 9 0 -209 -193 0 10 9 0 0 0 9 0 0 0 0 10 11 11 9 12 10 10 12 20 14 15 15 15 14 19 15 15 11 14 14 14 19 19 16 20 19 19 19 18 18 16 16 16 16 15 16 16 16 16 15 15 16 16 18 16 17 17 18 20 17 18 18 17 18 17 18 18 12 22 22 21 22 19 19 20 20 20 20 20 21 21 23 22 22 21 23 23 24 26 28 30 30 35 37 37 39 39 39 39 40 40 41 41 40 40 40 40 40 41 41 42 41 42 43 44 44 45 45 46 47 47 48 46 47 46 46 46 45 45 45 44 43 42 0 0 0 0 0
    0 0 0 0 0 0 0 0 0 0 0 0 0 0 0 0 0 0 0 0 0 0 0 0 0 0 0 0 0 0 0 0 0 0 0 0 0 0 0 0 0 0 0 0 0 0 0 0 0 0 0 0 0 0 0 0 0 0 0 0 0 0 0 0 0 0 0 0 0 0 0 0 0 0 0 0 0 0 0 0 0 0 0 0 0 0 0 0 0 0 0 0 0 0 0 0 0 0 0 0 0 9 9 0 11 13 10 9 11 0 0 0 0 0 0 0 0 0 0 0 0 0 9 0 0 0 0 9 10 0 0 0 0 0 10 10 11 11 11 11 11 10 10 10 9 0 0 10 9 9 -209 -209 -209 -193 -209 -209 -209 0 0 0 0 9 10 10 11 10 10 10 10 12 10 10 12 0 0 -193 0 9 0 -209 -193 0 10 9 0 0 0 9 0 0 0 0 10 10 10 0 11 10 10 12 20 15 15 15 15 14 18 15 15 11 14 14 14 20 19 16 20 19 19 19 19 18 16 16 15 16 15 16 16 15 15 15 15 16 16 17 17 18 18 19 20 18 18 17 18 17 16 17 18 12 22 22 22 21 20 20 21 21 20 21 21 21 22 24 23 23 23 24 24 25 27 29 30 31 35 37 38 39 39 39 40 41 41 42 41 41 41 40 41 41 41 41 42 41 42 43 43 44 45 45 47 48 49 50 -209 -193 -193 -193 -193 -193 45 45 44 43 42 0 0 0 0 0
    0 0 0 0 0 0 0 0 0 0 0 0 0 0 0 0 0 0 0 0 0 0 0 0 0 0 0 0 0 0 0 0 0 0 0 0 0 0 0 0 0 0 0 0 0 0 0 0 0 0 0 0 0 0 0 0 0 0 0 0 0 0 0 0 0 0 0 0 0 0 0 0 0 0 0 0 0 0 0 0 0 0 0 0 0 0 0 0 0 0 0 0 0 0 0 0 0 0 0 0 9 9 9 0 11 13 11 9 11 9 0 0 0 0 0 0 0 0 0 0 0 0 10 0 0 9 0 9 10 0 0 0 0 0 10 10 11 11 10 10 10 10 10 10 9 0 0 11 10 11 -193 -193 -193 -193 -209 -209 -209 0 0 -193 0 0 9 10 10 10 10 10 10 12 10 11 13 0 0 -193 0 9 0 -193 -193 0 10 10 0 0 0 9 0 0 0 0 9 9 9 0 11 10 10 12 20 14 14 15 15 14 18 15 15 11 14 14 14 20 18 15 19 18 18 18 18 18 15 16 15 16 15 16 15 15 15 15 15 16 16 17 17 19 19 19 21 18 18 18 18 17 16 18 18 13 22 22 22 22 20 20 21 20 20 21 21 21 22 24 23 23 23 25 25 25 27 29 30 30 35 37 38 39 40 40 41 41 42 42 42 42 41 41 42 42 42 42 43 42 43 44 44 -193 -193 45 46 47 49 -209 -177 -193 -193 127 129 130 135 138 -193 -193 -193 0 0 0 0 0
    0 0 0 0 0 0 0 0 0 0 0 0 0 0 0 0 0 0 0 0 0 0 0 0 0 0 0 0 0 0 0 0 0 0 0 0 0 0 0 0 0 0 0 0 0 0 0 0 0 0 0 0 0 0 0 0 0 0 0 0 0 0 0 0 0 0 0 0 0 0 0 0 0 0 0 0 0 0 0 0 0 0 0 0 0 0 0 0 0 0 0 0 0 0 0 0 0 0 0 0 9 9 9 0 12 14 11 9 12 9 0 0 0 0 0 0 0 0 0 0 0 0 10 0 0 9 9 10 10 0 0 0 0 0 10 10 11 10 9 9 9 0 0 0 0 0 0 11 -193 -193 -193 -193 -193 -193 -209 -209 -193 -209 0 -193 0 0 9 10 10 10 10 10 10 12 11 11 13 0 0 -193 9 9 0 -193 -193 9 10 10 0 0 8 10 0 0 0 0 9 9 9 0 10 10 10 12 20 14 14 14 14 14 18 15 15 11 14 14 14 20 18 16 18 18 18 18 18 18 15 16 15 17 15 16 15 15 15 15 15 16 16 17 18 18 19 19 21 18 18 18 18 16 17 17 18 13 22 23 22 21 21 20 21 20 20 21 21 21 22 23 23 23 23 24 25 26 27 29 28 30 35 37 38 39 40 40 40 41 41 41 41 41 40 40 41 41 41 43 43 43 43 44 44 -193 -193 45 46 -177 -193 -193 -177 -193 127 125 126 127 132 136 136 138 139 0 0 0 0 0
    0 0 0 0 0 0 0 0 0 0 0 0 0 0 0 0 0 0 0 0 0 0 0 0 0 0 0 0 0 0 0 0 0 0 0 0 0 0 0 0 0 0 0 0 0 0 0 0 0 0 0 0 0 0 0 0 0 0 0 0 0 0 0 0 0 0 0 0 0 0 0 0 0 0 0 0 0 0 0 0 0 0 0 0 0 0 0 0 0 0 0 0 0 0 0 0 0 0 0 0 9 9 9 9 12 13 11 9 11 9 0 0 0 0 0 0 0 0 0 0 0 9 10 9 0 9 9 10 11 0 0 0 0 9 10 10 10 9 9 0 0 0 0 0 0 0 0 12 12 14 12 -193 -193 -193 -193 -209 -209 -209 0 -193 0 9 9 10 10 10 10 9 10 11 10 11 12 0 0 -193 9 9 0 -193 -193 9 11 11 9 9 9 10 0 0 0 0 9 9 9 0 11 10 10 12 20 14 14 14 14 13 17 14 14 10 13 13 13 20 17 15 17 17 18 18 18 17 15 16 15 17 15 16 15 15 15 15 15 16 15 17 18 18 18 18 20 18 18 17 18 15 17 17 18 13 22 22 22 21 21 21 21 21 21 21 21 21 22 23 22 22 23 24 25 26 27 29 28 29 34 36 38 39 40 40 41 41 40 41 41 40 40 40 41 41 42 43 44 43 43 45 44 -193 -193 45 46 -193 -209 -177 -177 -193 127 125 127 126 131 135 136 137 139 0 0 0 0 0
    0 0 0 0 0 0 0 0 0 0 0 0 0 0 0 0 0 0 0 0 0 0 0 0 0 0 0 0 0 0 0 0 0 0 0 0 0 0 0 0 0 0 0 0 0 0 0 0 0 0 0 0 0 0 0 0 0 0 0 0 0 0 0 0 0 0 0 0 0 9 0 0 0 0 0 0 0 0 0 0 0 0 0 0 0 0 0 0 0 0 0 0 0 0 0 0 0 0 0 0 9 0 9 9 12 13 10 9 11 0 0 0 0 0 0 0 0 0 0 0 0 9 11 9 9 10 10 11 11 0 0 0 9 10 10 9 10 9 9 0 0 0 0 0 0 0 0 11 11 14 12 -193 -193 -193 -193 -209 -209 0 0 -193 0 0 0 9 9 9 9 9 9 10 10 10 11 0 0 -193 10 10 9 -193 10 9 11 11 9 9 9 10 0 0 0 0 9 9 9 0 11 10 10 11 19 14 13 13 13 12 16 13 13 10 11 12 12 19 16 15 16 16 17 17 16 16 14 15 15 17 16 15 15 15 16 15 16 16 16 17 18 18 18 18 21 18 18 17 18 16 17 17 18 13 21 21 21 20 21 21 22 21 21 21 21 21 22 23 22 22 23 24 25 26 27 28 27 28 32 35 36 37 38 38 -193 40 40 41 40 40 40 41 42 41 42 43 44 44 44 45 45 -193 -193 -209 -193 -177 129 128 128 131 129 128 129 128 131 134 135 136 138 0 0 0 0 0
    0 0 0 0 0 0 0 0 0 0 0 0 0 0 0 0 0 0 0 0 0 0 0 0 0 0 0 0 0 0 0 0 0 0 0 0 0 0 0 0 0 0 0 0 0 0 0 0 0 0 0 0 0 0 0 0 0 0 0 0 0 0 0 0 0 0 0 0 0 9 0 0 0 0 0 0 0 0 0 0 0 0 0 0 0 0 0 0 0 0 0 0 0 0 0 0 0 0 0 0 0 0 9 0 12 12 9 0 10 0 0 0 0 0 0 0 0 0 0 0 0 9 11 9 9 10 10 11 11 0 0 0 9 11 10 9 9 9 0 0 0 0 0 0 0 0 0 11 12 14 12 -193 -193 -209 -209 -209 -209 0 0 0 0 0 0 9 9 9 9 0 9 9 9 10 11 0 0 11 10 10 9 -193 -193 10 11 12 9 10 10 10 9 9 9 0 10 9 9 9 11 10 10 11 19 14 13 13 12 11 15 12 12 9 10 11 11 18 14 14 14 14 16 15 15 15 14 15 15 16 15 14 16 16 16 15 16 16 16 17 18 17 18 18 21 18 18 18 18 16 17 17 18 14 21 21 20 20 21 21 22 21 21 21 21 21 23 23 23 22 23 24 24 26 26 27 26 27 31 34 34 34 35 37 -193 38 39 39 39 40 40 41 41 42 42 43 44 44 44 45 -193 -193 -209 -177 -177 130 127 127 128 131 130 130 131 131 131 134 135 136 138 0 0 0 0 0
    0 0 0 0 0 0 0 0 0 0 0 0 0 0 0 0 0 0 0 0 0 0 0 0 0 0 0 0 0 0 0 0 0 0 0 0 0 0 0 0 0 0 0 0 0 0 0 0 0 0 0 0 0 0 0 0 0 0 0 0 0 0 0 0 0 0 0 0 0 9 9 9 0 0 0 0 0 0 0 0 0 0 0 0 0 0 0 0 0 0 0 0 0 0 0 0 0 0 0 0 0 0 0 0 10 10 0 0 9 0 0 0 0 0 0 0 0 0 0 0 9 9 11 9 9 10 10 11 11 0 0 0 10 11 11 9 9 0 0 0 0 0 0 0 0 0 0 11 12 14 -193 -193 -193 -209 -209 -193 -193 0 0 -193 0 9 9 9 9 9 9 9 0 9 9 9 10 0 0 -193 10 10 10 -193 -193 10 12 12 9 10 10 10 9 9 9 0 10 9 9 0 11 10 10 11 18 15 13 13 12 11 14 12 12 9 9 10 10 16 13 13 13 14 14 14 14 14 14 14 14 16 15 14 16 16 15 15 16 16 16 17 19 17 18 18 21 17 17 18 18 16 17 17 18 14 20 20 19 20 21 21 21 21 21 21 21 22 23 24 23 23 24 25 26 26 27 27 27 28 30 31 31 30 31 34 -193 35 37 37 37 39 40 40 41 42 43 44 44 44 44 44 -193 -177 -209 -209 -177 132 126 126 129 131 131 131 132 132 131 135 135 135 137 0 0 0 0 0
    0 0 0 0 0 0 0 0 0 0 0 0 0 0 0 0 0 0 0 0 0 0 0 0 0 0 0 0 0 0 0 0 0 0 0 0 0 0 0 0 0 0 0 0 0 0 0 0 0 0 0 0 0 0 0 0 0 0 0 0 0 0 0 0 0 0 0 0 0 9 9 9 0 0 0 0 0 0 0 0 0 0 0 0 0 0 0 0 0 0 0 0 0 0 0 0 0 0 9 0 0 0 0 0 10 9 0 0 0 0 0 0 0 0 0 0 0 0 0 0 9 9 11 10 9 10 10 11 11 0 0 0 10 11 11 10 9 0 0 0 0 0 0 0 0 0 0 11 12 14 -193 -193 -193 -209 -209 -193 -193 0 0 -193 9 9 9 9 9 9 9 0 0 0 0 9 9 0 0 -193 10 10 -193 -193 -193 10 11 12 9 10 10 10 9 9 0 0 9 9 9 0 10 9 10 10 18 14 13 12 13 11 14 12 12 9 9 10 11 14 13 13 13 14 14 13 14 14 14 15 14 16 15 15 16 15 15 16 16 16 15 17 18 17 18 18 21 17 18 18 18 17 17 18 18 14 20 20 19 20 21 21 22 21 21 21 21 22 23 23 23 23 25 25 26 27 27 27 27 28 30 31 30 30 31 35 -193 35 36 37 37 39 39 40 40 41 42 44 44 45 44 45 -193 -209 -209 -193 -193 -193 129 129 131 132 132 132 132 132 129 135 134 134 133 0 0 0 0 0
    0 0 0 0 0 0 0 0 0 0 0 0 0 0 0 0 0 0 0 0 0 0 0 0 0 0 0 0 0 0 0 0 0 0 0 0 0 0 0 0 0 0 0 0 0 0 0 0 0 0 0 0 0 0 0 0 0 0 0 0 0 0 0 0 0 0 0 0 0 10 10 10 9 9 9 0 0 0 0 0 0 0 0 0 0 0 0 0 0 0 0 0 0 0 0 0 0 0 9 0 0 0 9 0 9 9 0 0 0 0 0 0 0 0 0 0 0 0 0 0 9 9 11 10 9 10 10 11 11 0 0 0 9 11 10 9 9 0 0 0 0 0 0 0 0 0 9 10 11 14 -193 -193 -193 -209 -209 0 -193 9 9 9 9 9 9 9 9 9 9 0 0 0 0 8 9 0 0 -209 10 10 -193 -193 -193 10 11 12 9 10 10 10 9 9 9 0 9 9 9 0 10 9 9 10 16 14 13 12 12 11 14 12 12 9 9 10 10 13 12 14 13 14 14 14 14 15 14 15 14 17 15 15 16 16 16 16 16 16 15 17 18 17 17 17 20 17 18 18 18 17 18 18 18 15 20 19 19 20 21 21 21 21 21 21 21 21 22 22 23 23 23 24 25 26 27 27 27 27 30 32 30 31 32 36 -193 35 36 37 37 39 39 39 40 42 43 45 45 45 45 -193 -193 -209 -209 -209 -193 -193 132 132 133 133 133 133 132 131 126 134 134 133 128 0 0 0 0 0
    0 0 0 0 0 0 0 0 0 0 0 0 0 0 0 0 0 0 0 0 0 0 0 0 0 0 0 0 0 0 0 0 0 0 0 0 0 0 0 0 0 0 0 0 0 0 0 0 0 0 0 0 0 0 0 0 0 0 0 0 0 0 0 0 0 0 0 0 0 10 10 10 9 9 9 0 0 0 0 0 0 0 0 0 0 0 0 0 0 0 0 0 0 0 0 0 0 0 9 9 9 9 9 0 9 9 0 0 0 0 0 0 0 0 0 0 0 0 0 0 9 9 11 10 9 10 11 11 11 0 0 0 9 10 10 9 9 0 0 0 0 0 0 0 0 0 0 9 10 13 14 -193 12 -193 -193 10 10 10 10 10 9 9 9 9 9 0 9 0 0 0 0 9 10 0 0 -209 10 10 -193 -193 -193 10 11 11 9 10 11 11 9 10 10 9 10 9 9 0 10 9 9 9 15 13 13 12 12 11 14 12 12 9 9 9 10 10 10 14 12 14 14 14 14 15 15 15 14 18 15 15 16 16 16 16 16 16 14 17 18 16 16 16 20 16 17 18 18 16 18 18 18 15 19 19 19 19 20 20 20 21 21 21 20 21 22 22 23 23 22 23 25 25 27 27 27 27 30 32 31 31 33 36 35 35 36 37 37 39 38 39 39 41 42 44 44 45 45 -193 -209 -209 -209 -209 -193 -193 133 132 133 133 132 132 132 131 125 134 133 131 126 0 0 0 0 0
    0 0 0 0 0 0 0 0 0 0 0 0 0 0 0 0 0 0 0 0 0 0 0 0 0 0 0 0 0 0 0 0 0 0 0 0 0 0 0 0 0 0 0 0 0 0 0 0 0 0 0 0 0 0 0 0 0 0 0 0 0 0 0 0 0 0 0 0 0 10 10 10 9 9 9 0 0 0 0 0 0 0 0 0 0 0 0 0 0 0 0 0 0 0 0 0 0 0 10 9 9 9 9 0 9 9 0 0 0 0 0 0 0 0 0 0 0 0 0 0 10 9 11 9 9 10 10 11 11 0 0 0 9 10 9 9 0 0 0 0 0 0 0 0 0 0 9 0 9 11 -193 -193 14 -193 11 12 12 12 12 11 10 10 9 9 9 0 9 0 0 0 0 9 9 -193 0 -209 9 10 -193 -193 -193 9 10 11 9 10 11 11 10 11 11 10 10 10 10 0 10 9 9 9 14 13 12 12 12 11 13 11 11 9 9 9 9 9 10 16 13 16 15 15 15 15 15 15 14 18 15 15 17 16 16 16 16 16 14 18 18 15 15 16 19 15 17 17 17 16 18 18 18 15 19 18 18 18 20 19 20 21 21 21 21 21 22 22 23 23 22 24 25 25 28 29 28 29 32 33 33 33 34 36 35 35 36 36 36 38 37 38 37 40 41 43 43 44 44 -209 -209 -209 -177 -209 -209 -193 -193 131 131 132 131 132 132 132 124 134 133 130 -209 0 0 0 0 0
    0 0 0 0 0 0 0 0 0 0 0 0 0 0 0 0 0 0 0 0 0 0 0 0 0 0 0 0 0 0 0 0 0 0 0 0 0 0 0 0 0 0 0 0 0 0 0 0 0 0 0 0 0 0 0 0 0 0 0 0 0 0 0 0 0 0 0 0 0 10 10 10 9 9 9 0 0 0 0 0 0 0 0 0 0 0 0 0 0 0 0 0 0 0 9 0 0 0 10 9 9 9 10 0 9 0 0 0 0 0 0 0 0 0 0 0 0 0 0 0 10 9 11 9 9 10 10 11 11 0 0 0 9 10 9 9 0 0 0 0 0 0 0 0 0 0 0 0 0 0 -209 -209 13 -193 12 13 13 13 13 12 10 10 10 10 9 0 9 0 0 0 0 9 9 -193 0 -209 9 9 8 9 -193 9 10 11 9 10 11 11 10 11 11 10 10 10 10 0 9 9 9 0 14 13 12 11 12 11 13 11 11 9 0 0 0 8 9 16 13 16 15 15 15 15 15 15 14 17 15 15 16 16 16 16 16 16 14 18 18 15 16 16 19 16 17 17 17 16 18 17 18 15 18 18 18 18 20 19 20 20 21 21 21 22 22 22 23 23 22 23 24 25 28 29 30 30 33 34 34 35 35 36 35 35 36 37 37 38 38 38 37 40 41 42 40 42 42 -209 -209 -209 -177 -177 -209 -193 -193 130 130 131 131 131 132 131 124 133 133 -209 -209 0 0 0 0 0
    0 0 0 0 0 0 0 0 0 0 0 0 0 0 0 0 0 0 0 0 0 0 0 0 0 0 0 0 0 0 0 0 0 0 0 0 0 0 0 0 0 0 0 0 0 0 0 0 0 0 0 0 0 0 0 0 0 0 0 0 0 0 0 0 0 0 0 0 0 11 11 10 10 10 10 0 0 0 0 0 0 0 0 0 0 0 0 0 0 0 0 0 0 0 10 9 9 9 10 9 9 9 9 0 0 0 0 0 0 0 0 0 0 0 0 0 0 0 0 0 10 10 11 9 0 10 9 10 10 0 0 0 9 10 9 9 0 0 0 0 0 0 0 0 0 0 0 0 0 0 -209 -209 -193 -193 11 12 13 13 14 13 11 11 10 10 9 9 9 0 0 0 0 9 9 0 0 -193 9 9 0 -193 -193 9 10 10 9 9 11 11 10 11 11 10 10 10 10 0 9 0 0 0 13 12 12 11 12 12 13 11 11 9 0 9 9 9 9 17 14 16 15 15 15 15 15 15 13 18 15 15 16 16 16 16 16 16 13 18 18 15 16 16 19 16 17 17 17 17 18 18 19 15 19 18 18 18 20 19 19 19 21 21 21 21 22 22 24 23 22 23 24 25 28 29 30 31 33 34 34 36 37 38 36 37 37 38 39 40 39 38 37 41 41 41 40 42 42 -209 -209 -193 -177 -177 -193 -177 -193 -193 129 131 130 131 132 131 124 133 132 -193 46 0 0 0 0 0
    0 0 0 0 0 0 0 0 0 0 0 0 0 0 0 0 0 0 0 0 0 0 0 0 0 0 0 0 0 0 0 0 0 0 0 0 0 0 0 0 0 0 0 0 0 0 0 0 0 0 0 0 0 0 0 0 0 0 0 0 0 0 0 0 0 0 0 0 0 11 11 10 10 10 10 0 0 0 0 0 0 0 0 0 0 0 0 0 0 0 0 0 0 0 10 9 9 9 10 9 9 9 10 0 0 0 0 0 0 0 0 0 0 0 0 0 0 0 0 0 11 10 11 9 0 9 9 10 10 0 0 0 0 0 0 0 0 0 0 0 0 0 0 9 0 9 0 0 0 0 -209 -193 13 13 12 13 13 14 14 14 11 11 10 10 10 9 9 9 0 0 0 9 -193 0 0 -193 0 9 0 -193 -193 0 10 10 8 9 10 11 10 11 11 10 10 10 10 0 0 0 0 0 13 12 11 11 12 12 14 11 11 10 10 10 10 10 10 17 15 17 15 15 15 16 16 16 13 18 15 15 16 16 15 16 16 17 13 18 17 16 16 17 18 15 17 17 16 17 18 18 19 16 19 19 18 20 22 20 20 20 22 22 22 23 22 22 24 24 23 23 23 24 28 29 31 32 34 34 35 37 37 38 36 36 37 37 38 39 38 37 35 40 40 41 40 42 -209 -209 -193 -193 -177 -177 -209 -177 -193 -193 127 130 129 130 131 131 123 133 -193 43 44 0 0 0 0 0
    0 0 0 0 0 0 0 0 0 0 0 0 0 0 0 0 0 0 0 0 0 0 0 0 0 0 0 0 0 0 0 0 0 0 0 0 0 0 0 0 0 0 0 0 0 0 0 0 0 0 0 0 0 0 0 0 0 0 0 0 0 0 0 0 0 0 0 0 0 11 11 11 10 10 10 0 0 0 0 0 0 0 0 0 0 0 0 0 0 0 0 0 0 0 10 9 9 9 10 9 9 9 10 0 0 0 0 0 0 0 0 0 0 0 0 0 0 0 0 0 11 10 11 9 0 9 9 10 10 0 0 0 0 0 0 0 0 0 0 0 0 0 0 9 0 9 0 0 0 0 -209 11 15 14 13 14 14 14 15 14 11 11 10 10 9 9 9 9 0 9 9 9 10 0 0 -193 9 9 0 -193 -193 0 10 10 0 9 10 11 10 10 10 10 10 10 9 0 0 0 0 0 13 12 11 11 12 13 14 11 11 10 12 11 11 11 11 17 15 16 14 15 15 16 16 16 13 18 15 16 15 15 15 16 16 17 12 18 18 17 17 17 17 16 17 17 17 18 19 18 19 17 19 19 19 20 22 20 21 21 22 23 22 23 22 22 24 24 23 23 23 24 28 29 31 32 34 33 35 36 37 38 36 37 37 37 39 39 38 37 36 39 39 41 40 43 -209 -209 -177 -209 -177 -177 -209 -177 -177 -193 126 128 127 129 131 131 123 132 -193 43 44 0 0 0 0 0
    0 0 0 0 0 0 0 0 0 0 0 0 0 0 0 0 0 0 0 0 0 0 0 0 0 0 0 0 0 0 0 0 0 0 0 0 0 0 0 0 0 0 0 0 0 0 0 0 0 0 0 0 0 0 0 0 0 0 0 0 0 0 0 0 0 0 0 0 0 11 11 11 11 10 10 0 9 9 0 0 0 0 0 0 0 0 0 0 0 0 0 0 0 0 9 0 0 0 9 0 9 9 10 0 0 0 0 0 0 0 0 0 0 0 0 0 0 0 0 0 11 10 11 9 0 9 9 10 10 0 0 0 0 0 0 0 0 0 0 0 0 0 0 9 0 0 0 0 0 0 9 10 15 15 14 15 14 14 16 13 11 11 10 9 9 0 9 9 0 9 9 10 10 0 0 10 9 9 0 -193 -193 9 10 11 9 9 10 11 10 11 11 10 10 10 9 0 0 0 0 0 13 11 11 11 12 12 13 11 11 11 13 12 12 12 12 17 15 16 14 15 16 16 17 16 13 19 15 16 15 15 16 16 17 17 12 18 18 17 17 17 17 16 18 17 18 18 19 19 20 17 20 19 20 21 22 20 21 21 22 22 22 22 22 21 24 23 22 22 22 23 27 29 31 33 35 34 36 37 38 38 37 38 37 37 39 38 38 37 36 38 38 40 39 42 -209 -209 -193 -209 -177 -177 -177 -177 -177 -193 -193 127 125 128 131 131 122 -209 41 43 44 0 0 0 0 0
    0 0 0 0 0 0 0 0 0 0 0 0 0 0 0 0 0 0 0 0 0 0 0 0 0 0 0 0 0 0 0 0 0 0 0 0 0 0 0 0 0 0 0 0 0 0 0 0 0 0 0 0 0 0 0 0 0 0 0 0 0 0 0 0 0 0 0 0 0 11 11 11 11 10 10 0 9 9 0 0 0 0 0 0 0 0 0 0 0 0 0 0 0 0 9 0 0 0 9 0 0 0 9 0 0 0 0 0 9 0 0 0 0 0 0 0 0 0 0 0 10 10 11 9 0 9 9 10 10 0 0 0 0 0 0 0 0 0 0 0 0 0 0 9 0 9 10 10 11 10 12 12 14 14 13 14 14 13 15 13 11 10 9 9 0 0 0 0 0 0 0 9 9 0 0 11 9 10 0 -193 -193 9 10 11 9 11 11 12 11 12 12 12 11 11 10 9 9 0 0 0 13 11 11 11 11 12 14 11 11 11 13 12 12 12 12 17 15 16 14 15 16 17 18 16 13 19 15 16 15 16 16 15 17 17 13 18 18 18 17 17 17 16 17 17 17 17 18 18 19 17 19 19 20 21 22 20 20 21 22 22 22 22 22 22 24 24 22 22 21 23 28 29 31 33 34 34 35 36 37 38 37 38 37 38 39 39 39 37 37 38 38 40 39 42 -209 -209 -209 -193 -177 -177 -177 -193 -193 -193 -193 126 125 127 131 131 -193 38 41 42 44 0 0 0 0 0
    0 0 0 0 0 0 0 0 0 0 0 0 0 0 0 0 0 0 0 0 0 0 0 0 0 0 0 0 0 0 0 0 0 0 0 0 0 0 0 0 0 0 0 0 0 0 0 0 0 0 0 0 0 0 0 0 0 0 0 0 0 0 0 0 0 0 0 0 0 11 11 11 11 10 10 0 9 9 0 0 0 0 0 0 0 0 0 0 0 0 0 0 0 0 10 0 0 0 0 0 0 0 0 0 0 0 0 0 0 0 0 0 0 0 0 0 0 0 0 0 10 9 11 9 0 9 0 9 9 0 0 0 0 0 0 0 0 0 0 0 0 0 0 9 0 9 12 12 13 12 13 12 14 14 13 13 13 12 14 12 11 9 9 0 0 0 0 0 0 0 0 9 0 0 0 11 10 10 9 10 9 10 11 12 10 11 11 12 11 13 13 12 12 12 11 10 10 9 9 0 15 12 11 11 12 13 14 12 12 12 13 13 12 12 12 17 15 16 14 15 16 17 18 15 12 19 15 15 15 15 16 15 17 17 13 18 18 17 18 18 16 17 17 17 17 17 18 18 19 18 20 21 21 22 22 20 21 21 22 22 22 22 22 22 24 24 23 23 22 23 29 30 32 33 34 33 35 35 37 37 37 37 37 38 38 39 39 38 37 38 38 39 39 43 -209 -177 -209 -177 -177 -177 -177 -193 -193 -177 -193 125 124 127 131 130 122 38 40 42 44 0 0 0 0 0
    0 0 0 0 0 0 0 0 0 0 0 0 0 0 0 0 0 0 0 0 0 0 0 0 0 0 0 0 0 0 0 0 0 0 0 0 0 0 0 0 0 0 0 0 0 0 0 0 0 0 0 0 0 0 0 0 0 0 0 0 0 0 0 0 0 0 0 0 0 12 11 11 11 11 10 0 9 0 0 0 0 0 0 0 0 0 0 0 0 0 0 0 0 0 9 0 0 0 0 0 0 0 0 0 9 9 0 0 0 0 0 0 0 0 0 0 0 0 0 0 9 9 10 0 0 9 0 9 0 0 0 0 0 0 0 0 0 0 0 0 0 0 0 0 0 9 12 13 14 12 13 12 13 13 12 12 12 11 13 11 11 0 0 0 0 0 0 0 0 0 0 0 0 0 0 11 10 11 9 11 10 10 11 13 10 11 12 12 11 13 13 12 12 12 12 10 11 10 9 -177 18 12 12 11 12 13 15 12 12 12 13 13 12 12 12 18 15 15 13 14 16 17 17 15 12 19 15 15 15 15 15 15 17 17 13 18 18 17 18 19 16 17 17 17 16 17 17 18 18 18 21 22 23 23 23 21 21 22 22 22 22 22 21 22 23 23 23 23 22 23 28 30 33 34 34 33 34 35 37 37 37 37 36 38 38 38 38 37 37 37 38 39 39 43 -209 -177 -209 -177 -177 -177 -177 -209 -209 -177 -209 125 124 126 130 129 122 37 40 41 43 0 0 0 0 0
    0 0 0 0 0 0 0 0 0 0 0 0 0 0 0 0 0 0 0 0 0 0 0 0 0 0 0 0 0 0 0 0 0 0 0 0 0 0 0 0 0 0 0 0 0 0 0 0 0 0 0 0 0 0 0 0 0 0 0 0 0 0 0 0 0 0 0 0 0 12 11 11 10 11 11 0 9 0 0 0 0 0 0 0 0 0 0 0 0 0 0 0 0 0 9 0 0 0 0 0 0 0 0 0 9 9 0 0 0 0 0 0 0 0 0 0 0 0 0 0 9 9 10 0 0 9 0 9 0 0 0 0 0 0 0 0 0 0 0 0 0 0 0 0 0 9 13 13 14 12 13 12 12 12 11 11 11 9 11 9 10 0 0 0 0 0 0 0 0 0 0 0 0 0 0 12 10 11 10 11 11 11 12 13 10 11 12 12 11 13 12 12 12 12 12 11 11 10 9 -177 19 12 12 12 12 13 15 13 13 12 14 13 13 13 13 18 15 15 14 14 16 16 18 15 12 19 15 16 16 15 16 15 17 17 13 18 18 17 19 20 17 17 17 17 17 17 17 18 17 20 22 23 24 24 23 22 21 22 22 22 22 22 21 22 23 23 22 22 21 22 25 27 30 31 32 31 31 34 36 38 37 37 36 38 38 39 38 37 37 37 37 39 39 43 44 -193 -209 -193 -177 -177 -177 -177 -209 -177 -193 124 123 125 129 129 122 -193 39 41 43 0 0 0 0 0
    0 0 0 0 0 0 0 0 0 0 0 0 0 0 0 0 0 0 0 0 0 0 0 0 0 0 0 0 0 0 0 0 0 0 0 0 0 0 0 0 0 0 0 0 0 0 0 0 0 0 0 0 0 0 0 0 0 0 0 0 0 0 0 0 0 0 0 0 0 12 11 10 10 11 11 0 9 9 0 0 0 0 0 0 0 0 0 0 0 0 0 0 0 0 8 0 0 0 0 0 0 0 0 0 9 9 0 0 0 0 0 0 0 0 0 0 0 0 0 0 9 9 10 9 0 0 0 0 0 0 0 0 0 0 0 0 0 0 0 0 0 0 0 9 0 10 14 13 14 13 12 12 12 11 11 10 10 0 10 0 9 0 0 0 0 0 0 0 0 0 0 0 0 0 0 11 10 11 10 11 11 11 12 14 10 12 12 12 11 13 12 12 12 12 12 11 11 10 0 0 -177 12 12 12 12 13 16 13 13 13 15 13 13 13 13 18 15 15 14 15 16 17 19 15 12 19 15 16 16 16 16 15 17 17 13 18 17 17 19 20 17 18 18 18 18 18 18 18 16 20 22 23 24 24 23 22 22 22 23 23 23 22 21 23 23 23 23 22 22 22 23 25 26 27 30 29 29 32 35 37 36 36 35 37 37 38 38 37 36 37 37 39 39 43 44 -193 -209 -209 -209 -177 -177 -177 -193 -209 -209 124 123 125 129 129 122 -193 38 42 43 0 0 0 0 0
    0 0 0 0 0 0 0 0 0 0 0 0 0 0 0 0 0 0 0 0 0 0 0 0 0 0 0 0 0 0 0 0 0 0 0 0 0 0 0 0 0 0 0 0 0 0 0 0 0 0 0 0 0 0 0 0 0 0 0 0 0 0 0 0 0 0 0 0 0 12 10 10 10 10 10 0 0 0 0 0 0 0 0 0 0 0 0 0 0 0 0 0 0 0 0 0 0 0 0 0 0 0 0 0 9 10 9 9 0 0 0 0 0 0 0 0 0 0 0 0 9 9 10 9 0 0 0 0 0 0 0 0 0 0 0 0 0 0 0 0 0 0 0 10 0 11 15 14 15 13 13 12 12 11 10 9 10 0 0 0 9 0 0 0 0 0 0 0 0 0 0 0 0 0 0 12 11 12 11 12 11 12 12 13 10 12 12 12 11 13 13 12 12 12 12 11 12 10 9 0 18 11 12 12 12 13 16 13 13 13 15 14 13 13 13 18 15 15 14 15 16 17 19 15 12 19 16 16 16 16 16 15 17 17 13 18 18 18 20 21 18 18 18 18 18 16 17 17 15 19 20 22 23 24 22 22 22 23 23 23 23 23 21 24 23 23 22 22 22 22 22 24 24 26 29 29 29 30 33 36 35 35 34 36 36 37 37 36 36 36 36 38 38 42 42 -209 -209 -209 -209 -177 -177 -177 -177 -209 -209 -193 123 125 129 129 122 -209 37 42 43 0 0 0 0 0
    0 0 0 0 0 0 0 0 0 0 0 0 0 0 0 0 0 0 0 0 0 0 0 0 0 0 0 0 0 0 0 0 0 0 0 0 0 0 0 0 0 0 0 0 0 0 0 0 0 0 0 0 0 0 0 0 0 0 0 0 0 0 0 0 0 0 0 0 0 12 11 11 10 11 11 0 0 0 0 0 0 0 0 0 0 0 0 0 0 0 0 0 0 0 0 0 0 0 0 0 0 0 0 0 9 10 9 0 0 0 0 0 0 0 0 0 0 0 0 0 9 9 10 9 0 0 0 9 0 0 0 0 0 0 0 0 0 0 0 0 0 0 0 11 9 12 16 14 15 14 13 12 12 11 10 9 10 0 0 0 0 0 0 0 0 0 0 0 0 0 0 0 0 0 0 11 10 11 10 11 10 11 11 12 10 12 12 11 11 13 13 12 12 12 12 11 11 10 0 0 -177 11 12 12 12 13 16 14 14 12 15 14 13 13 13 18 15 15 14 14 16 17 19 15 12 19 15 16 16 16 16 15 17 17 14 19 18 19 19 20 18 18 18 18 17 16 16 16 12 15 19 22 23 24 20 20 20 22 22 22 22 22 20 24 23 23 23 23 24 24 23 25 25 26 28 28 29 30 33 36 35 35 34 36 36 37 37 36 35 36 36 37 38 40 -209 -209 -209 -209 -209 -177 -177 -177 -177 -193 -193 124 123 126 129 128 122 -193 36 41 43 0 0 0 0 0
    0 0 0 0 0 0 0 0 0 0 0 0 0 0 0 0 0 0 0 0 0 0 0 0 0 0 0 0 0 0 0 0 0 0 0 0 0 0 0 0 0 0 0 0 0 0 0 0 0 0 0 0 0 0 0 0 0 0 0 0 0 0 0 0 0 0 0 0 0 12 11 11 10 11 11 0 0 0 0 0 0 0 0 0 0 0 0 0 0 0 0 0 0 0 0 0 0 0 0 0 0 0 0 0 8 10 0 0 0 0 0 0 0 0 0 0 0 0 0 0 9 9 10 0 0 0 0 9 0 0 0 0 0 0 0 0 0 0 0 0 0 0 0 11 10 12 15 13 15 13 13 12 12 11 10 10 10 0 0 0 0 0 0 0 0 0 0 0 0 0 0 0 0 0 0 9 9 10 10 10 10 10 10 10 10 11 12 11 10 13 13 11 12 12 12 11 11 10 0 0 -177 12 12 12 12 13 16 14 14 12 15 14 13 13 13 18 16 15 14 15 16 17 18 15 11 19 15 16 16 16 16 15 17 17 14 19 18 20 18 20 19 17 17 17 16 16 14 15 12 12 18 20 23 24 20 20 20 22 21 21 21 21 19 23 23 23 22 23 24 25 25 26 27 26 27 28 29 29 32 35 34 34 34 36 35 37 37 36 36 36 36 37 37 40 -209 -209 -209 -209 -209 -209 -193 -177 -177 -193 124 124 124 125 129 128 121 29 36 40 42 0 0 0 0 0
    0 0 0 0 0 0 0 0 0 0 0 0 0 0 0 0 0 0 0 0 0 0 0 0 0 0 0 0 0 0 0 0 0 0 0 0 0 0 0 0 0 0 0 0 0 0 0 0 0 0 0 0 0 0 0 0 0 0 0 0 0 0 0 0 0 0 0 0 0 12 10 10 10 10 10 0 0 0 0 0 0 0 0 0 0 0 0 0 0 0 0 0 0 0 0 0 0 0 0 0 0 0 0 0 9 10 0 0 0 0 0 0 0 0 0 0 0 0 0 0 10 9 10 0 0 0 0 0 9 0 0 0 0 0 0 0 0 0 0 0 0 0 0 11 10 11 13 12 13 13 12 12 11 11 10 10 10 0 0 0 0 0 0 0 0 0 0 0 0 0 0 0 0 0 0 0 9 9 9 9 9 9 9 9 9 10 11 10 9 12 12 11 11 11 12 10 11 10 0 0 -177 12 12 12 12 13 17 14 14 13 15 13 13 13 13 18 15 15 14 15 15 17 18 15 11 18 15 16 16 16 16 15 17 18 14 19 18 20 18 20 19 17 17 17 16 15 14 15 12 11 17 20 23 24 20 20 20 22 21 21 22 21 19 23 23 23 23 23 24 25 25 27 27 27 27 27 28 29 31 32 33 33 34 37 36 37 37 36 36 36 36 37 37 -209 -209 -209 -209 -209 -209 -209 -177 -177 -177 -193 124 124 124 125 129 128 -193 30 35 39 41 0 0 0 0 0
    0 0 0 0 0 0 0 0 0 0 0 0 0 0 0 0 0 0 0 0 0 0 0 0 0 0 0 0 0 0 0 0 0 0 0 0 0 0 0 0 0 0 0 0 0 0 0 0 0 0 0 0 0 0 0 0 0 0 0 0 0 0 0 0 0 0 0 0 0 12 10 10 10 10 10 0 0 0 0 9 9 0 0 0 0 0 0 0 0 0 0 0 0 0 0 0 0 0 0 0 0 0 0 0 9 10 0 0 0 0 0 0 0 0 0 0 0 0 0 0 12 10 11 9 0 9 0 9 9 0 0 0 0 0 0 0 0 0 0 0 0 0 0 11 9 10 11 10 12 11 11 11 -193 -193 10 10 10 9 9 9 0 0 9 0 0 0 0 0 0 0 0 0 0 0 0 0 9 9 9 10 9 9 9 9 0 9 9 9 0 11 11 10 11 11 11 10 10 10 0 0 -177 12 12 12 12 12 16 14 14 12 14 12 12 12 12 17 14 14 14 14 15 16 17 15 11 18 15 16 16 16 16 15 17 17 14 18 18 20 19 21 20 18 18 18 17 16 14 16 13 11 17 19 22 24 20 20 20 21 21 21 21 21 20 23 23 23 23 24 24 25 25 26 27 27 27 28 29 29 31 30 31 30 32 35 34 35 36 35 35 36 37 36 38 -209 -177 -177 -209 -209 -209 -177 -177 -177 -177 -193 124 124 124 126 130 129 -193 -193 35 39 40 0 0 0 0 0
    0 0 0 0 0 0 0 0 0 0 0 0 0 0 0 0 0 0 0 0 0 0 0 0 0 0 0 0 0 0 0 0 0 0 0 0 0 0 0 0 0 0 0 0 0 0 0 0 0 0 0 0 0 0 0 0 0 0 0 0 0 0 0 0 0 0 0 0 0 12 10 10 9 10 10 0 0 0 0 0 0 0 0 0 0 0 0 0 0 0 0 0 0 0 0 0 0 0 0 0 0 0 0 0 9 10 0 0 9 9 0 0 9 0 0 9 0 9 0 0 14 11 12 10 9 9 9 9 10 0 0 0 0 0 0 0 0 0 0 0 0 9 9 11 9 9 -209 -193 10 10 10 11 -193 -193 10 10 10 9 9 10 -193 9 10 9 -193 -209 -209 -193 0 -193 0 -193 -193 -193 0 -193 10 10 9 10 9 9 9 9 0 0 0 9 0 11 12 10 11 11 10 10 10 9 0 0 15 11 12 12 12 12 15 13 13 12 14 11 11 11 11 15 14 13 13 13 15 16 17 15 11 18 16 16 16 17 16 16 18 18 15 18 19 21 19 20 20 18 18 17 17 15 14 16 14 11 17 19 22 24 19 19 19 21 21 21 21 21 19 23 23 23 23 24 25 25 25 26 27 26 27 28 29 29 29 29 29 29 30 33 32 33 34 33 35 36 37 36 38 -193 -193 -177 -209 -209 -177 -177 -177 -177 -177 -177 -193 124 124 127 131 130 -193 -193 35 39 40 0 0 0 0 0
    0 0 0 0 0 0 0 0 0 0 0 0 0 0 0 0 0 0 0 0 0 0 0 0 0 0 0 0 0 0 0 0 0 0 0 0 0 0 0 0 0 0 0 0 0 0 0 0 0 0 0 0 0 0 0 0 0 0 0 0 0 0 0 0 0 0 0 0 0 11 10 10 9 10 9 0 0 0 0 0 0 0 0 0 0 0 0 0 0 0 0 0 0 0 0 0 0 0 0 0 0 0 0 0 9 10 0 0 9 9 0 8 9 9 0 10 10 9 9 9 15 12 12 11 10 10 10 10 11 0 0 0 0 0 0 0 0 0 9 9 -193 9 9 11 -193 -209 -193 -193 -193 -209 -193 -193 129 -193 -193 11 11 9 -193 -193 -193 10 11 -193 -193 -209 -209 -193 -193 -193 -193 -193 -193 -193 -193 -193 10 10 10 10 9 9 9 9 0 0 0 0 0 11 12 11 11 11 10 10 9 9 0 0 13 11 12 12 11 11 14 12 12 12 13 11 11 11 11 15 13 13 12 12 14 15 16 15 11 17 16 16 16 17 17 16 18 18 15 19 20 21 18 19 20 18 18 17 17 15 14 16 15 11 16 17 21 23 19 18 18 21 20 21 21 20 19 22 23 23 23 25 25 25 25 25 27 26 27 27 28 28 28 28 28 29 29 30 30 30 33 32 35 36 37 35 37 38 -193 -193 -209 -209 -177 -177 -177 -177 -177 -177 -193 -193 124 127 131 130 -177 -193 36 39 40 0 0 0 0 0
    0 0 0 0 0 0 0 0 0 0 0 0 0 0 0 0 0 0 0 0 0 0 0 0 0 0 0 0 0 0 0 0 0 0 0 0 0 0 0 0 0 0 0 0 0 0 0 0 0 0 0 0 0 0 0 0 0 0 0 0 0 0 0 0 0 0 0 0 0 11 10 10 10 10 9 0 0 0 0 0 0 0 0 0 0 0 0 0 0 0 0 0 0 0 0 0 0 0 0 0 0 0 0 0 0 9 0 0 9 9 0 0 9 0 0 10 10 9 9 9 15 12 13 11 10 10 10 10 12 0 0 0 0 0 0 0 9 0 9 9 9 9 -193 10 -193 -209 -193 -193 -177 -193 131 132 127 130 -193 11 11 10 -193 -193 130 -193 -193 -193 -193 -193 -193 129 128 128 -193 -193 128 -193 -193 -193 10 10 10 11 -209 9 9 9 0 0 0 0 0 10 11 10 10 10 9 9 9 0 0 0 12 10 12 12 11 11 13 12 12 12 13 11 11 11 11 14 13 13 12 12 14 15 15 15 12 17 15 16 16 17 17 16 18 18 15 19 20 21 18 19 20 17 17 17 17 15 15 17 15 10 15 16 20 23 18 17 17 20 19 20 20 20 18 22 23 23 23 25 25 26 26 26 28 26 27 27 28 28 28 27 27 28 28 29 28 28 31 30 34 35 36 34 37 38 -193 -209 -209 -209 -177 -177 -177 -177 -177 -177 -193 -193 124 127 131 131 -193 -209 37 39 40 0 0 0 0 0
    0 0 0 0 0 0 0 0 0 0 0 0 0 0 0 0 0 0 0 0 0 0 0 0 0 0 0 0 0 0 0 0 0 0 0 0 0 0 0 0 0 0 0 0 0 0 0 0 0 0 0 0 0 0 0 0 0 0 0 0 0 0 0 0 0 0 0 0 0 11 11 10 10 10 9 0 0 0 0 0 0 0 0 0 0 0 0 0 0 0 0 0 0 0 0 0 0 0 0 0 0 0 0 0 0 0 0 0 9 0 0 0 0 0 0 9 9 9 0 9 15 12 12 11 10 10 10 10 12 0 0 0 0 0 0 0 9 0 9 9 9 10 -193 -193 133 -193 -177 -193 -177 -193 130 -177 127 129 -193 -193 -193 -193 -193 -193 130 -193 -193 -193 -193 254 -193 129 128 128 -193 -193 -193 496 499 -193 10 10 -193 10 -209 -209 -193 -193 0 0 0 0 0 9 10 10 10 10 0 9 0 0 0 0 12 10 11 12 11 11 12 11 11 11 13 11 10 11 11 14 12 13 12 12 13 15 15 15 12 16 15 15 16 17 16 16 17 18 15 20 21 20 18 19 20 17 17 17 16 15 15 17 16 10 15 17 21 23 18 17 17 20 18 19 20 20 18 22 23 23 24 26 26 27 27 27 29 27 27 27 28 27 27 26 25 26 27 27 28 28 32 31 35 35 36 35 37 39 -209 -209 -209 -209 -193 -193 -177 -177 -177 -193 -177 -177 -193 127 131 -193 -209 -209 37 39 40 0 0 0 0 0
    0 0 0 0 0 0 0 0 0 0 0 0 0 0 0 0 0 0 0 0 0 0 0 0 0 0 0 0 0 0 0 0 0 0 0 0 0 0 0 0 0 0 0 0 0 0 0 0 0 0 0 0 0 0 0 0 0 0 0 0 0 0 0 0 0 0 0 0 0 11 10 10 10 10 9 0 9 9 0 9 0 0 0 0 0 0 0 0 0 0 0 0 0 0 0 0 0 0 0 0 0 0 0 0 0 0 0 0 9 9 0 0 9 0 0 10 10 9 0 9 14 12 13 11 10 10 10 10 12 0 0 0 0 0 9 0 9 0 9 10 9 9 -193 -193 133 -193 -177 -193 -177 132 130 -177 -193 -193 -193 -193 -193 -193 -193 -193 -193 -193 -209 -193 -193 254 -193 129 128 128 -193 -193 -193 495 499 499 10 9 -209 -193 -209 -209 -193 -193 0 0 0 0 0 9 11 10 10 10 0 9 0 0 0 0 12 10 11 12 10 11 12 11 11 11 12 10 10 10 11 13 12 12 11 11 13 15 15 15 13 16 15 15 15 16 15 15 16 16 14 20 21 20 17 18 21 17 17 17 16 15 15 17 16 9 15 17 21 23 17 17 16 20 18 19 19 19 18 23 24 24 24 26 27 27 28 28 30 27 27 27 28 26 26 26 25 26 27 27 27 28 32 31 35 35 36 35 37 -193 -177 -209 -209 -209 -193 -193 -193 -177 -193 -177 -177 -177 -177 126 -193 -193 -209 -209 38 39 40 0 0 0 0 0
    0 0 0 0 0 0 0 0 0 0 0 0 0 0 0 0 0 0 0 0 0 0 0 0 0 0 0 0 0 0 0 0 0 0 0 0 0 0 0 0 0 0 0 0 0 0 0 0 0 0 0 0 0 0 0 0 0 0 0 0 0 0 0 0 0 0 0 0 0 11 10 10 10 10 9 0 9 9 0 9 0 0 0 0 0 0 0 0 0 0 0 0 0 0 0 0 0 0 0 0 0 0 0 0 0 0 0 0 9 9 9 0 9 0 0 10 10 10 9 10 14 12 12 11 10 10 9 10 11 0 0 0 0 0 9 0 9 0 10 10 10 10 -193 -193 132 -193 -177 -193 -177 132 130 -177 126 129 -193 -193 -193 -193 -193 -193 -193 -193 -193 -193 -193 -193 -193 130 128 129 -193 -193 -193 495 498 498 10 10 -193 11 -209 -209 -209 -193 0 0 0 0 0 9 11 10 10 10 0 0 0 0 0 0 11 10 11 12 10 10 11 11 11 11 12 10 9 10 10 13 11 12 11 11 13 15 16 15 13 16 15 14 15 14 14 13 14 14 13 20 21 19 18 18 21 17 17 17 16 15 15 17 17 9 14 15 20 22 17 16 16 20 18 19 19 19 17 22 23 23 23 26 27 27 28 28 29 26 27 27 27 26 26 25 24 26 27 27 26 28 31 31 35 35 36 34 37 -209 -177 -209 -209 -193 -193 -193 -193 -177 -177 -177 -177 -177 -177 126 -193 -193 -209 -209 39 39 40 0 0 0 0 0
    0 0 0 0 0 0 0 0 0 0 0 0 0 0 0 0 0 0 0 0 0 0 0 0 0 0 0 0 0 0 0 0 0 0 0 0 0 0 0 0 0 0 0 0 0 0 0 0 0 0 0 0 0 0 0 0 0 0 0 0 0 0 0 0 0 0 0 0 0 11 11 11 10 11 10 0 9 10 8 9 9 0 0 0 0 0 0 0 0 0 0 0 0 0 0 0 0 0 0 0 0 0 0 0 0 0 0 0 9 9 9 9 9 9 9 10 10 10 10 10 14 12 12 11 10 10 9 9 11 0 0 0 0 0 9 0 9 0 9 10 10 10 -193 -193 -193 -193 -193 -193 -193 -193 129 -177 126 129 -193 -193 -193 -193 -193 -193 -193 -177 12 11 11 -193 -193 130 129 130 -193 -193 -193 494 498 -193 10 10 -193 11 -209 -209 -193 -193 0 0 0 0 0 9 10 11 10 10 0 0 0 0 0 0 11 9 10 12 10 11 11 11 11 10 12 10 9 10 10 12 11 11 11 11 13 15 16 16 13 16 15 14 14 14 14 13 13 14 12 20 21 19 18 18 21 17 17 17 16 15 16 17 17 9 13 14 19 22 16 16 15 19 18 19 19 19 17 22 23 23 23 26 26 27 28 27 28 26 26 26 27 25 25 25 24 26 26 26 26 27 30 30 34 34 35 34 37 -209 -177 -209 -209 -193 -193 -193 -193 -193 -177 -177 -177 -177 -177 126 132 -193 -209 -209 -209 40 41 0 0 0 0 0
    0 0 0 0 0 0 0 0 0 0 0 0 0 0 0 0 0 0 0 0 0 0 0 0 0 0 0 0 0 0 0 0 0 0 0 0 0 0 0 0 0 0 0 0 0 0 0 0 0 0 0 0 0 0 0 0 0 0 0 0 0 0 0 0 0 0 0 0 0 13 12 12 12 12 11 9 10 10 0 9 9 0 0 0 0 0 0 0 0 0 0 0 0 0 0 0 0 0 0 0 0 0 0 0 0 0 0 0 0 9 9 9 9 9 9 11 10 10 9 10 14 11 12 11 10 9 9 9 11 0 0 0 0 0 9 0 9 0 9 9 9 -177 -177 -177 -193 0 -193 -193 -193 -193 -193 132 125 -193 -193 -193 -193 -193 -193 -193 -193 12 12 -193 -193 -193 -193 -193 -193 -193 -193 495 495 494 497 -193 10 10 -193 -193 -209 -193 9 -193 0 0 0 9 0 9 11 12 11 11 9 9 0 0 0 0 10 0 10 11 10 11 11 11 11 10 11 9 9 9 9 11 10 11 11 11 13 15 16 15 13 16 14 13 14 13 13 13 13 14 11 20 21 18 18 18 21 17 17 17 16 14 17 17 17 9 13 13 18 21 15 15 15 19 17 19 18 18 16 22 23 23 22 25 26 27 28 27 27 26 26 26 27 25 25 24 24 26 26 26 26 27 30 30 35 34 35 34 37 -209 -209 -209 -209 -193 -193 -193 -193 -193 -177 -177 -177 -177 -177 126 -193 -193 -209 -209 -209 40 42 0 0 0 0 0
    0 0 0 0 0 0 0 0 0 0 0 0 0 0 0 0 0 0 0 0 0 0 0 0 0 0 0 0 0 0 0 0 0 0 0 0 0 0 0 0 0 0 0 0 0 0 0 0 0 0 0 0 0 0 0 0 0 0 0 0 0 0 0 0 0 0 0 0 0 14 12 12 12 12 11 9 10 10 0 0 0 0 0 0 0 0 0 0 0 0 0 0 0 0 0 0 0 0 0 0 0 0 0 0 0 0 0 0 0 9 9 9 9 9 9 11 11 10 9 9 13 11 12 10 9 9 9 9 11 0 0 0 0 9 9 0 9 0 9 9 9 0 0 0 0 0 0 -177 0 0 -193 -193 -209 -193 -193 11 -193 10 11 12 9 11 11 10 10 10 -193 -209 -193 -193 370 -193 -193 -193 10 -193 10 10 -193 -193 -193 -193 0 0 0 0 0 0 0 9 11 12 11 11 9 10 0 0 0 0 9 0 10 11 10 12 11 11 11 10 11 9 9 9 9 10 10 11 11 11 13 14 16 15 14 16 14 14 14 14 13 12 13 14 11 22 21 18 18 18 21 17 17 16 15 14 17 17 17 10 14 14 18 21 15 15 14 18 17 18 17 18 16 22 23 23 22 25 27 28 28 27 27 25 26 26 27 25 25 24 24 26 26 27 26 27 30 31 35 33 33 33 37 -209 -209 -209 -193 -177 -177 -193 -209 -193 -177 -177 -177 -177 -177 -193 -193 -193 -209 -209 -209 40 41 0 0 0 0 0
    0 0 0 0 0 0 0 0 0 0 0 0 0 0 0 0 0 0 0 0 0 0 0 0 0 0 0 0 0 0 0 0 0 0 0 0 0 0 0 0 0 0 0 0 0 0 0 0 0 0 0 0 0 0 0 0 0 0 0 0 0 0 0 0 0 0 0 0 0 15 13 12 12 12 12 9 10 10 0 9 9 0 0 0 0 0 0 0 0 0 0 0 0 0 0 0 0 0 0 0 0 0 0 0 0 0 0 0 0 9 9 9 9 9 9 11 10 10 9 9 13 11 11 10 9 9 9 9 10 0 0 0 0 10 10 9 9 0 0 0 0 0 0 0 0 0 0 0 0 0 0 9 0 9 9 11 10 10 10 10 9 9 10 9 -193 10 10 -193 -193 -193 -193 11 14 11 11 11 10 10 -193 -193 -193 0 0 0 0 0 0 9 0 9 10 11 11 11 10 10 0 0 0 0 9 0 9 11 10 11 11 11 11 9 11 10 9 10 9 10 11 12 11 11 13 14 17 15 14 16 14 14 14 14 13 12 13 14 11 23 21 18 18 18 21 17 16 16 15 15 17 18 17 10 17 17 19 21 15 15 15 18 17 17 17 18 16 22 23 23 22 25 27 28 28 27 27 25 25 26 27 25 25 24 24 26 27 27 27 27 30 31 34 33 31 32 37 -209 -193 -177 -177 -177 -177 -177 -209 -193 -177 -177 -177 -177 -177 -193 -193 -177 -209 -209 -209 40 41 0 0 0 0 0
    0 0 0 0 0 0 0 0 0 0 0 0 0 0 0 0 0 0 0 0 0 0 0 0 0 0 0 0 0 0 0 0 0 0 0 0 0 0 0 0 0 0 0 0 0 0 0 0 0 0 0 0 0 0 0 0 0 0 0 0 0 0 0 0 0 0 0 0 0 16 13 12 12 12 12 9 10 11 0 9 9 0 0 0 9 8 0 0 0 0 0 0 0 0 0 0 0 0 0 0 0 0 0 0 0 0 0 0 0 9 9 9 9 9 9 11 10 10 9 9 13 10 11 9 0 0 0 9 9 0 0 0 0 10 10 9 9 0 0 0 0 0 0 0 0 0 0 0 0 0 0 0 0 0 0 11 9 9 10 9 -193 0 -193 -193 -193 -193 -193 -193 -193 -193 -193 11 19 13 11 13 11 11 -193 -193 -193 0 0 0 0 0 0 9 9 9 10 11 11 10 10 10 0 0 0 0 10 0 9 10 10 12 11 11 11 9 10 10 9 10 9 10 13 13 12 13 15 16 19 17 16 16 14 14 14 14 14 12 13 14 11 23 20 18 18 18 21 17 16 16 15 15 17 18 17 10 20 21 21 22 16 16 15 18 17 17 17 18 16 22 23 23 22 25 27 28 28 27 26 25 25 25 26 24 25 24 23 25 26 26 26 26 29 29 31 32 29 30 37 -193 -177 -177 -177 -177 -177 -177 -193 -193 -177 -177 -177 -177 -177 -193 -177 -177 -177 -209 -209 40 41 0 0 0 0 0
    0 0 0 0 0 0 0 0 0 0 0 0 0 0 0 0 0 0 0 0 0 0 0 0 0 0 0 0 0 0 0 0 0 0 0 0 0 0 0 0 0 0 0 0 0 0 0 0 0 0 0 0 0 0 0 0 0 0 0 0 0 0 0 0 0 0 0 0 0 16 14 12 12 12 12 9 10 10 0 9 9 0 0 0 10 9 0 9 9 9 0 0 0 0 0 0 0 0 0 0 0 0 0 0 9 9 0 0 0 10 9 9 10 9 9 12 11 11 9 9 13 11 11 9 0 0 0 9 9 0 0 0 0 10 9 0 9 0 0 0 0 0 0 0 0 0 0 0 0 0 0 0 -193 0 0 -193 0 0 9 0 -193 -193 -193 -193 -193 -193 -193 -193 9 10 11 10 20 12 11 14 11 11 -193 -193 -193 0 0 0 0 0 0 10 10 10 11 11 11 10 10 10 0 0 0 0 11 9 0 10 9 12 11 11 11 0 9 10 9 10 0 9 11 11 12 13 15 17 21 18 17 18 16 16 16 15 14 12 14 14 11 23 20 17 17 17 21 16 16 16 15 15 17 18 17 10 22 23 22 22 16 16 15 18 17 17 17 17 15 22 23 22 21 25 27 28 28 27 25 24 25 25 25 23 24 23 22 24 25 25 25 26 27 27 28 30 27 28 37 -193 -177 -177 -177 -177 -177 -177 -177 -193 -177 -177 -177 -177 -177 -193 -177 -177 -177 -209 -209 39 41 0 0 0 0 0
    0 0 0 0 0 0 0 0 0 0 0 0 0 0 0 0 0 0 0 0 0 0 0 0 0 0 0 0 0 0 0 0 0 0 0 0 0 0 0 0 0 0 0 0 0 0 0 0 0 0 0 0 0 0 0 0 0 0 0 0 0 0 0 0 0 0 0 0 0 17 14 12 12 12 12 9 9 10 0 0 0 0 0 0 0 0 0 0 0 0 0 0 0 0 0 0 0 0 0 0 0 0 0 0 0 0 0 0 0 9 9 9 10 9 9 12 10 11 9 9 14 11 12 10 9 9 9 9 9 0 0 0 0 9 9 0 9 0 0 0 -177 -177 0 0 -177 0 0 0 0 0 0 0 9 0 9 14 10 0 10 -193 -193 -193 -177 369 368 -193 -177 368 9 10 11 9 18 11 10 14 11 11 9 -209 -193 0 0 9 0 0 0 10 10 10 11 11 10 10 10 10 0 0 0 0 12 9 0 9 9 13 11 11 11 0 10 10 10 10 0 10 10 10 11 12 14 15 20 17 17 18 16 16 16 15 15 12 14 14 11 23 21 17 17 17 21 16 16 16 15 15 17 18 18 10 22 22 22 22 17 17 16 19 17 17 17 17 15 21 21 21 19 23 25 27 27 26 24 23 24 24 24 22 23 22 21 24 24 24 23 25 26 26 27 29 27 27 36 -209 -177 -177 -177 -177 -177 -177 -177 -193 -177 -177 -177 -177 -177 -193 -177 -177 -193 -209 -209 39 41 0 0 0 0 0
    0 0 0 0 0 0 0 0 0 0 0 0 0 0 0 0 0 0 0 0 0 0 0 0 0 0 0 0 0 0 0 0 0 0 0 0 0 0 0 0 0 0 0 0 0 0 0 0 0 0 0 0 0 0 0 0 0 0 0 0 0 0 0 0 0 0 0 0 0 17 14 12 12 12 12 9 9 10 0 0 0 0 0 9 9 0 0 0 0 0 0 0 0 0 0 0 0 0 0 0 0 0 0 0 0 0 0 0 0 9 9 9 9 9 9 11 10 10 9 9 14 11 12 10 9 9 9 9 10 0 0 0 0 0 0 0 10 0 -177 -177 -177 -177 -177 -177 -177 0 0 0 0 9 9 0 10 0 10 15 10 9 11 -193 -193 367 369 369 368 370 370 367 9 9 9 0 14 10 9 14 11 11 9 10 9 0 9 9 0 0 0 10 10 10 11 11 10 9 10 9 0 0 0 0 12 9 0 9 9 13 11 11 11 9 10 10 11 10 0 9 9 9 10 11 13 15 20 17 16 18 17 17 18 17 16 13 16 16 11 23 21 17 17 17 21 16 16 16 15 15 17 18 18 11 22 22 22 22 17 17 16 19 17 16 16 16 14 20 20 20 16 22 24 26 26 25 22 22 23 24 23 21 22 22 21 23 23 24 22 24 25 25 25 28 26 26 36 -193 -177 -177 -177 -177 -177 -177 -177 -193 -177 -177 -177 -177 -177 -193 -177 -177 -177 -209 37 38 40 0 0 0 0 0
    0 0 0 0 0 0 0 0 0 0 0 0 0 0 0 0 0 0 0 0 0 0 0 0 0 0 0 0 0 0 0 0 0 0 0 0 0 0 0 0 0 0 0 0 0 0 0 0 0 0 0 0 0 0 0 0 0 0 0 0 0 0 0 0 0 0 0 0 0 18 14 12 13 13 12 9 9 10 0 0 0 0 0 0 0 0 0 0 0 0 0 0 0 0 0 0 0 0 0 0 0 0 0 0 0 0 0 0 0 9 9 9 9 9 9 11 10 10 9 9 14 12 13 10 9 10 9 10 10 0 0 0 0 0 9 0 10 -177 -177 -177 -177 -177 -177 -177 -177 0 0 0 0 10 12 11 13 11 11 15 11 10 11 -193 366 367 369 369 368 370 370 367 0 0 8 0 13 9 9 15 11 12 9 10 9 0 9 9 0 0 0 10 9 10 10 11 10 9 10 9 0 0 0 0 12 9 0 9 9 13 11 11 11 9 11 11 11 11 9 10 9 9 10 11 12 14 19 15 16 19 18 18 18 18 17 14 17 18 11 23 21 17 17 17 21 16 16 16 15 15 17 19 18 12 22 22 22 22 17 17 15 19 16 16 15 16 13 19 19 19 15 22 24 26 26 25 22 22 22 24 22 21 21 22 20 22 22 23 21 24 24 25 25 27 26 26 35 -193 -177 -177 -177 -177 -193 -177 -177 -193 -193 -177 -177 -193 -193 -193 -177 -177 -177 -209 37 39 40 0 0 0 0 0
    0 0 0 0 0 0 0 0 0 0 0 0 0 0 0 0 0 0 0 0 0 0 0 0 0 0 0 0 0 0 0 0 0 0 0 0 0 0 0 0 0 0 0 0 0 0 0 0 0 0 0 0 0 0 0 0 0 0 0 0 0 0 0 0 0 0 0 0 0 18 15 12 12 12 12 9 9 10 0 0 0 0 0 0 0 0 0 0 0 0 0 0 0 0 0 0 0 0 0 0 0 0 0 0 0 0 0 0 0 9 9 9 9 0 9 11 9 9 0 0 14 11 12 10 9 10 9 10 10 0 0 0 0 0 0 0 11 -177 -177 -177 -177 -177 -177 -177 -177 0 0 0 9 10 13 13 15 12 12 15 11 10 11 -193 367 367 369 369 368 370 370 367 9 9 0 0 12 9 9 16 12 12 10 11 10 9 9 10 0 0 0 10 9 10 11 11 10 9 10 9 0 0 0 0 13 0 0 9 0 13 11 11 11 10 13 12 12 12 10 11 10 10 10 10 11 13 18 14 15 18 18 18 18 18 16 14 18 18 11 23 21 17 17 17 21 17 16 16 16 15 18 19 18 12 22 22 22 22 16 17 15 18 15 15 15 15 13 19 19 19 16 22 24 25 25 25 22 22 22 24 21 20 20 22 19 21 22 22 20 23 24 24 23 27 26 25 35 -177 -177 -177 -177 -193 -193 -177 -177 -193 -193 -193 -193 -193 -193 -193 -177 -177 -177 -193 37 39 39 0 0 0 0 0
    0 0 0 0 0 0 0 0 0 0 0 0 0 0 0 0 0 0 0 0 0 0 0 0 0 0 0 0 0 0 0 0 0 0 0 0 0 0 0 0 0 0 0 0 0 0 0 0 0 0 0 0 0 0 0 0 0 0 0 0 0 0 0 0 0 0 0 0 0 17 15 12 12 12 12 -193 9 10 0 9 0 0 0 0 0 0 0 0 0 0 0 0 0 0 0 0 0 0 0 0 0 0 0 0 0 0 0 0 9 9 10 9 9 0 9 11 0 -193 0 0 13 11 12 10 9 10 9 10 10 0 0 0 0 0 0 0 11 -177 -177 -177 -177 -177 -177 -177 -177 0 0 0 0 10 12 13 14 11 11 13 11 9 11 371 368 368 370 370 369 371 371 368 9 9 9 0 12 9 0 17 12 12 10 11 10 9 10 11 0 0 -193 10 9 10 10 10 9 0 9 9 0 0 0 0 12 0 0 0 0 12 11 11 11 11 13 12 12 12 10 12 11 10 9 9 11 13 17 13 14 18 18 19 19 18 16 14 18 17 11 22 21 17 17 17 21 17 16 17 16 15 18 18 18 12 21 21 22 21 16 16 15 19 16 15 15 15 13 18 19 19 15 22 24 25 25 25 23 22 22 23 21 20 19 21 19 21 21 22 19 23 23 23 22 26 26 26 35 -177 -177 -177 -177 -193 -193 -177 -177 -193 125 -193 125 125 -193 -177 -177 -177 -177 -209 37 39 39 0 0 0 0 0
    0 0 0 0 0 0 0 0 0 0 0 0 0 0 0 0 0 0 0 0 0 0 0 0 0 0 0 0 0 0 0 0 0 0 0 0 0 0 0 0 0 0 0 0 0 0 0 0 0 0 0 0 0 0 0 0 0 0 0 0 0 0 0 0 0 0 0 0 0 17 15 12 12 12 12 -193 10 11 9 9 9 9 9 0 0 0 0 0 0 0 0 0 0 0 0 0 0 0 0 0 0 0 0 0 0 0 0 0 9 10 10 9 9 0 0 10 0 -193 0 0 13 11 12 9 9 10 9 10 10 0 0 0 0 0 0 0 12 -177 -177 -177 -177 -177 -177 -177 -177 0 0 0 9 10 11 12 14 10 10 11 10 9 10 -193 368 368 370 369 369 371 371 368 9 9 9 0 12 0 0 -177 13 13 11 12 11 10 11 12 9 0 -193 10 9 10 10 10 9 0 9 0 0 0 0 0 11 0 0 0 0 12 11 11 11 11 13 12 12 12 11 13 13 11 11 10 12 16 17 14 15 18 19 18 18 18 16 15 18 17 11 22 21 17 17 17 21 17 17 17 16 15 18 19 18 12 22 22 22 22 16 16 15 19 16 15 16 16 13 18 18 18 15 21 23 24 25 24 22 21 22 23 20 19 19 21 18 20 21 21 18 23 23 23 20 26 26 26 35 -177 -177 -177 -193 -193 -177 -177 -177 -193 125 126 126 126 -193 -177 -177 -177 -177 -209 37 39 38 0 0 0 0 0
    0 0 0 0 0 0 0 0 0 0 0 0 0 0 0 0 0 0 0 0 0 0 0 0 0 0 0 0 0 0 0 0 0 0 0 0 0 0 0 0 0 0 0 0 0 0 0 0 0 0 0 0 0 0 0 0 0 0 0 0 0 0 0 0 0 0 0 0 0 16 16 12 12 13 13 -193 11 12 10 9 9 9 9 0 0 0 0 0 0 0 0 0 0 0 0 0 0 0 0 0 0 0 0 0 0 0 0 0 9 9 9 9 9 0 0 9 0 -193 0 0 12 11 12 10 9 9 10 10 10 0 0 0 0 0 0 0 11 0 -177 -177 -177 -177 0 0 0 0 0 0 9 9 10 12 14 11 10 10 10 0 11 -193 -193 366 367 367 368 370 -177 -193 9 -193 -193 0 -193 0 0 -177 12 13 11 12 11 10 11 12 9 9 -193 11 9 10 10 10 9 0 0 0 0 0 0 0 10 0 0 0 0 12 11 11 11 12 14 13 13 13 12 14 14 12 12 11 14 18 17 14 15 18 19 18 18 18 15 15 18 17 11 21 21 17 17 17 21 17 17 17 16 16 19 19 19 12 22 22 22 22 16 16 15 19 16 16 16 16 13 18 19 18 15 21 22 24 25 25 23 23 23 24 20 19 19 20 18 19 20 21 17 23 23 23 21 26 27 26 35 -177 -177 -177 -193 -193 -177 -193 -193 -193 127 127 127 127 -193 -177 -177 -177 -177 -209 37 39 38 0 0 0 0 0
    0 0 0 0 0 0 0 0 0 0 0 0 0 0 0 0 0 0 0 0 0 0 0 0 0 0 0 0 0 0 0 0 0 0 0 0 0 0 0 0 0 0 0 0 0 0 0 0 0 0 0 0 0 0 0 0 0 0 0 0 0 0 0 0 0 0 0 0 0 16 15 12 13 13 13 10 12 12 11 10 9 9 9 0 0 0 0 0 0 0 0 0 0 0 0 0 0 0 0 0 0 0 0 0 0 0 0 0 0 9 9 0 0 0 0 9 0 -193 0 0 12 11 12 10 9 9 10 10 10 0 0 0 0 0 0 0 10 0 0 0 0 0 0 0 0 0 9 9 10 10 10 11 12 9 9 0 8 0 10 0 0 -193 -193 -193 -193 -193 -193 0 9 -193 -193 0 -193 0 0 -193 12 12 11 12 11 11 11 13 9 9 -193 11 10 10 10 10 0 0 0 0 0 0 0 0 10 0 0 0 9 12 11 11 11 12 15 13 13 14 13 15 15 13 12 11 14 19 17 14 15 18 19 17 18 17 15 15 18 16 11 21 21 17 17 18 21 18 18 18 17 17 19 19 19 13 22 21 22 22 16 16 15 19 17 17 17 17 14 19 20 19 17 22 24 24 27 27 25 25 26 26 22 21 21 21 19 20 21 21 19 25 24 24 -193 27 28 28 36 -177 -193 -177 -193 -177 -177 -193 -193 -193 128 128 129 129 130 -177 -177 -177 -177 -193 37 39 38 0 0 0 0 0
    0 0 0 0 0 0 0 0 0 0 0 0 0 0 0 0 0 0 0 0 0 0 0 0 0 0 0 0 0 0 0 0 0 0 0 0 0 0 0 0 0 0 0 0 0 0 0 0 0 0 0 0 0 0 0 0 0 0 0 0 0 0 0 0 0 0 0 0 0 16 15 12 13 13 13 10 13 13 11 10 10 9 9 0 0 0 0 0 0 0 0 0 0 0 0 0 0 0 0 0 0 0 9 0 0 0 0 0 0 0 9 0 0 0 0 0 0 0 0 0 12 10 12 10 9 9 10 10 10 0 0 0 0 0 0 9 12 0 0 0 0 0 9 0 0 0 9 10 10 10 9 10 -193 -209 0 0 0 0 9 0 0 -193 -193 0 0 0 0 0 9 -193 -193 0 -193 0 0 -193 12 12 10 12 11 11 11 13 10 10 -193 11 10 11 11 10 -193 0 0 0 0 0 0 0 9 0 0 0 9 12 11 11 11 13 15 13 13 13 13 15 16 13 12 11 14 18 16 13 14 18 17 16 17 17 14 15 17 16 12 22 21 18 19 19 22 18 18 18 17 17 19 20 19 13 22 22 21 22 15 15 14 19 17 17 17 18 14 20 21 21 19 23 26 26 29 28 27 27 27 28 23 22 22 22 20 21 21 22 -193 25 25 25 -193 29 29 30 37 -177 -193 -177 -193 -177 -177 -193 -193 -193 128 129 129 130 131 -177 -177 -177 -177 36 37 39 37 0 0 0 0 0
    0 0 0 0 0 0 0 0 0 0 0 0 0 0 0 0 0 0 0 0 0 0 0 0 0 0 0 0 0 0 0 0 0 0 0 0 0 0 0 0 0 0 0 0 0 0 0 0 0 0 0 0 0 0 0 0 0 0 0 0 0 0 0 0 0 0 0 0 0 15 15 12 12 12 13 10 13 13 11 10 10 9 10 0 0 0 0 0 0 0 0 0 0 0 0 0 0 0 0 0 0 0 9 0 8 0 0 -193 -193 -193 -193 0 0 0 0 0 0 0 0 0 11 10 11 9 9 9 10 10 10 0 0 0 0 0 9 11 14 9 0 9 9 -193 -193 -193 -209 0 -193 -193 -209 -209 -209 -193 -193 -209 -177 -193 -193 0 -193 0 0 0 0 0 0 0 0 0 0 0 0 0 11 0 -209 -193 11 12 10 12 11 11 11 13 10 -193 -193 12 10 11 12 -193 -193 -209 -209 -209 0 0 0 0 0 0 0 0 9 12 11 10 11 13 15 13 13 13 13 14 16 14 13 12 15 20 16 13 13 18 16 15 17 16 14 15 18 18 12 22 22 19 19 20 22 19 19 19 18 18 20 20 19 13 -193 -193 21 22 15 15 15 19 18 17 18 18 15 21 21 21 20 23 26 26 30 29 28 27 29 29 24 23 23 22 21 22 22 23 -193 26 26 -193 -209 30 32 33 38 -193 -193 -209 -209 -177 793 127 -193 -193 129 129 130 131 131 -177 -177 -177 -193 37 38 39 37 0 0 0 0 0
    0 0 0 0 0 0 0 0 0 0 0 0 0 0 0 0 0 0 0 0 0 0 0 0 0 0 0 0 0 0 0 0 0 0 0 0 0 0 0 0 0 0 0 0 0 0 0 0 0 0 0 0 0 0 0 0 0 0 0 0 0 0 0 0 0 0 0 0 0 16 16 13 12 12 13 10 13 13 11 10 10 10 10 0 0 0 0 0 0 0 0 0 0 0 0 -193 -193 0 -193 0 0 0 -193 0 0 0 -193 -193 -193 -193 -193 -193 0 0 0 0 0 0 0 0 11 10 11 9 9 9 10 10 10 0 0 0 0 0 9 12 13 9 -209 -209 -209 -193 -193 -177 -193 -209 284 295 -177 -193 -193 -193 51 -193 -177 -209 -209 -193 -209 0 0 -193 0 0 0 0 0 0 0 0 0 0 13 10 -209 -209 11 12 10 12 11 11 12 13 10 11 -193 12 11 11 13 -209 647 652 -209 -209 -209 -193 0 0 0 0 0 0 9 12 11 11 11 14 15 13 13 13 13 15 17 15 13 13 16 20 16 12 12 16 15 14 15 15 13 15 17 18 12 22 22 19 20 21 22 19 19 19 18 18 20 20 20 14 -193 -193 20 22 15 15 15 19 18 18 18 18 15 21 22 22 20 23 27 27 32 30 29 28 30 30 25 24 24 22 21 22 22 -193 -209 26 -193 -209 -209 30 32 33 38 -193 -193 -193 -209 -177 793 128 131 132 130 130 131 131 132 -177 -177 -193 37 38 38 39 37 0 0 0 0 0
    0 0 0 0 0 0 0 0 0 0 0 0 0 0 0 0 0 0 0 0 0 0 0 0 0 0 0 0 0 0 0 0 0 0 0 0 0 0 0 0 0 0 0 0 0 0 0 0 0 0 0 0 0 0 0 0 0 0 0 0 0 0 0 0 0 0 0 0 0 15 16 12 12 12 13 10 12 12 -193 -193 -193 10 11 0 0 0 0 0 0 0 0 0 -193 0 -209 -193 -209 -193 805 -209 -193 0 -209 -193 -209 -193 -193 -177 421 -193 -193 -209 0 0 0 0 0 0 0 0 10 10 11 9 9 9 9 10 10 0 0 0 0 0 0 12 -209 -209 -209 -177 -193 -193 -209 830 835 829 -193 296 -177 -209 -209 -209 -209 -209 -193 120 121 -193 -209 -209 -209 -193 -193 0 0 0 0 -209 -193 -209 -209 -209 13 -193 -209 -209 11 12 10 12 12 11 12 13 11 12 11 12 11 12 -193 -209 637 648 -209 -177 120 120 -193 -193 0 0 0 0 10 13 12 11 12 16 16 14 13 14 14 16 18 16 15 14 18 20 16 12 12 15 14 13 14 14 13 14 17 17 12 22 22 20 22 22 23 20 21 21 19 19 -193 -193 -193 -193 -193 -193 19 22 16 15 15 19 19 18 19 19 16 22 22 22 21 24 28 28 35 31 31 30 33 33 -193 -193 -193 22 21 22 22 -193 -193 -209 -209 -209 -209 -193 31 32 -193 -177 -209 -209 -209 -209 -193 129 132 132 130 130 131 132 132 -193 -193 -193 38 38 39 40 37 0 0 0 0 0
    0 0 0 0 0 0 0 0 0 0 0 0 0 0 0 0 0 0 0 0 0 0 0 0 0 0 0 0 0 0 0 0 0 0 0 0 0 0 0 0 0 0 0 0 0 0 0 0 0 0 0 0 0 0 0 0 0 0 0 0 0 0 0 0 0 0 0 0 0 15 16 12 12 12 12 10 11 11 -193 -209 -209 10 11 0 0 0 0 0 0 0 0 -193 -193 -193 -209 -193 -209 801 803 -209 -193 -193 -209 -209 -209 -193 -193 -177 421 421 -177 -209 -193 0 0 0 0 0 0 0 11 10 11 10 10 9 -209 -193 10 0 0 0 0 -177 9 14 -209 -209 -177 -177 -177 -209 -209 830 836 831 -193 -193 -177 -209 -209 -209 122 122 122 121 122 121 125 -193 -193 -209 -209 -193 -193 0 -193 -209 -209 -209 -209 -209 -209 -209 -209 676 10 11 10 12 12 11 12 13 11 12 -193 12 -193 -209 -209 -209 633 -209 -193 119 122 122 122 124 -193 0 0 0 10 13 12 11 13 17 17 14 14 14 15 17 19 17 16 16 19 21 18 12 12 14 13 12 13 13 12 13 15 15 12 23 22 21 24 24 24 22 22 22 20 21 -193 -193 -193 -209 -193 -193 20 22 16 15 14 18 19 18 19 20 16 22 23 23 23 25 30 30 36 33 33 31 35 35 -193 -193 -209 -193 -193 -193 -209 -209 -209 -209 -209 -209 -209 -209 -193 32 -193 -193 -209 -209 -209 -193 -193 129 132 132 130 130 131 132 133 133 137 -193 38 -193 39 40 37 0 0 0 0 0
    0 0 0 0 0 0 0 0 0 0 0 0 0 0 0 0 0 0 0 0 0 0 0 0 0 0 0 0 0 0 0 0 0 0 0 0 0 0 0 0 0 0 0 0 0 0 0 0 0 0 0 0 0 0 0 0 0 0 0 0 0 0 0 0 0 0 0 0 0 14 15 12 11 11 11 9 10 11 -209 -209 -193 -193 12 10 0 -193 0 0 0 0 -209 121 -193 -209 -209 -209 -209 803 -193 -193 -209 -209 -193 -209 -209 -209 -193 -193 -177 -193 -177 -209 -209 0 0 0 0 0 0 0 11 11 12 11 11 -209 -209 -209 11 0 0 -193 -193 -209 11 -193 -209 -209 925 -209 -177 -209 -209 829 837 834 838 -209 -209 -209 122 123 122 122 123 122 122 121 123 124 123 127 -193 -209 -209 -193 -209 -193 -209 -209 -193 -209 -209 -209 -209 678 -193 11 10 12 12 11 12 13 -193 -209 -177 -193 -209 -209 -209 -209 -209 -193 123 121 123 123 124 126 128 127 -193 -193 10 13 12 12 13 18 18 15 15 16 17 18 21 -193 -193 -193 20 21 19 -193 12 -193 -193 11 12 12 11 -177 -177 13 12 22 22 21 24 24 25 23 23 23 21 23 258 260 260 -209 -209 -193 -193 -209 16 15 14 17 18 18 19 20 16 23 23 24 24 26 31 30 36 34 -193 -193 -193 -177 -177 -177 141 140 142 137 136 136 -209 -209 127 132 -193 131 129 128 127 128 128 -209 -209 -193 126 130 133 133 132 132 132 133 134 135 138 -193 -193 -193 39 -209 37 0 0 0 0 0
    0 0 0 0 0 0 0 0 0 0 0 0 0 0 0 0 0 0 0 0 0 0 0 0 0 0 0 0 0 0 0 0 0 0 0 0 0 0 0 0 0 0 0 0 0 0 0 0 0 0 0 0 0 0 0 0 0 0 0 0 0 0 0 0 0 0 0 0 0 14 13 11 10 10 9 0 0 -209 -209 -209 -193 -193 -193 -209 -209 -193 -209 -193 -193 -209 -193 121 123 -193 -209 -209 -209 -209 -209 -209 -209 -193 -209 -209 124 124 123 124 -193 122 -193 -209 -209 -209 -209 0 -193 0 0 0 11 11 12 -193 -193 -209 -209 -209 -209 -209 -193 -209 -209 -209 -209 -209 -193 -209 -209 -209 -209 -209 -209 -209 837 838 -209 -193 128 -193 123 124 123 123 123 123 123 122 123 123 122 124 129 125 125 -193 -193 -209 -209 -193 -193 -209 -209 127 128 129 129 -193 -193 -193 -193 -193 -193 -193 -209 -193 131 133 132 133 -209 -209 -193 125 124 122 124 124 125 127 128 127 126 130 -209 -209 14 13 15 19 19 16 16 17 18 18 21 -193 -193 18 18 19 -209 -209 10 -209 -193 -193 11 -193 9 10 11 -193 11 22 22 24 26 26 26 24 24 -193 23 -193 -193 260 -193 -193 -193 -209 -193 -193 -193 -193 -193 -193 -193 -193 -193 22 17 24 25 26 27 -177 -177 32 36 -177 -193 129 134 136 136 140 140 139 140 135 135 134 133 132 127 132 129 131 129 129 128 128 129 -193 -193 126 126 131 134 134 134 134 134 135 136 138 139 139 140 -193 -193 -209 -193 0 0 0 0 0
    0 0 0 0 0 0 0 0 0 0 0 0 0 0 0 0 0 0 0 0 0 0 0 0 0 0 0 0 0 0 0 0 0 0 0 0 0 0 0 0 0 0 0 0 0 0 0 0 0 0 0 0 0 0 0 0 0 0 0 0 0 0 0 0 0 0 0 0 0 13 12 10 9 -193 -193 -193 -209 -209 -209 -209 -177 -177 -209 -193 119 120 121 118 120 121 122 122 124 124 125 -193 -209 -209 -209 -209 -209 -193 -193 124 124 124 123 124 123 122 122 122 123 123 -193 -193 -193 -193 0 0 11 -193 -193 -209 125 -209 -209 -209 -209 -193 -209 -209 130 -193 124 124 123 122 122 122 124 123 125 129 127 126 127 125 128 124 124 125 123 123 124 123 124 122 123 123 122 123 127 124 124 124 124 124 125 125 125 124 127 128 128 129 129 128 128 128 128 125 126 127 -193 127 127 130 129 128 -193 122 122 126 124 123 125 125 126 127 128 128 126 130 132 132 -193 -193 16 20 20 15 17 16 19 19 -193 -193 -209 -209 -193 -193 -209 -209 -193 -193 125 -193 -193 127 -193 -193 -193 -193 -193 -193 -193 -193 27 27 27 26 25 26 23 26 -209 -193 -209 -193 720 -209 -209 130 129 129 129 130 130 130 131 132 -193 -193 28 29 30 -177 -177 35 38 -193 -193 129 134 135 135 138 137 136 135 132 132 132 132 131 128 132 129 131 130 130 129 129 130 130 124 128 127 132 135 134 135 135 135 136 137 138 139 139 141 144 -193 -193 -193 0 0 0 0 0
    0 0 0 0 0 0 0 0 0 0 0 0 0 0 0 0 0 0 0 0 0 0 0 0 0 0 0 0 0 0 0 0 0 0 0 0 0 0 0 0 0 0 0 0 0 0 0 0 0 0 0 0 0 0 0 0 0 0 0 0 0 0 0 0 0 0 0 0 0 -193 -209 -193 -193 -193 -193 -193 -209 -193 -209 -193 -209 121 121 120 121 122 122 121 122 123 123 123 124 124 125 125 126 126 126 126 128 125 124 123 124 124 123 124 123 122 122 123 124 124 123 123 123 -193 -193 -193 -193 -193 119 121 123 -193 -209 -193 131 -193 130 128 129 126 124 124 124 123 122 123 125 124 126 130 128 126 127 126 129 125 125 125 124 124 125 124 124 122 123 123 122 123 126 124 124 124 125 125 125 126 127 125 129 128 128 129 128 128 128 127 128 126 126 126 123 124 125 126 126 124 124 123 122 127 125 124 125 125 126 128 128 128 127 129 131 131 132 130 129 130 130 -193 -193 -193 -193 -193 -209 -193 124 123 -193 125 -193 122 126 126 126 125 126 127 127 126 127 125 125 125 126 -193 -209 -193 28 28 26 27 24 28 -193 -209 -209 712 717 -193 127 130 129 128 128 129 129 129 129 131 130 -193 -193 -193 -209 -209 -209 -177 -193 125 127 130 132 134 135 137 136 135 133 130 129 130 130 129 127 132 128 130 130 130 130 129 130 130 125 130 129 134 135 135 137 137 137 138 138 138 139 139 142 142 143 144 146 0 0 0 0 0
    0 0 0 0 0 0 0 0 0 0 0 0 0 0 0 0 0 0 0 0 0 0 0 0 0 0 0 0 0 0 0 0 0 0 0 0 0 0 0 0 0 0 0 0 0 0 0 0 0 0 0 0 0 0 0 0 0 0 0 0 0 0 0 0 0 0 0 0 0 126 126 125 126 127 127 127 125 124 124 122 123 122 122 121 123 122 122 121 122 123 124 123 124 124 125 125 126 127 126 126 126 124 124 124 124 124 123 124 123 123 123 123 124 124 123 123 122 122 123 -193 -193 121 119 122 122 126 129 128 128 131 128 127 127 126 125 124 125 124 123 124 126 126 128 130 127 126 127 126 129 125 125 126 124 125 126 125 125 122 124 123 122 123 125 123 123 124 125 126 126 126 127 126 129 128 128 128 127 127 128 127 127 125 125 125 123 123 124 124 124 123 123 123 123 129 126 125 126 126 127 128 129 129 127 129 130 130 132 131 130 131 130 128 128 129 129 127 126 123 123 122 123 125 125 123 128 127 127 126 126 127 126 126 127 125 125 125 127 127 125 125 126 -193 -193 -193 -193 -193 127 128 128 129 127 130 128 130 129 128 128 128 129 128 128 130 129 128 133 132 131 130 130 127 127 126 128 130 131 133 135 136 135 135 132 129 128 129 130 129 127 131 127 129 129 129 129 128 129 130 125 130 130 134 136 137 139 139 139 140 141 140 140 140 142 140 142 144 145 0 0 0 0 0
    0 0 0 0 0 0 0 0 0 0 0 0 0 0 0 0 0 0 0 0 0 0 0 0 0 0 0 0 0 0 0 0 0 0 0 0 0 0 0 0 0 0 0 0 0 0 0 0 0 0 0 0 0 0 0 0 0 0 0 0 0 0 0 0 0 0 0 0 0 125 125 125 126 126 127 126 125 125 125 123 124 123 123 122 123 122 122 121 122 123 123 122 124 124 125 125 126 126 125 126 126 124 124 124 124 125 124 125 124 124 124 124 125 124 123 123 123 122 123 123 -193 122 121 123 123 126 129 127 127 130 127 126 126 125 124 124 124 124 122 123 126 126 127 129 126 125 126 126 128 125 124 125 124 125 126 126 125 122 124 124 122 123 125 123 123 124 125 126 126 126 128 126 129 128 128 127 127 127 127 126 126 125 124 124 122 123 123 124 124 123 124 124 124 131 127 126 127 127 127 128 129 129 127 130 130 130 133 132 131 132 132 131 130 131 131 126 125 122 122 121 122 125 126 124 129 128 127 126 127 128 127 126 127 124 125 125 127 127 126 126 126 127 128 128 126 127 126 128 127 128 128 131 128 130 130 128 128 129 129 128 127 129 128 127 133 132 131 129 130 128 128 128 129 130 131 132 134 135 134 135 132 129 128 129 130 128 127 131 127 128 129 129 129 128 129 129 124 131 131 134 136 137 139 139 139 140 140 139 140 140 141 140 141 141 143 0 0 0 0 0
    0 0 0 0 0 0 0 0 0 0 0 0 0 0 0 0 0 0 0 0 0 0 0 0 0 0 0 0 0 0 0 0 0 0 0 0 0 0 0 0 0 0 0 0 0 0 0 0 0 0 0 0 0 0 0 0 0 0 0 0 0 0 0 0 0 0 0 0 0 125 125 125 125 126 127 126 125 125 125 124 124 123 123 122 122 121 122 121 122 122 123 123 124 124 125 125 126 126 125 126 125 124 124 123 124 125 124 125 124 125 124 124 125 124 123 123 123 122 123 123 123 123 122 124 124 126 129 126 127 130 127 126 126 125 125 124 124 124 122 123 125 125 126 129 125 125 125 126 128 125 124 125 124 125 126 125 125 122 124 123 122 123 125 123 123 123 125 125 126 126 127 127 129 128 127 127 126 126 126 126 125 124 124 124 122 123 123 123 123 123 125 124 125 131 127 126 127 127 127 128 128 129 127 130 131 131 133 133 132 133 132 131 130 132 131 126 124 122 122 121 122 125 126 124 130 128 128 127 127 128 127 126 128 125 125 125 127 127 126 126 127 127 128 128 127 127 127 129 127 129 128 131 129 130 130 128 128 129 128 128 127 129 129 128 134 132 131 130 130 129 129 128 129 130 131 132 134 134 134 135 132 129 129 130 130 128 127 131 127 128 129 129 128 128 129 129 124 131 132 135 136 137 139 139 139 140 140 139 140 140 140 140 141 141 143 0 0 0 0 0</data></disparity>
</opencv_storage>
