<?xml version="1.0"?>
<opencv_storage>
<gps_time_stamp>27641</gps_time_stamp>
<gps_x>-6.2045779228210449e+000</gps_x>
<gps_y>9.5971262454986572e-001</gps_y>
<gps_z>-1.7039639949798584e+000</gps_z>
<image_time_stamp>15568</image_time_stamp>
<disparity type_id="opencv-matrix">
  <rows>79</rows>
  <cols>320</cols>
  <dt>s</dt>
  <data>
    0 0 0 0 0 0 0 0 0 0 0 0 0 0 0 0 0 0 0 0 0 0 0 0 0 0 0 0 0 0 0 0 0 0 0 0 0 0 0 0 0 0 0 0 0 0 0 0 0 0 0 0 0 0 0 0 0 0 0 0 0 0 0 0 0 0 0 0 0 -193 -209 -209 -225 283 287 -225 -225 -225 -225 -225 -225 -225 -209 -209 -209 -209 -209 -209 -193 -193 -193 -193 -193 -209 -209 -209 -193 180 -193 270 179 180 182 183 183 182 182 183 182 184 -209 -209 -209 846 -209 -209 -209 -209 -209 -209 -209 123 -193 -193 -209 -193 -193 -209 -193 177 -193 -209 -209 -209 -209 -209 -209 172 173 174 176 181 176 174 176 176 176 176 175 174 -193 174 177 173 -209 176 177 176 176 177 176 175 175 177 176 177 175 174 174 176 178 176 175 179 177 177 179 178 176 174 175 175 173 173 174 176 174 175 176 175 175 175 176 175 173 177 176 174 174 174 177 178 -193 -193 -193 -193 -193 178 177 175 175 179 180 183 182 183 181 182 182 179 180 179 176 175 172 174 173 173 181 174 175 175 174 174 173 174 175 172 174 174 173 175 174 175 174 173 174 174 173 174 173 174 174 176 177 176 179 180 179 176 177 175 166 -193 -193 168 169 171 170 172 176 175 175 175 176 176 175 177 175 173 175 175 174 174 173 174 -193 172 172 173 171 170 170 168 168 168 168 166 169 172 181 181 184 182 182 180 179 179 180 180 179 178 178 176 180 0 0 0 0 0
    0 0 0 0 0 0 0 0 0 0 0 0 0 0 0 0 0 0 0 0 0 0 0 0 0 0 0 0 0 0 0 0 0 0 0 0 0 0 0 0 0 0 0 0 0 0 0 0 0 0 0 0 0 0 0 0 0 0 0 0 0 0 0 0 0 0 0 0 0 -209 -209 -193 -225 -225 -225 -225 -225 -225 -225 -225 -225 -225 -209 -193 -209 -209 -193 -209 -209 161 166 -209 -209 -209 -193 -193 -209 -193 -193 272 -209 181 184 184 184 183 183 183 183 185 -209 -209 -209 -209 -209 -209 -225 -225 -225 -225 120 124 -193 -193 -209 390 392 394 396 -209 -193 -209 -209 -209 -209 -209 -209 -209 174 176 178 181 176 173 175 175 176 176 -193 -193 -193 -193 177 -209 -209 -193 177 175 176 176 175 175 175 177 176 178 175 174 175 177 179 177 175 179 177 178 180 179 176 173 175 175 173 173 173 175 173 175 176 175 175 174 177 176 174 178 178 175 175 176 179 -209 -209 -209 -193 -193 -193 178 177 175 174 179 179 181 181 182 181 181 182 180 181 180 177 176 171 174 173 173 181 173 174 174 173 173 173 173 174 172 173 174 173 176 175 175 174 173 174 174 173 174 173 174 174 176 177 176 179 179 178 175 176 174 161 166 167 168 169 171 170 173 175 174 175 175 175 176 175 177 174 173 175 175 174 173 172 -193 -209 -193 170 172 170 170 171 167 168 169 -193 -193 170 173 179 179 183 182 181 180 179 180 180 181 180 178 178 178 180 0 0 0 0 0
    0 0 0 0 0 0 0 0 0 0 0 0 0 0 0 0 0 0 0 0 0 0 0 0 0 0 0 0 0 0 0 0 0 0 0 0 0 0 0 0 0 0 0 0 0 0 0 0 0 0 0 0 0 0 0 0 0 0 0 0 0 0 0 0 0 0 0 0 0 -209 -209 -209 -209 -209 -209 -225 -225 -225 -225 -225 -225 -225 -225 -225 -225 334 337 -209 -193 -209 -209 -209 -209 -209 -209 -209 -209 -209 -209 -209 -209 -193 186 188 188 186 186 -193 185 -209 -225 -225 -225 -225 -225 -225 -225 -225 -225 -225 -225 -225 -193 -193 393 389 391 391 394 404 -193 -209 -209 -209 -209 -193 -209 -209 175 179 -193 -193 176 172 175 175 175 176 -209 -209 -209 174 -209 -209 -209 -209 -193 175 176 -193 176 175 176 178 178 179 176 175 175 178 -193 -193 -193 180 178 -193 180 180 176 172 174 174 173 172 173 174 172 175 177 175 174 174 177 176 175 179 180 175 176 178 -193 -209 -193 -209 -209 -193 176 177 176 174 173 177 177 180 180 182 182 182 182 181 182 182 180 177 172 175 174 175 182 173 174 173 172 173 172 172 173 171 173 174 173 176 175 175 174 173 174 173 173 174 173 174 174 176 176 176 179 180 179 176 176 -209 -193 -209 -193 165 -193 -193 170 173 175 174 175 175 176 177 176 177 175 174 176 176 175 -193 -193 -193 -193 -209 -209 -209 168 169 174 168 170 172 172 175 176 181 183 180 183 182 181 180 180 180 180 181 180 179 178 179 180 0 0 0 0 0
    0 0 0 0 0 0 0 0 0 0 0 0 0 0 0 0 0 0 0 0 0 0 0 0 0 0 0 0 0 0 0 0 0 0 0 0 0 0 0 0 0 0 0 0 0 0 0 0 0 0 0 0 0 0 0 0 0 0 0 0 0 0 0 0 0 0 0 0 0 -209 233 234 234 235 232 231 231 -225 -225 -225 -225 -225 -225 -225 -225 -225 -209 -209 -209 -209 -209 -209 -209 -209 -209 -209 -209 -209 -209 -209 -209 -209 -209 297 297 296 297 294 -225 -225 -225 -225 -225 -225 -225 -225 -225 -225 -225 -225 -225 -225 -193 -209 -209 386 389 -193 -209 -209 -209 -209 -209 -209 -209 -209 -209 -209 -209 -193 -209 -209 -209 -209 -209 -193 -209 -209 -209 -209 -209 -209 -225 -209 -225 -225 -225 -225 -193 505 -193 173 -193 502 -193 180 176 -193 176 -193 -193 53 -177 -193 -177 -177 -177 -193 -193 172 173 174 172 171 172 173 172 174 177 176 174 175 178 177 177 180 183 -209 -193 -193 -209 -209 -193 -209 -209 -193 176 177 175 174 172 176 174 176 178 184 185 185 -209 184 186 -209 -209 -209 174 178 179 179 182 173 173 172 171 172 171 171 172 171 172 174 173 176 175 175 174 174 174 174 173 174 173 174 175 176 176 176 180 181 179 175 175 -209 149 147 151 156 162 157 168 172 175 174 176 176 178 178 177 178 175 174 176 176 175 -209 -209 -193 85 -193 -193 -209 -209 -193 -209 -209 170 172 171 175 177 182 184 179 183 182 181 181 181 181 182 183 182 181 181 182 182 0 0 0 0 0
    0 0 0 0 0 0 0 0 0 0 0 0 0 0 0 0 0 0 0 0 0 0 0 0 0 0 0 0 0 0 0 0 0 0 0 0 0 0 0 0 0 0 0 0 0 0 0 0 0 0 0 0 0 0 0 0 0 0 0 0 0 0 0 0 0 0 0 0 0 -209 232 233 232 232 230 230 229 228 226 226 223 223 -225 -225 -225 -225 -225 -209 -209 -209 -209 -193 -193 221 -177 218 223 -209 -209 -209 -209 -193 354 359 -193 -193 -193 -193 299 -225 -225 -225 -225 -225 -225 -225 -225 -225 -225 -225 -225 -225 451 451 453 -209 -209 -209 -209 -209 -209 -209 -209 -209 -209 -209 -209 -209 -209 -209 -209 -209 -209 -209 -209 -209 -209 -209 -225 -225 -225 -225 -225 -225 -225 -225 -225 -225 -225 -193 37 38 -209 -209 -209 -193 39 -193 39 43 53 47 45 -177 -177 54 55 56 -193 -193 -193 173 171 -177 170 171 -209 -193 -193 29 -193 -193 -209 -209 -209 -209 -209 -209 -209 -209 93 -209 -193 -209 -193 -177 -193 176 174 173 172 177 176 178 -209 190 201 203 206 208 -209 -193 225 -209 -209 176 180 181 181 172 172 171 170 171 170 170 171 171 172 174 173 176 176 175 175 174 174 174 173 174 174 174 175 175 176 175 180 181 177 174 -193 -193 145 141 149 152 153 151 163 171 174 175 177 177 180 179 179 180 176 176 177 177 -193 -209 -209 -209 86 87 86 88 -209 -209 -209 -209 167 169 168 171 173 180 180 173 182 182 181 182 182 183 183 185 184 183 185 185 185 0 0 0 0 0
    0 0 0 0 0 0 0 0 0 0 0 0 0 0 0 0 0 0 0 0 0 0 0 0 0 0 0 0 0 0 0 0 0 0 0 0 0 0 0 0 0 0 0 0 0 0 0 0 0 0 0 0 0 0 0 0 0 0 0 0 0 0 0 0 0 0 0 0 0 -193 231 231 230 229 228 228 228 226 225 224 222 221 223 224 -193 -193 -193 -209 -193 -193 -193 222 220 220 -177 218 222 -209 -209 -209 -209 -209 352 357 -193 -193 349 -193 -193 226 -225 -225 -225 -225 363 370 -177 -193 -225 -225 447 449 447 449 449 -209 -209 -209 -209 -209 -209 -209 -209 -209 -209 -209 571 -209 -193 -193 -209 -209 -209 424 423 -209 -225 -225 -225 -225 -225 -225 -225 -225 -225 -225 -225 -225 -225 -225 -225 -225 34 35 38 36 38 39 40 42 43 42 43 43 47 48 51 53 52 -193 -209 -209 -209 -209 -209 -209 -193 -225 -225 -225 -225 -225 -225 -225 -225 -225 -225 -209 83 85 91 -209 -209 -193 -209 94 102 104 -193 -193 171 -193 -209 -209 -209 -209 197 -193 -209 216 224 224 228 -209 -209 -193 -193 -209 -209 169 170 167 167 168 168 167 -193 170 170 173 173 176 178 176 176 174 175 173 172 174 174 174 175 173 174 174 179 -209 -193 172 -193 -209 145 140 147 151 151 151 156 167 172 175 177 178 180 179 180 181 178 178 178 -193 -193 -209 -209 -209 87 -209 87 -193 -209 -209 87 -193 -209 -209 -209 -193 174 180 178 171 182 181 181 183 183 184 185 186 186 185 186 186 185 0 0 0 0 0
    0 0 0 0 0 0 0 0 0 0 0 0 0 0 0 0 0 0 0 0 0 0 0 0 0 0 0 0 0 0 0 0 0 0 0 0 0 0 0 0 0 0 0 0 0 0 0 0 0 0 0 0 0 0 0 0 0 0 0 0 0 0 0 0 0 0 0 0 0 228 228 230 229 228 226 228 227 226 226 224 222 222 223 224 223 221 224 221 222 223 224 223 220 221 222 218 221 -209 -209 -209 -209 -193 -177 -177 -193 -209 -193 -193 223 225 226 227 347 -177 -177 -177 -177 -193 441 444 446 447 446 -193 -177 -209 -193 -209 -209 -209 -209 -209 -193 -193 -209 -209 573 -193 17 -193 -193 -193 -209 -193 -193 -193 219 -193 426 428 -209 0 -225 -225 -225 0 -193 -193 -193 0 -177 -193 36 34 38 -193 -209 -209 -209 -193 43 40 42 -209 -209 -209 -209 -209 46 52 60 -209 -193 62 -209 -209 -225 -225 -225 -225 -225 -225 -225 -225 -225 -225 -225 -225 54 59 -209 -193 -209 -209 -209 90 93 95 101 -209 -209 -209 -209 195 -193 -193 202 202 208 213 -193 -193 -193 -209 -209 -209 -209 -209 -177 -209 -193 -209 -193 -209 -209 -209 -209 -209 -209 -177 -209 180 -193 180 180 175 -193 -193 172 175 176 177 176 174 176 174 182 187 -209 -209 -209 -193 -209 144 147 150 149 150 152 160 168 172 175 179 181 180 181 183 180 179 -209 13 14 -209 -209 -209 -209 -209 -193 -209 -209 -209 -193 -177 -209 -209 -209 -193 175 182 -209 -193 182 181 181 184 184 186 186 186 187 186 187 187 186 0 0 0 0 0
    0 0 0 0 0 0 0 0 0 0 0 0 0 0 0 0 0 0 0 0 0 0 0 0 0 0 0 0 0 0 0 0 0 0 0 0 0 0 0 0 0 0 0 0 0 0 0 0 0 0 0 0 0 0 0 0 0 0 0 0 0 0 0 0 0 0 0 0 0 226 226 229 229 227 226 227 227 226 226 225 223 223 224 225 224 223 225 222 222 223 223 222 221 221 221 217 219 218 -209 -209 -209 -193 -193 -177 -209 -193 220 220 222 224 225 225 353 353 359 360 -193 -209 -177 -177 -177 -193 -193 50 -209 -209 -209 -209 -209 -209 -193 -209 -209 -209 -209 -209 -209 580 -193 -209 -209 222 221 220 220 220 219 219 219 -209 -193 -177 -193 0 -209 -209 -193 -193 -193 -193 -177 29 37 36 -193 174 -193 -209 -193 194 -209 -209 -209 -209 -209 -209 -193 112 -193 51 56 -209 59 60 -209 540 -225 -225 -225 -225 -225 -225 -225 -225 -225 -225 -225 -225 -193 -193 222 223 221 222 -193 221 -177 -193 -193 -193 -209 -193 207 206 209 210 208 205 210 211 214 -225 216 216 215 215 215 -193 -177 -177 -193 -193 -209 -193 -209 -209 -209 -209 -209 186 -209 -209 -193 -209 -209 -209 276 280 -209 -209 197 196 193 194 193 -225 -225 -225 -225 -225 -209 -209 -209 -209 -193 149 148 151 151 156 163 172 173 181 184 182 -193 -193 -209 -209 17 21 20 -209 -209 -209 -209 -209 -209 91 93 -209 -209 -209 -209 -209 -209 -209 -209 -209 -209 -209 -209 180 182 188 191 188 188 188 188 188 189 189 187 0 0 0 0 0
    0 0 0 0 0 0 0 0 0 0 0 0 0 0 0 0 0 0 0 0 0 0 0 0 0 0 0 0 0 0 0 0 0 0 0 0 0 0 0 0 0 0 0 0 0 0 0 0 0 0 0 0 0 0 0 0 0 0 0 0 0 0 0 0 0 0 0 0 0 226 225 228 228 227 226 227 227 226 225 225 223 223 224 225 224 223 225 222 223 223 223 222 221 221 221 218 219 218 -193 -209 -209 -193 -209 -209 -209 -193 219 219 220 222 222 222 -193 356 360 -193 -193 -193 -193 -209 -209 -209 -209 -209 -209 -209 -209 -209 -209 -209 -209 -209 -193 223 225 -209 -209 -193 -193 -209 -193 221 221 220 221 222 220 221 220 -193 415 -209 -193 -209 -209 -209 -209 -209 -209 -209 -209 -209 619 631 -209 174 -193 -209 -209 -209 -209 -209 -209 218 219 220 -209 -209 41 49 54 -193 59 -209 529 537 -193 558 -225 -225 -225 -225 -225 -225 -177 -193 -209 220 221 220 221 221 220 220 220 220 220 221 222 220 219 220 216 215 215 214 212 207 211 212 214 -225 214 215 214 214 215 214 -193 -209 -193 -193 -193 -209 -209 -209 214 213 212 -209 -209 -209 -177 -193 -209 -209 -209 -209 213 211 209 209 207 207 208 -225 -225 -225 -225 -225 -225 -225 -225 -225 -225 153 151 154 156 157 -209 -209 -209 -209 -209 -209 -209 -209 -193 -209 20 21 21 -209 -209 -193 -209 -193 -209 90 -209 -193 -193 -209 -209 -209 -209 -209 -209 -209 -209 -209 -209 -193 188 -193 199 195 -193 190 190 190 191 191 189 0 0 0 0 0
    0 0 0 0 0 0 0 0 0 0 0 0 0 0 0 0 0 0 0 0 0 0 0 0 0 0 0 0 0 0 0 0 0 0 0 0 0 0 0 0 0 0 0 0 0 0 0 0 0 0 0 0 0 0 0 0 0 0 0 0 0 0 0 0 0 0 0 0 0 226 225 228 228 227 226 227 226 226 224 224 222 223 224 224 223 223 225 222 223 223 222 221 221 221 221 219 220 218 -193 -209 -209 -209 -209 -209 -209 -193 217 217 218 219 220 220 -193 -193 -193 226 -193 -193 -193 -193 -209 -193 221 220 220 -193 221 220 219 218 -193 -193 220 222 222 217 215 -193 220 223 220 221 221 221 221 223 221 221 221 221 -193 -209 -193 -193 -193 -209 -209 -209 -209 -209 -209 -209 -209 -209 -209 -209 -209 219 -193 218 218 -193 -209 218 218 218 -209 -209 50 -193 -193 -209 63 -209 522 537 -193 560 -209 -193 -177 -193 -177 -177 -209 217 220 220 220 219 220 221 219 220 220 219 220 220 221 220 219 220 217 217 216 215 214 209 211 212 213 215 213 214 213 214 214 215 216 216 214 215 215 216 -193 218 217 215 215 209 -193 -193 -193 -193 -209 -209 -193 213 215 214 213 213 212 211 211 213 212 212 -225 -225 -225 -225 -225 -225 -225 -225 -225 -225 -225 -225 -193 -225 -225 308 -225 -225 -209 -193 -209 -193 20 21 20 21 20 -193 -193 -193 -209 -209 90 86 87 -193 -193 -209 -209 -209 -209 -209 -209 -193 -209 -209 -193 206 201 198 -193 192 192 192 193 -193 -193 0 0 0 0 0
    0 0 0 0 0 0 0 0 0 0 0 0 0 0 0 0 0 0 0 0 0 0 0 0 0 0 0 0 0 0 0 0 0 0 0 0 0 0 0 0 0 0 0 0 0 0 0 0 0 0 0 0 0 0 0 0 0 0 0 0 0 0 0 0 0 0 0 0 0 224 223 227 227 226 225 226 226 225 224 223 222 222 223 224 223 223 225 222 223 223 222 221 221 221 220 219 221 219 -193 -193 -193 -209 -209 -193 -193 -193 217 217 217 218 219 219 223 222 226 226 227 -193 -193 -193 -193 221 221 220 220 219 221 220 220 219 218 219 219 221 220 218 215 218 219 221 219 221 220 221 221 223 221 221 221 221 -209 -193 -193 -209 -209 -209 -209 -209 -209 -209 -209 -209 -193 -193 -209 -193 -193 219 217 218 218 218 218 218 218 218 -209 -209 -209 -209 214 215 -209 -209 -193 535 -209 559 -209 -193 -193 -209 -209 -209 215 217 220 220 220 220 220 220 219 220 219 219 219 220 221 219 219 219 217 217 216 215 214 211 212 212 213 215 212 214 213 212 214 215 216 216 215 216 216 217 218 218 217 217 217 215 213 213 -193 -193 -193 215 214 214 216 215 214 213 212 211 212 213 212 210 216 -225 -225 -225 -225 -225 -225 227 226 -177 -193 -193 -193 308 309 307 305 -193 -209 -193 -209 23 21 21 22 -209 -209 -209 -209 -209 -209 -209 -209 83 -193 -209 83 -209 -209 -209 -209 -193 214 218 212 211 207 212 206 201 -209 196 195 195 -193 -193 -193 0 0 0 0 0
    0 0 0 0 0 0 0 0 0 0 0 0 0 0 0 0 0 0 0 0 0 0 0 0 0 0 0 0 0 0 0 0 0 0 0 0 0 0 0 0 0 0 0 0 0 0 0 0 0 0 0 0 0 0 0 0 0 0 0 0 0 0 0 0 0 0 0 0 0 222 222 225 225 225 225 225 226 225 224 223 222 222 223 223 222 222 224 221 223 222 221 221 221 221 220 219 221 219 219 -193 -193 219 -209 -193 -193 -193 216 216 217 218 218 219 222 221 225 225 227 223 -193 -193 -193 220 220 220 220 219 221 220 220 219 218 219 219 220 219 216 215 216 217 218 217 220 219 221 220 222 221 221 221 221 -193 219 -193 220 219 -193 -209 -209 -209 -193 -193 220 219 219 218 -193 218 219 218 219 218 220 219 219 219 219 -193 218 -193 -193 215 216 -193 -209 -209 -209 -209 -209 -209 -209 -193 -209 -209 215 215 218 219 219 220 220 220 220 220 220 219 219 219 219 220 219 218 218 216 216 215 215 214 212 212 212 213 214 212 214 213 212 214 215 216 216 216 217 217 218 219 219 218 217 217 217 215 213 -193 -193 -193 216 215 215 216 215 215 214 213 212 212 213 212 211 216 218 221 222 222 224 224 223 222 221 -193 -193 -193 -193 -193 -193 -193 218 219 -193 -193 -209 22 22 23 -209 -209 -193 -193 -209 -209 -209 -209 -209 -209 -209 -209 -209 -209 -209 219 218 218 220 217 215 214 215 212 210 -209 197 197 197 -193 -209 -193 0 0 0 0 0
    0 0 0 0 0 0 0 0 0 0 0 0 0 0 0 0 0 0 0 0 0 0 0 0 0 0 0 0 0 0 0 0 0 0 0 0 0 0 0 0 0 0 0 0 0 0 0 0 0 0 0 0 0 0 0 0 0 0 0 0 0 0 0 0 0 0 0 0 0 220 220 222 223 224 224 224 225 224 223 222 221 222 222 222 222 222 223 220 222 222 221 221 221 221 220 220 222 219 219 219 218 219 217 218 217 217 216 216 216 217 217 218 220 219 224 224 226 223 223 -193 221 220 220 220 220 219 221 220 220 219 218 219 219 219 218 216 215 216 217 217 217 219 218 220 220 222 221 221 221 221 219 220 219 221 219 221 -193 -193 220 221 220 220 219 219 217 217 217 218 217 218 218 219 219 219 219 219 -193 219 218 218 216 217 218 -193 -193 -209 -209 -209 -209 -209 -209 -193 216 215 215 218 219 219 220 220 220 220 220 220 219 219 219 219 219 218 217 217 215 216 216 215 215 213 213 213 214 215 213 214 213 213 214 216 217 216 216 217 218 218 219 219 218 217 217 217 216 214 -193 -193 -193 216 216 216 216 215 216 215 214 213 213 214 213 213 216 217 219 220 220 222 221 221 220 219 -193 -193 218 -193 217 218 217 218 219 219 217 -209 -209 22 24 -209 -209 -193 -177 -209 -209 -209 -209 -209 -209 -209 -209 -209 -209 -193 219 219 219 220 218 216 217 216 215 215 -209 -193 200 -209 -209 -209 -209 0 0 0 0 0
    0 0 0 0 0 0 0 0 0 0 0 0 0 0 0 0 0 0 0 0 0 0 0 0 0 0 0 0 0 0 0 0 0 0 0 0 0 0 0 0 0 0 0 0 0 0 0 0 0 0 0 0 0 0 0 0 0 0 0 0 0 0 0 0 0 0 0 0 0 219 219 221 221 222 223 223 225 223 223 222 222 222 223 223 222 222 222 220 222 222 221 221 221 221 220 221 222 219 219 219 218 219 218 218 218 217 217 217 216 217 217 218 219 219 223 223 225 223 223 221 221 220 220 220 220 219 220 219 220 219 218 219 219 219 218 217 216 216 217 217 217 220 218 220 219 221 221 221 221 221 219 220 220 220 219 220 220 219 220 220 220 219 219 219 218 218 218 218 217 218 218 220 219 219 220 219 220 220 219 218 217 217 217 216 216 214 -193 -193 -193 -209 216 215 216 216 215 219 219 219 219 220 220 220 219 219 218 218 218 218 218 217 217 217 216 216 216 215 215 213 214 214 214 215 213 215 214 214 215 216 217 217 217 218 218 218 219 219 217 217 216 216 215 214 -193 -193 216 216 217 216 216 215 216 215 215 214 214 215 215 215 217 218 220 220 220 221 220 220 219 218 218 217 218 217 217 217 217 218 219 219 217 217 -209 -209 -209 -209 -193 -193 -193 -209 -209 -209 -209 -209 -209 -209 -209 -193 -193 218 218 218 219 218 217 216 217 217 216 216 216 212 210 209 -193 215 -193 0 0 0 0 0
    0 0 0 0 0 0 0 0 0 0 0 0 0 0 0 0 0 0 0 0 0 0 0 0 0 0 0 0 0 0 0 0 0 0 0 0 0 0 0 0 0 0 0 0 0 0 0 0 0 0 0 0 0 0 0 0 0 0 0 0 0 0 0 0 0 0 0 0 0 220 220 221 222 222 223 223 224 223 222 222 222 222 222 222 222 223 222 220 223 222 221 221 221 221 220 221 222 219 219 220 218 220 218 218 218 217 217 217 217 217 217 218 219 218 222 222 225 223 222 220 221 220 220 220 220 219 220 219 219 219 219 219 218 219 217 217 216 216 217 217 216 219 218 220 219 221 221 221 221 221 219 220 220 220 219 219 219 220 220 220 220 219 219 219 218 218 218 219 219 219 219 221 220 220 220 220 220 220 219 218 217 216 216 214 215 212 213 215 217 216 216 216 217 217 216 219 219 219 219 220 219 219 219 219 218 218 218 218 218 218 217 218 216 217 217 216 216 215 215 215 215 215 214 215 215 214 215 217 217 217 217 218 218 218 219 218 217 217 216 216 215 214 215 -193 216 216 216 215 216 215 216 216 215 215 215 215 215 216 217 218 220 220 221 222 220 220 219 218 218 217 218 217 217 217 217 219 219 219 217 217 217 -209 -193 -193 -193 -193 -209 -209 -209 -209 218 215 217 217 217 217 217 218 218 218 219 218 217 216 217 217 216 216 216 214 214 212 -193 216 215 0 0 0 0 0
    0 0 0 0 0 0 0 0 0 0 0 0 0 0 0 0 0 0 0 0 0 0 0 0 0 0 0 0 0 0 0 0 0 0 0 0 0 0 0 0 0 0 0 0 0 0 0 0 0 0 0 0 0 0 0 0 0 0 0 0 0 0 0 0 0 0 0 0 0 220 220 221 221 222 223 222 222 222 221 221 221 221 222 221 221 223 221 219 222 221 221 221 221 221 220 221 222 219 220 220 219 220 219 219 218 217 217 217 217 217 217 217 218 218 221 221 224 222 222 220 221 220 220 220 220 219 220 219 220 219 219 219 218 219 217 217 216 216 216 216 216 219 218 220 219 221 221 222 221 221 219 220 220 220 219 219 219 220 220 220 220 219 219 219 218 218 218 219 220 220 220 221 220 220 220 219 220 219 218 217 216 215 216 214 214 213 213 215 218 217 217 217 218 218 217 219 218 218 218 219 219 219 218 219 218 218 218 219 218 218 218 218 217 218 217 217 217 215 215 215 215 215 214 216 215 215 216 217 217 217 217 218 218 218 218 218 217 217 217 216 216 214 215 215 216 215 215 215 216 215 215 216 215 215 215 215 215 216 218 219 221 220 222 222 220 221 219 218 218 217 218 217 217 217 217 219 218 219 217 217 217 216 217 215 -193 -193 213 213 215 216 217 216 217 217 217 216 217 218 218 218 219 217 217 217 217 217 216 216 216 213 213 210 213 214 213 0 0 0 0 0
    0 0 0 0 0 0 0 0 0 0 0 0 0 0 0 0 0 0 0 0 0 0 0 0 0 0 0 0 0 0 0 0 0 0 0 0 0 0 0 0 0 0 0 0 0 0 0 0 0 0 0 0 0 0 0 0 0 0 0 0 0 0 0 0 0 0 0 0 0 220 220 220 221 221 222 220 221 220 219 219 220 220 221 220 220 222 219 218 222 220 220 220 220 220 219 221 222 219 220 220 219 221 219 219 218 217 217 217 217 217 216 217 217 217 220 221 223 222 222 220 221 221 220 221 220 220 220 219 220 219 219 219 218 219 217 217 216 216 216 216 216 219 218 220 219 221 221 221 221 221 219 220 220 221 219 219 220 220 221 220 220 219 219 219 218 218 219 219 220 221 221 221 220 219 219 218 219 218 217 217 216 215 216 214 214 213 214 216 218 218 218 218 218 219 218 220 218 217 218 219 218 218 218 218 217 218 218 219 218 218 218 218 217 218 218 217 217 216 215 215 215 215 215 216 215 215 216 217 217 217 218 218 218 218 218 219 217 218 217 217 216 215 215 216 216 215 215 215 216 215 216 216 216 216 215 216 216 216 217 218 220 219 220 221 220 220 218 218 218 217 218 216 216 216 217 218 217 218 217 216 216 215 216 214 213 213 211 211 214 215 216 215 217 216 216 216 216 217 218 217 218 217 218 217 218 218 217 217 217 216 215 210 212 213 211 0 0 0 0 0
    0 0 0 0 0 0 0 0 0 0 0 0 0 0 0 0 0 0 0 0 0 0 0 0 0 0 0 0 0 0 0 0 0 0 0 0 0 0 0 0 0 0 0 0 0 0 0 0 0 0 0 0 0 0 0 0 0 0 0 0 0 0 0 0 0 0 0 0 0 219 219 220 220 220 221 219 220 220 219 218 219 219 219 219 219 221 218 217 221 220 220 220 220 220 219 221 222 219 220 220 219 221 219 219 219 217 217 217 217 218 217 217 217 217 219 220 223 221 222 220 221 221 220 221 220 220 220 219 220 219 219 219 217 219 217 217 217 217 216 216 217 219 218 219 219 220 220 221 221 220 218 220 220 221 219 220 221 221 221 220 220 219 219 219 218 218 218 219 220 221 221 222 220 219 219 219 219 219 218 217 217 216 217 216 216 215 215 216 219 218 219 219 219 220 219 221 218 218 218 219 218 218 218 218 217 217 218 218 217 217 217 217 217 217 217 217 216 216 215 215 215 215 215 216 216 216 216 217 217 217 218 218 218 219 218 219 217 218 217 217 217 216 216 216 217 216 216 216 216 216 216 217 217 217 216 217 217 217 217 218 219 218 220 220 219 219 218 218 218 217 218 217 216 216 217 218 217 218 217 216 216 215 215 214 213 213 212 210 214 214 216 215 217 216 215 215 216 216 217 216 217 216 217 217 218 218 217 218 218 217 217 213 213 213 210 0 0 0 0 0
    0 0 0 0 0 0 0 0 0 0 0 0 0 0 0 0 0 0 0 0 0 0 0 0 0 0 0 0 0 0 0 0 0 0 0 0 0 0 0 0 0 0 0 0 0 0 0 0 0 0 0 0 0 0 0 0 0 0 0 0 0 0 0 0 0 0 0 0 0 219 219 220 220 220 221 219 220 219 219 218 219 -193 218 218 218 221 217 217 221 219 220 220 220 220 219 221 222 219 220 220 219 221 219 219 219 218 218 218 218 218 217 218 218 217 219 220 221 221 221 220 220 222 220 222 220 220 220 219 220 219 219 219 218 219 217 217 218 217 217 217 217 219 217 219 218 219 219 220 220 220 218 220 220 221 219 220 221 221 222 220 220 218 218 219 218 219 219 219 221 221 223 223 221 220 220 220 220 220 219 218 218 217 218 217 216 216 216 217 219 219 219 219 219 220 219 221 218 218 218 219 218 218 218 218 217 217 217 218 217 217 217 217 216 217 217 216 216 216 216 216 216 216 215 216 216 216 216 217 217 217 217 218 218 218 218 218 217 218 217 217 217 216 216 217 217 217 216 216 216 216 216 217 217 217 217 217 217 217 218 218 219 218 219 220 219 219 218 218 218 218 218 217 216 217 217 218 217 217 217 216 216 215 215 214 214 214 213 212 215 215 217 216 217 216 215 215 216 216 216 216 216 216 217 217 217 218 217 217 217 217 217 212 212 212 209 0 0 0 0 0
    0 0 0 0 0 0 0 0 0 0 0 0 0 0 0 0 0 0 0 0 0 0 0 0 0 0 0 0 0 0 0 0 0 0 0 0 0 0 0 0 0 0 0 0 0 0 0 0 0 0 0 0 0 0 0 0 0 0 0 0 0 0 0 0 0 0 0 0 0 219 219 220 220 220 220 219 219 219 218 -193 -193 -193 217 217 217 221 217 217 221 219 220 220 220 220 219 221 222 219 220 220 219 221 219 220 220 218 219 219 219 219 218 218 218 217 218 219 220 220 221 220 221 222 220 222 219 219 219 219 219 219 219 219 218 220 217 218 218 217 217 217 217 219 217 218 218 219 219 220 220 220 219 221 221 222 220 221 221 222 222 219 220 218 218 219 219 219 219 219 222 222 224 222 221 220 220 220 221 220 219 218 218 217 218 217 216 216 216 217 219 219 219 219 219 220 219 221 218 217 217 218 218 218 217 217 217 217 217 217 216 216 216 216 -193 217 217 217 217 217 217 217 216 216 216 216 216 216 215 216 216 216 217 217 218 218 217 218 217 217 217 217 216 216 216 216 217 217 217 216 216 216 216 217 218 217 217 217 217 217 218 218 219 218 219 220 219 219 217 218 218 218 218 216 216 216 216 217 216 217 216 215 215 215 215 215 215 215 214 214 216 216 218 217 218 216 216 215 216 216 216 216 216 216 217 217 217 217 217 217 217 216 215 212 212 211 210 0 0 0 0 0
    0 0 0 0 0 0 0 0 0 0 0 0 0 0 0 0 0 0 0 0 0 0 0 0 0 0 0 0 0 0 0 0 0 0 0 0 0 0 0 0 0 0 0 0 0 0 0 0 0 0 0 0 0 0 0 0 0 0 0 0 0 0 0 0 0 0 0 0 0 219 219 219 219 219 219 218 218 218 217 216 -193 -193 216 216 217 221 217 217 221 219 220 220 220 220 219 221 222 219 220 219 219 221 218 220 220 219 219 219 219 219 218 219 218 217 219 220 220 221 221 221 222 223 220 222 219 219 219 218 219 218 219 219 218 220 218 218 219 218 218 217 217 219 217 218 218 218 219 220 220 220 219 221 221 222 220 220 221 221 222 219 219 218 218 219 219 219 219 219 222 221 224 221 221 220 220 219 220 220 219 217 218 217 218 216 216 215 215 216 217 218 218 218 218 218 218 219 217 217 216 217 217 217 217 217 216 216 216 216 215 216 215 216 216 217 217 218 217 218 218 218 217 217 216 216 216 216 216 216 216 216 217 217 218 218 217 217 217 216 216 216 216 216 216 216 217 217 217 217 216 216 216 217 218 217 217 217 217 217 218 219 219 219 220 220 219 219 218 218 218 218 218 215 216 215 216 216 216 216 215 214 215 214 216 215 215 215 215 215 217 217 218 217 218 217 217 216 217 216 216 216 216 216 217 217 217 217 217 217 216 216 214 211 211 211 209 0 0 0 0 0
    0 0 0 0 0 0 0 0 0 0 0 0 0 0 0 0 0 0 0 0 0 0 0 0 0 0 0 0 0 0 0 0 0 0 0 0 0 0 0 0 0 0 0 0 0 0 0 0 0 0 0 0 0 0 0 0 0 0 0 0 0 0 0 0 0 0 0 0 0 219 219 219 219 218 218 217 217 218 216 216 -193 -193 215 216 217 221 217 217 221 219 220 220 220 220 219 221 222 219 220 219 219 220 218 219 220 218 219 219 219 219 218 219 218 217 219 221 220 220 221 222 222 222 220 222 218 219 219 218 219 218 219 219 218 221 219 220 220 219 218 217 218 219 217 218 218 218 218 219 219 219 219 221 221 221 219 220 221 221 222 219 220 218 218 219 220 220 221 220 223 222 224 221 220 219 219 219 219 219 218 217 217 217 217 216 216 215 215 216 217 217 217 217 217 217 218 218 217 216 216 217 217 217 217 216 216 216 216 216 215 216 216 216 216 217 217 218 217 218 218 218 217 217 217 216 216 216 216 216 216 216 217 217 218 218 217 218 217 217 217 217 217 216 217 217 217 217 217 217 217 216 216 217 218 217 217 218 217 217 218 220 219 219 220 220 219 219 218 218 218 217 217 215 215 215 215 216 215 215 215 214 215 214 216 215 216 215 215 215 217 217 217 217 218 217 217 217 218 217 217 217 216 216 216 216 217 216 216 216 215 216 215 212 210 210 208 0 0 0 0 0
    0 0 0 0 0 0 0 0 0 0 0 0 0 0 0 0 0 0 0 0 0 0 0 0 0 0 0 0 0 0 0 0 0 0 0 0 0 0 0 0 0 0 0 0 0 0 0 0 0 0 0 0 0 0 0 0 0 0 0 0 0 0 0 0 0 0 0 0 0 220 219 219 219 218 217 216 216 217 215 215 -193 -193 215 215 216 220 216 216 220 219 220 220 220 220 219 221 222 219 221 219 219 220 217 218 219 218 219 219 219 219 218 219 218 217 218 218 216 217 219 220 220 221 219 221 218 219 219 218 219 218 219 219 218 221 219 220 220 220 219 218 218 219 217 218 218 218 218 219 219 219 219 221 220 221 219 220 221 221 222 219 220 218 218 220 220 221 222 221 223 222 223 220 220 219 218 218 219 218 217 217 218 217 217 216 216 216 216 217 217 217 217 217 217 217 218 218 217 216 216 218 217 217 217 217 217 216 216 216 215 216 216 216 216 216 217 217 217 218 217 217 217 217 216 216 216 216 216 216 216 216 217 -193 217 218 217 218 217 217 217 217 217 217 217 217 217 217 217 217 217 216 216 217 218 217 217 217 217 217 218 219 219 219 220 220 219 219 218 218 218 217 217 216 215 215 215 215 215 215 214 214 214 214 215 214 215 214 214 215 216 216 217 217 218 217 217 217 218 216 216 216 215 215 216 216 216 216 216 216 215 216 214 213 210 211 209 0 0 0 0 0
    0 0 0 0 0 0 0 0 0 0 0 0 0 0 0 0 0 0 0 0 0 0 0 0 0 0 0 0 0 0 0 0 0 0 0 0 0 0 0 0 0 0 0 0 0 0 0 0 0 0 0 0 0 0 0 0 0 0 0 0 0 0 0 0 0 0 0 0 0 219 218 218 218 217 217 216 215 217 215 216 -193 -193 215 216 216 219 216 216 220 218 220 220 220 220 219 220 222 219 221 219 219 220 217 218 219 218 219 219 219 219 218 219 218 216 216 216 214 215 217 219 219 220 219 221 218 219 219 218 218 218 218 219 218 221 220 221 221 220 219 218 218 219 217 218 218 218 218 219 218 218 219 221 220 220 219 220 221 221 221 219 220 219 218 220 221 221 222 221 223 222 222 219 219 218 217 218 218 218 217 217 218 218 218 217 217 217 217 217 218 218 218 217 218 218 219 218 217 217 216 217 217 217 217 217 217 217 217 217 216 216 215 215 215 214 216 216 216 216 216 217 217 216 216 216 215 216 215 216 215 215 216 -193 217 217 217 218 218 218 218 217 217 217 217 217 217 217 217 217 217 217 217 218 218 217 217 218 218 217 218 219 218 218 219 219 218 218 218 218 218 217 217 216 215 215 215 215 214 215 214 213 213 213 214 214 215 213 213 214 215 216 217 218 218 217 217 217 217 215 215 215 214 215 215 215 215 215 215 215 214 216 212 210 208 210 208 0 0 0 0 0
    0 0 0 0 0 0 0 0 0 0 0 0 0 0 0 0 0 0 0 0 0 0 0 0 0 0 0 0 0 0 0 0 0 0 0 0 0 0 0 0 0 0 0 0 0 0 0 0 0 0 0 0 0 0 0 0 0 0 0 0 0 0 0 0 0 0 0 0 0 218 218 218 217 216 216 215 216 217 214 216 215 216 215 215 216 219 217 216 220 218 220 220 220 220 219 220 222 219 221 219 219 220 217 218 219 218 219 219 219 220 218 219 218 215 216 215 214 214 216 218 218 219 218 220 218 218 218 217 217 217 218 218 218 220 220 221 221 220 219 218 219 218 217 218 218 218 218 219 218 218 219 220 220 220 219 220 220 221 221 219 220 218 218 220 221 222 222 222 223 222 222 219 219 218 217 218 218 218 217 217 218 218 218 218 219 218 218 218 219 219 218 218 218 218 219 218 217 217 216 217 217 217 217 216 217 216 216 216 215 215 215 214 214 213 215 214 215 216 217 218 217 216 216 215 215 215 215 215 215 215 216 -193 217 217 217 218 218 218 218 218 218 218 217 217 218 217 218 218 218 217 217 218 218 218 218 218 218 217 218 218 217 217 217 217 217 217 217 217 217 217 217 215 215 215 215 214 214 214 213 213 213 214 214 214 215 213 214 215 215 217 217 218 218 217 217 216 216 214 214 214 213 214 215 215 215 215 215 216 215 217 212 211 208 211 209 0 0 0 0 0
    0 0 0 0 0 0 0 0 0 0 0 0 0 0 0 0 0 0 0 0 0 0 0 0 0 0 0 0 0 0 0 0 0 0 0 0 0 0 0 0 0 0 0 0 0 0 0 0 0 0 0 0 0 0 0 0 0 0 0 0 0 0 0 0 0 0 0 0 0 219 218 218 216 215 215 215 215 215 213 215 214 215 214 214 215 217 217 216 220 219 220 220 220 220 219 220 221 219 220 218 218 219 217 218 220 218 219 219 219 220 218 219 218 215 215 -193 214 215 -193 218 217 217 217 218 217 217 217 216 216 216 217 218 218 220 220 221 221 220 219 218 219 218 217 218 218 218 217 218 218 218 219 220 219 220 219 220 220 220 220 219 219 219 219 220 221 221 222 222 222 222 222 219 218 218 217 218 218 218 217 217 219 219 218 218 220 219 218 219 219 219 219 218 218 217 219 218 217 217 216 217 217 216 217 215 216 216 216 215 215 214 214 213 213 213 215 214 215 216 217 219 217 216 216 215 214 215 214 214 213 214 215 215 216 217 217 218 219 218 218 217 218 218 218 217 218 217 218 219 218 217 217 218 218 218 218 218 217 217 218 217 217 217 217 217 216 216 217 217 217 216 216 215 214 214 215 214 214 214 213 213 212 214 214 214 215 214 214 215 215 217 217 217 217 216 217 216 215 214 213 214 213 214 214 214 214 215 215 215 214 216 211 211 207 211 210 0 0 0 0 0
    0 0 0 0 0 0 0 0 0 0 0 0 0 0 0 0 0 0 0 0 0 0 0 0 0 0 0 0 0 0 0 0 0 0 0 0 0 0 0 0 0 0 0 0 0 0 0 0 0 0 0 0 0 0 0 0 0 0 0 0 0 0 0 0 0 0 0 0 0 -193 217 217 216 214 214 213 214 214 211 214 213 214 213 213 215 217 216 216 219 219 220 220 219 220 219 220 221 219 220 218 218 219 217 218 219 218 219 219 219 219 217 218 217 214 215 215 215 215 -193 218 217 217 217 217 216 216 216 215 215 216 217 217 218 219 220 220 220 219 219 218 219 217 216 217 217 218 217 218 218 -193 219 220 219 219 218 220 220 220 219 219 219 219 219 220 221 221 222 222 221 221 221 218 218 217 217 217 218 218 217 217 219 218 218 218 220 218 218 219 219 219 218 217 218 217 219 217 217 217 216 217 216 216 217 215 216 216 216 215 215 214 214 213 214 214 215 215 216 217 218 219 217 216 216 214 214 214 213 213 212 213 214 215 216 216 217 218 219 218 218 218 218 218 218 218 218 218 219 219 218 217 217 218 218 217 217 217 217 217 218 217 216 217 216 216 216 215 216 216 217 216 215 215 214 214 214 213 213 214 213 213 212 214 214 214 215 214 214 215 215 216 216 217 216 216 217 216 215 214 214 214 213 214 214 214 214 214 214 215 214 215 210 210 207 211 211 0 0 0 0 0
    0 0 0 0 0 0 0 0 0 0 0 0 0 0 0 0 0 0 0 0 0 0 0 0 0 0 0 0 0 0 0 0 0 0 0 0 0 0 0 0 0 0 0 0 0 0 0 0 0 0 0 0 0 0 0 0 0 0 0 0 0 0 0 0 0 0 0 0 0 -193 216 216 216 214 213 213 212 213 210 214 213 214 213 214 215 216 216 216 218 218 219 220 219 219 219 219 221 219 219 218 218 219 217 218 219 217 218 218 217 217 216 217 215 213 214 214 214 215 -193 218 217 217 217 217 216 215 215 214 214 215 216 216 218 218 219 219 220 219 218 217 218 216 215 216 217 217 216 217 217 -193 219 220 218 219 218 220 220 220 219 218 219 219 218 219 221 221 221 221 220 221 219 217 217 216 216 216 217 217 217 217 218 217 217 217 219 218 218 218 218 218 218 217 217 216 219 216 216 216 216 216 216 216 216 214 216 216 216 215 215 214 214 213 214 214 215 215 216 216 217 219 217 215 215 214 214 214 213 214 213 214 214 215 215 216 216 218 219 -193 -193 218 218 218 218 218 218 218 219 220 219 218 218 218 218 218 217 217 217 217 217 216 216 216 216 216 215 215 215 215 216 215 214 215 214 214 214 213 214 214 213 214 213 214 214 214 215 214 213 215 215 216 215 216 215 216 217 216 215 214 214 214 213 214 214 214 213 214 214 215 215 215 211 211 210 212 212 0 0 0 0 0
    0 0 0 0 0 0 0 0 0 0 0 0 0 0 0 0 0 0 0 0 0 0 0 0 0 0 0 0 0 0 0 0 0 0 0 0 0 0 0 0 0 0 0 0 0 0 0 0 0 0 0 0 0 0 0 0 0 0 0 0 0 0 0 0 0 0 0 0 0 216 216 216 215 214 214 214 214 215 213 216 214 215 214 214 215 216 216 216 217 218 218 219 219 219 219 219 220 219 219 218 217 218 217 217 218 216 216 217 216 216 215 216 215 214 214 215 214 215 -193 217 216 216 216 216 215 215 214 214 213 215 216 216 217 218 219 219 219 218 218 217 218 215 215 216 216 217 216 217 217 216 218 219 218 218 218 220 220 219 219 218 219 219 219 219 220 220 221 221 219 219 218 216 216 216 215 215 216 217 217 217 218 217 217 217 219 218 218 218 219 219 217 216 217 216 218 216 216 216 216 217 216 216 217 215 217 216 216 215 215 215 214 213 214 213 214 214 215 214 216 217 216 215 215 214 214 215 214 214 213 214 214 215 215 216 216 218 219 218 218 218 219 219 218 218 218 218 219 220 219 218 218 218 218 218 217 217 217 217 217 216 216 216 216 216 215 215 215 215 216 215 214 215 214 214 214 214 214 215 214 214 213 214 214 214 214 213 213 215 214 215 214 215 215 215 216 215 214 214 213 213 213 214 214 214 213 214 215 215 216 216 213 213 211 213 213 0 0 0 0 0
    0 0 0 0 0 0 0 0 0 0 0 0 0 0 0 0 0 0 0 0 0 0 0 0 0 0 0 0 0 0 0 0 0 0 0 0 0 0 0 0 0 0 0 0 0 0 0 0 0 0 0 0 0 0 0 0 0 0 0 0 0 0 0 0 0 0 0 0 0 215 215 215 214 213 214 214 214 215 214 215 214 214 213 214 215 215 215 215 216 217 217 219 218 218 219 219 221 219 220 220 219 220 218 218 219 217 217 217 216 216 215 215 214 214 215 215 215 216 -193 218 217 217 216 216 216 215 215 215 213 214 215 215 217 218 218 218 219 218 218 217 218 216 215 216 217 217 216 216 217 216 218 219 217 217 217 219 219 219 218 218 218 219 218 219 220 220 220 220 217 218 217 216 216 215 215 215 216 216 216 217 218 217 217 217 219 218 218 219 219 220 219 217 218 217 219 217 217 216 216 217 216 216 217 215 217 216 216 215 215 215 215 214 214 213 214 214 214 214 214 215 214 214 214 213 213 214 213 214 212 214 213 214 214 215 215 217 218 218 217 218 218 219 218 218 218 218 219 220 218 217 218 218 217 217 217 217 217 217 217 -193 216 216 215 215 215 214 214 214 215 215 213 215 214 214 214 214 214 215 214 214 213 214 213 213 213 213 212 214 213 214 213 215 214 215 215 215 214 213 213 213 213 214 214 214 214 214 215 216 217 217 215 214 213 214 214 0 0 0 0 0
    0 0 0 0 0 0 0 0 0 0 0 0 0 0 0 0 0 0 0 0 0 0 0 0 0 0 0 0 0 0 0 0 0 0 0 0 0 0 0 0 0 0 0 0 0 0 0 0 0 0 0 0 0 0 0 0 0 0 0 0 0 0 0 0 0 0 0 0 0 214 213 213 212 211 213 213 212 214 214 215 -193 -193 212 213 214 215 215 214 215 216 216 218 218 218 219 219 221 220 221 220 220 221 220 220 220 218 218 218 217 217 215 215 215 214 215 215 216 216 -193 218 217 217 216 216 216 214 215 215 212 214 214 214 216 217 218 217 218 217 217 217 218 216 215 216 216 217 216 216 217 216 218 219 217 217 217 219 219 218 217 217 217 218 217 218 218 218 218 218 216 217 216 215 215 215 215 215 215 216 215 216 217 216 216 216 218 218 218 219 220 220 219 217 219 218 220 218 217 217 217 217 216 215 216 215 216 216 215 215 215 215 215 214 214 214 214 214 215 215 215 215 214 213 214 213 213 213 212 213 211 213 212 213 213 214 214 216 216 217 216 217 217 217 217 217 217 217 218 218 218 217 218 217 217 217 217 216 216 217 217 -193 216 216 215 215 214 214 214 213 215 215 214 216 215 215 215 214 215 215 214 214 213 214 213 213 213 213 212 214 213 214 213 215 214 214 214 215 214 213 214 214 213 214 214 214 214 214 215 215 216 216 215 213 213 214 214 0 0 0 0 0
    0 0 0 0 0 0 0 0 0 0 0 0 0 0 0 0 0 0 0 0 0 0 0 0 0 0 0 0 0 0 0 0 0 0 0 0 0 0 0 0 0 0 0 0 0 0 0 0 0 0 0 0 0 0 0 0 0 0 0 0 0 0 0 0 0 0 0 0 0 213 212 211 210 210 212 213 213 214 214 -209 -209 -209 -193 213 214 215 216 215 216 217 216 218 218 218 219 219 220 219 220 220 220 221 220 220 220 219 219 218 218 217 215 215 214 214 215 215 217 217 -193 218 217 217 216 216 216 214 215 215 212 214 214 214 217 217 218 217 217 217 217 217 218 216 216 216 217 217 216 217 217 217 218 219 217 217 -193 220 219 219 217 217 216 218 217 217 217 217 217 217 215 216 215 215 215 215 215 215 215 216 215 216 216 216 215 215 217 217 218 218 219 219 218 217 219 218 219 218 217 217 217 217 216 215 216 215 216 215 215 214 214 214 215 214 213 214 214 215 215 215 215 215 214 213 213 213 212 212 211 211 210 211 211 212 212 214 214 216 216 216 215 216 216 216 215 216 216 216 217 218 217 216 217 217 217 217 216 216 216 216 217 215 215 215 214 214 214 213 213 213 216 215 215 216 215 215 215 215 214 215 213 213 212 213 213 213 212 213 212 215 214 215 214 215 214 214 214 215 214 214 214 214 214 214 215 214 214 214 214 215 214 214 214 212 212 213 -193 0 0 0 0 0
    0 0 0 0 0 0 0 0 0 0 0 0 0 0 0 0 0 0 0 0 0 0 0 0 0 0 0 0 0 0 0 0 0 0 0 0 0 0 0 0 0 0 0 0 0 0 0 0 0 0 0 0 0 0 0 0 0 0 0 0 0 0 0 0 0 0 0 0 0 213 211 212 210 211 213 213 213 215 214 -209 -193 -209 211 212 214 215 216 215 216 217 216 217 217 217 218 219 220 218 219 220 220 221 220 220 220 218 219 218 217 216 215 215 214 214 215 216 217 217 -209 218 217 217 216 216 -193 214 214 215 212 214 214 215 217 217 218 217 217 217 217 218 219 216 216 216 217 217 216 217 217 217 218 219 217 218 -193 220 220 220 217 217 216 219 217 216 216 216 216 216 215 215 215 215 215 215 215 215 215 216 215 216 216 215 213 213 215 215 216 217 218 218 217 217 219 218 219 218 217 217 217 217 217 215 216 215 215 215 215 213 213 214 214 213 212 213 214 215 215 216 215 215 214 214 214 213 212 212 210 211 209 210 210 210 212 213 213 215 215 215 214 215 215 215 215 215 215 216 217 218 217 216 217 217 217 217 216 216 216 216 216 214 215 214 214 214 213 213 213 213 215 215 215 216 215 215 214 214 213 214 212 213 212 213 213 213 212 213 213 215 215 215 214 214 214 215 215 215 215 215 215 215 215 214 215 214 214 215 214 215 214 214 214 213 213 213 213 0 0 0 0 0
    0 0 0 0 0 0 0 0 0 0 0 0 0 0 0 0 0 0 0 0 0 0 0 0 0 0 0 0 0 0 0 0 0 0 0 0 0 0 0 0 0 0 0 0 0 0 0 0 0 0 0 0 0 0 0 0 0 0 0 0 0 0 0 0 0 0 0 0 0 211 210 210 209 211 213 212 213 215 215 -193 -193 -193 -193 212 214 216 216 215 216 216 216 217 217 217 218 219 219 218 220 220 220 221 220 220 220 218 218 217 217 215 215 214 214 214 216 217 218 218 -209 218 218 218 -193 -193 -193 214 -193 -193 212 214 214 214 217 -193 -193 -193 218 217 218 218 219 216 216 216 217 217 216 216 216 216 218 219 217 217 -193 221 222 220 217 217 216 219 217 215 216 216 216 216 215 215 215 215 216 215 215 215 215 216 215 216 216 215 212 211 213 213 215 216 217 217 216 217 219 218 219 218 217 217 217 218 217 215 216 215 215 215 214 212 213 214 214 212 212 213 213 215 215 215 214 215 215 214 214 213 212 212 210 211 210 211 210 210 212 213 214 -193 214 214 213 214 215 215 215 215 216 217 218 218 217 217 217 217 217 217 216 216 216 216 216 214 214 214 213 214 213 213 213 213 216 215 215 215 215 214 213 213 212 213 211 212 212 212 212 213 212 213 212 215 215 215 214 214 214 215 215 215 215 215 215 215 215 215 215 214 214 214 214 215 214 213 213 213 214 214 213 0 0 0 0 0
    0 0 0 0 0 0 0 0 0 0 0 0 0 0 0 0 0 0 0 0 0 0 0 0 0 0 0 0 0 0 0 0 0 0 0 0 0 0 0 0 0 0 0 0 0 0 0 0 0 0 0 0 0 0 0 0 0 0 0 0 0 0 0 0 0 0 0 0 0 209 -193 -193 210 212 214 -193 214 -209 -209 -177 839 -193 -209 213 -209 -209 216 215 216 216 216 217 218 218 219 220 220 220 222 221 222 222 220 220 220 219 219 217 217 215 215 214 214 214 216 217 218 218 -209 218 218 218 -193 -193 -193 -193 -193 -193 -193 215 214 214 217 -193 -193 -193 -193 -193 218 218 219 217 216 216 217 217 216 216 216 217 218 219 217 217 -209 221 222 220 -193 216 215 218 215 214 215 215 215 215 214 215 215 215 215 215 215 215 215 215 215 215 215 214 211 210 210 210 212 214 215 216 215 216 218 218 218 218 217 217 217 218 217 215 216 216 216 215 214 212 213 214 213 212 212 212 213 215 215 215 214 215 215 214 214 213 212 212 210 211 210 211 211 210 212 213 214 -193 214 213 213 214 215 214 214 215 216 218 218 218 218 217 218 217 217 217 216 216 216 216 216 214 214 213 213 213 212 214 213 213 216 214 214 214 -193 -193 211 213 211 212 211 212 212 212 212 213 211 214 213 215 215 216 215 215 215 215 215 216 216 216 215 215 215 214 215 214 215 214 214 214 213 212 214 214 215 214 214 0 0 0 0 0
    0 0 0 0 0 0 0 0 0 0 0 0 0 0 0 0 0 0 0 0 0 0 0 0 0 0 0 0 0 0 0 0 0 0 0 0 0 0 0 0 0 0 0 0 0 0 0 0 0 0 0 0 0 0 0 0 0 0 0 0 0 0 0 0 0 0 0 0 0 -193 -193 -193 -193 -193 -193 -209 -209 -209 -209 -177 -193 834 -193 214 -209 -209 -209 215 215 216 216 218 218 218 220 221 221 221 224 222 223 222 221 221 221 219 219 218 217 216 215 215 214 214 216 217 218 218 -209 -193 218 -193 -193 -193 -193 -193 -193 -193 -193 -209 -193 215 -193 -193 -177 -177 -193 -193 -193 -193 219 218 217 218 218 218 217 217 217 218 219 220 218 217 -209 221 220 -193 -193 216 -193 218 215 213 215 215 215 215 214 215 214 214 215 215 215 215 214 215 214 214 215 213 209 207 206 206 209 211 213 215 214 215 218 218 218 218 217 217 218 218 218 216 217 216 216 216 214 212 212 213 213 212 210 211 212 215 215 215 214 215 215 214 214 213 212 212 210 211 210 211 -193 209 212 212 214 -193 213 212 211 213 214 213 213 214 215 217 217 217 218 217 218 217 217 217 216 217 216 215 216 214 214 213 212 213 212 214 213 213 217 214 213 -193 -193 -193 -193 212 211 212 211 212 212 212 212 213 211 213 213 215 215 217 217 216 216 216 216 215 216 216 215 215 215 214 214 214 214 214 214 214 213 211 214 214 215 215 215 0 0 0 0 0
    0 0 0 0 0 0 0 0 0 0 0 0 0 0 0 0 0 0 0 0 0 0 0 0 0 0 0 0 0 0 0 0 0 0 0 0 0 0 0 0 0 0 0 0 0 0 0 0 0 0 0 0 0 0 0 0 0 0 0 0 0 0 0 0 0 0 0 0 0 -193 -193 318 -193 -193 -225 215 217 -193 -209 -177 -209 -193 -209 -209 -209 -209 -209 -209 215 216 217 218 219 218 221 221 222 223 225 223 224 222 222 221 221 221 220 219 219 217 217 216 216 -193 217 217 218 -209 -209 -193 218 -193 -193 -177 -177 -177 -193 -193 -209 -209 -209 -209 -193 -177 -177 -177 -177 -193 -193 -209 220 220 219 219 220 220 219 220 219 221 221 222 219 -193 -209 222 218 -209 -193 -193 -193 -193 213 212 -209 -209 215 215 214 214 214 214 215 215 215 215 214 215 214 214 215 213 206 204 204 203 207 209 212 215 214 215 219 219 218 218 218 217 218 219 218 216 217 217 216 216 214 212 212 213 212 211 209 210 211 214 214 215 214 214 214 214 214 213 212 211 209 210 209 210 -193 208 211 -193 -193 -193 212 211 210 211 213 211 212 212 215 216 216 216 217 216 217 217 217 217 216 217 216 215 217 215 215 213 213 213 213 214 214 214 -193 -193 -193 -193 0 -193 -193 -193 210 211 210 211 210 210 211 -193 210 -193 213 215 216 219 220 219 218 218 217 216 216 216 215 215 215 214 214 214 215 214 214 213 212 210 214 214 216 215 216 0 0 0 0 0
    0 0 0 0 0 0 0 0 0 0 0 0 0 0 0 0 0 0 0 0 0 0 0 0 0 0 0 0 0 0 0 0 0 0 0 0 0 0 0 0 0 0 0 0 0 0 0 0 0 0 0 0 0 0 0 0 0 0 0 0 0 0 0 0 0 0 0 0 0 -225 -225 -225 -225 -225 -225 -225 -225 -225 -225 -225 -225 -225 -193 -209 -193 -209 -209 -209 -209 -209 -209 218 220 220 222 223 224 -193 227 224 225 223 223 222 223 223 223 221 222 220 222 221 -209 -209 -209 -193 -193 -209 -209 -209 -193 -193 -193 -177 -177 -177 -177 -193 -209 -193 -193 -193 -193 -193 -177 -177 -177 -193 -193 -209 220 222 221 222 223 221 221 221 219 228 229 226 -209 -209 -209 -209 -209 -209 -209 -193 -193 -193 -193 -193 -209 -209 214 215 213 214 214 214 215 215 215 215 215 216 214 214 215 213 204 203 202 201 205 208 210 214 214 216 220 220 219 219 218 218 218 219 219 216 217 217 216 216 -193 212 211 211 211 210 207 210 210 215 214 215 214 214 215 214 214 213 211 211 209 209 209 209 -193 -193 -193 -193 -209 -193 211 209 208 210 212 210 211 210 215 216 216 216 216 216 217 217 217 217 217 217 217 215 216 214 214 212 212 213 213 214 214 -193 -193 -193 -193 -193 0 -193 -193 -193 208 209 208 -193 208 -193 -193 -193 -193 -193 -209 -209 -193 221 225 224 222 221 219 218 217 216 216 215 215 214 214 214 215 214 214 214 213 211 214 215 217 216 217 0 0 0 0 0
    0 0 0 0 0 0 0 0 0 0 0 0 0 0 0 0 0 0 0 0 0 0 0 0 0 0 0 0 0 0 0 0 0 0 0 0 0 0 0 0 0 0 0 0 0 0 0 0 0 0 0 0 0 0 0 0 0 0 0 0 0 0 0 0 0 0 0 0 0 -225 -225 -225 -225 -225 -225 -225 -225 -225 -225 -225 -225 -225 -225 -225 -225 -225 -209 79 -209 -209 -209 -209 -209 -209 -209 -193 -193 -209 -193 -193 -209 -193 223 222 223 225 226 224 227 224 232 245 -209 -209 -209 -193 796 805 -193 -209 -209 -209 -193 -209 -209 -193 669 -209 -209 -193 -193 -193 -193 -193 734 738 -177 -209 -209 341 221 225 224 224 226 223 222 222 219 -209 -209 -209 21 -193 -209 -209 -209 -209 -209 -209 -209 -209 -209 -209 -209 -209 -193 214 213 213 214 214 215 215 216 216 215 216 214 214 215 213 -193 201 201 -193 -193 765 210 214 214 216 221 220 219 219 218 218 219 219 219 217 -193 -209 -209 -209 -209 212 211 210 209 208 206 209 209 215 214 215 214 215 215 214 214 213 211 211 209 209 209 208 -193 -193 -177 -177 -209 -193 -193 207 207 209 211 209 210 210 215 216 216 216 217 217 217 218 218 217 217 218 217 215 216 214 213 211 211 212 212 213 -193 -209 -209 -193 0 0 0 0 -193 -193 -193 208 -193 -193 -209 -209 -177 -177 -177 -177 -209 -209 -209 -193 227 227 224 224 222 220 219 217 216 216 215 214 215 214 215 214 214 214 213 211 214 215 217 216 217 0 0 0 0 0
    0 0 0 0 0 0 0 0 0 0 0 0 0 0 0 0 0 0 0 0 0 0 0 0 0 0 0 0 0 0 0 0 0 0 0 0 0 0 0 0 0 0 0 0 0 0 0 0 0 0 0 0 0 0 0 0 0 0 0 0 0 0 0 0 0 0 0 0 0 -225 -225 -225 -225 -225 -225 -225 -225 -225 -225 -225 -225 -225 -225 -225 -225 -225 -225 -225 -225 -225 -225 -225 -225 -225 -225 -225 -225 -225 -225 -225 -225 -225 -225 -225 -225 -193 -225 -225 -225 -225 -225 -225 -225 -225 -225 -225 -225 -225 -225 -225 -225 -225 -225 -225 -225 -225 -225 -225 -225 -225 -225 -225 -225 -225 -225 -225 -225 -209 -209 -225 -209 228 229 -209 -193 -209 -209 -209 -209 -209 -209 14 15 19 20 18 14 14 18 -209 -209 -209 -193 -193 -209 -209 -209 -209 -209 -209 -193 -193 215 -209 -209 217 218 218 216 217 -209 -209 -209 198 -225 -225 -225 -225 -225 -225 -225 -193 223 220 219 219 218 218 219 220 220 -193 77 -177 -177 -177 -193 -193 -193 210 -193 205 204 206 205 214 213 214 214 215 215 214 215 214 -193 211 210 210 -193 -193 -193 -209 -177 -177 -193 -209 -209 -209 -209 210 212 210 211 211 216 218 217 217 219 218 219 219 219 218 217 218 217 214 215 213 212 209 210 211 211 213 -209 -209 -209 0 0 0 0 0 0 -193 -193 -193 -209 -209 -209 -209 -177 -177 -177 -177 -209 -209 -209 -193 -193 228 226 225 225 223 220 217 216 216 215 214 215 214 215 215 215 215 214 213 215 216 218 217 217 0 0 0 0 0
    0 0 0 0 0 0 0 0 0 0 0 0 0 0 0 0 0 0 0 0 0 0 0 0 0 0 0 0 0 0 0 0 0 0 0 0 0 0 0 0 0 0 0 0 0 0 0 0 0 0 0 0 0 0 0 0 0 0 0 0 0 0 0 0 0 0 0 0 0 -225 -225 -225 -225 -225 -225 -225 -225 -225 -225 -225 -225 -225 -225 -225 -225 -225 -225 -225 -225 -225 -225 -225 -225 -225 -225 -225 -225 -225 -225 -225 -225 -225 -225 -225 -225 -225 -225 -225 -225 -225 -225 -225 -225 -225 -225 -225 -225 -225 -225 -225 -225 -225 -225 -225 -225 -225 -225 -225 -225 -225 -225 -225 -225 -225 -225 -225 -225 -225 -225 -225 -225 -225 -225 -225 -225 -225 -225 -225 -225 -225 -225 -225 -225 11 0 0 0 0 0 0 -193 -177 -225 -225 -209 -225 -225 -225 -225 -225 -225 -225 -225 -225 -225 -225 -225 -225 -225 -225 -225 -225 -225 -225 -225 -225 -225 -225 -225 -225 -225 -225 -225 -225 -225 -225 218 218 220 221 -209 -209 -193 -193 -177 -209 -177 -177 -209 -209 171 -193 -193 205 202 215 213 214 213 -193 -209 216 216 -193 -193 -209 -209 -209 -209 -225 117 -209 -177 -177 -209 119 121 123 -177 -193 -209 -193 -177 216 219 222 219 219 222 220 220 220 220 219 218 219 217 213 215 214 212 208 210 210 -193 -209 -209 -193 -209 0 0 0 0 0 0 -193 -193 -209 -209 -209 -209 -209 -209 -209 -209 -177 -177 -193 -209 -209 -209 229 227 225 226 224 222 218 216 216 216 215 215 215 216 216 217 216 217 217 218 218 222 221 220 0 0 0 0 0
    0 0 0 0 0 0 0 0 0 0 0 0 0 0 0 0 0 0 0 0 0 0 0 0 0 0 0 0 0 0 0 0 0 0 0 0 0 0 0 0 0 0 0 0 0 0 0 0 0 0 0 0 0 0 0 0 0 0 0 0 0 0 0 0 0 0 0 0 0 -225 -225 -225 -225 -225 -225 -225 -225 -225 -225 -225 -225 -225 -225 -225 -225 -225 -225 -225 -225 -225 -225 -225 -225 -225 -225 -225 -225 -225 -225 -225 -225 -225 -225 -225 -225 -225 -225 -225 -225 -225 -225 -225 -225 -225 -225 -225 -225 -225 -225 -225 -225 -225 -225 -225 -225 -225 -225 -225 -225 -225 -225 -225 -225 -225 -225 -225 -225 -225 -225 -225 -225 -225 -225 -225 -225 -225 -225 -225 -225 -225 -225 -225 -225 -225 -225 -225 -225 -225 -225 -225 -225 -225 -225 -225 -225 -225 -225 -225 -225 -225 -225 -225 -225 -225 -225 -225 -225 -225 -225 -225 -225 -225 -225 -225 -225 -225 -225 -225 -225 -225 -225 -225 -225 -225 -225 -225 -225 -225 -225 -225 85 -193 -209 -209 -193 -209 -193 -225 -225 -225 -225 -225 -225 -225 -225 -225 -225 -225 -225 -225 -225 -225 -225 -225 -225 -225 -225 -225 -225 -225 -225 -225 -225 -225 -193 120 121 122 122 129 -209 -209 -177 -177 221 224 220 220 224 220 220 221 221 220 219 220 218 212 216 -193 -209 -209 -193 -209 -209 -209 -193 -209 -209 -193 -193 0 0 0 0 0 -209 -209 -193 -209 -209 -209 -209 -209 -209 -209 -209 -193 -209 -209 -177 -209 -193 226 227 228 230 225 222 220 218 217 218 216 218 218 219 218 220 221 222 227 230 232 231 0 0 0 0 0
    0 0 0 0 0 0 0 0 0 0 0 0 0 0 0 0 0 0 0 0 0 0 0 0 0 0 0 0 0 0 0 0 0 0 0 0 0 0 0 0 0 0 0 0 0 0 0 0 0 0 0 0 0 0 0 0 0 0 0 0 0 0 0 0 0 0 0 0 0 -225 -225 -225 -225 -225 -225 -225 -225 -225 -225 -225 -225 -225 -225 -225 -225 -225 -225 -225 -225 -225 -225 -225 -225 -225 -225 -225 -225 -225 -225 -225 -225 -225 -225 -225 -225 -225 -225 -225 -225 -225 -225 -225 -225 -225 -225 -225 -225 -225 -225 -225 -225 -225 -225 -225 -225 -225 -225 -225 -225 -225 -225 -225 -225 -225 -225 -225 -225 -225 -225 -225 -225 -225 -225 -225 -225 -225 -225 -225 -225 -225 -225 -225 -225 -225 -225 -225 -225 -225 -225 -225 -225 -225 -225 -225 -225 -225 -225 -225 -225 -225 -225 -225 -225 -225 -225 -225 -225 -225 -225 -225 -225 -225 -225 -225 -225 -225 -225 -225 -225 -225 -225 -225 -225 -225 -225 -225 -225 -225 -225 -225 -225 -225 -225 -225 -225 -225 -225 -225 -225 -225 -225 -225 -225 -225 -225 -225 -225 -225 -225 -225 -225 -225 -225 -225 -225 -225 -225 -225 -225 -225 -225 -225 -225 -225 -225 -225 -225 -225 -225 -225 -225 -209 217 219 221 -225 220 220 225 220 221 221 222 221 220 222 219 211 219 -193 -225 -225 -225 -225 -225 -225 132 136 -209 0 0 0 0 0 0 0 -209 -209 -209 -209 -209 -209 -209 -209 -209 -209 -209 -177 -209 -209 141 -209 -193 -193 228 229 232 230 230 229 227 225 224 220 223 223 225 224 227 230 231 -193 -209 236 -193 0 0 0 0 0
    0 0 0 0 0 0 0 0 0 0 0 0 0 0 0 0 0 0 0 0 0 0 0 0 0 0 0 0 0 0 0 0 0 0 0 0 0 0 0 0 0 0 0 0 0 0 0 0 0 0 0 0 0 0 0 0 0 0 0 0 0 0 0 0 0 0 0 0 0 -225 -225 -225 -225 -225 -225 -225 -225 -225 -225 -225 -225 -225 -225 -225 -225 -225 -225 -225 -225 -225 -225 -225 -225 -225 -225 -225 -225 -225 -225 -225 -225 -225 -225 -225 -225 -225 -225 -225 -225 -225 -225 -225 -225 -225 -225 -225 -225 -225 -225 -225 -225 -225 -225 -225 -225 -225 -225 -225 -225 -225 -225 -225 -225 -225 -225 -225 -225 -225 -225 -225 -225 -225 -225 -225 -225 -225 -225 -225 -225 -225 -225 -225 -225 -225 -225 -225 -225 -225 -225 -225 -225 -225 -225 -225 -225 -225 -225 -225 -225 -225 -225 -225 -225 -225 -225 -225 -225 -225 -225 -225 -225 -225 -225 -225 -225 -225 -225 -225 -225 -225 -225 -225 -225 -225 -225 -225 -225 -225 -225 -225 -225 -225 -225 -225 -225 -225 -225 -225 -225 -225 -225 -225 -225 -225 -225 -225 -225 -225 -225 -225 -225 -225 -225 -225 -225 -225 -225 -225 -225 -225 -225 -225 -225 -225 -225 -225 -225 -225 -225 -225 -225 -225 -225 -225 -225 -225 -225 -225 -225 -225 -225 -225 -225 -225 -225 -225 -225 -225 -225 -225 -225 -225 -225 -225 -225 -225 -225 -225 0 0 0 0 0 -193 0 0 -209 -209 -209 -209 -209 -209 -209 -209 -209 -209 -209 -209 -209 -209 -209 -209 -209 -209 229 231 233 233 233 233 233 232 232 232 231 232 233 231 232 234 234 234 -193 237 -193 0 0 0 0 0
    0 0 0 0 0 0 0 0 0 0 0 0 0 0 0 0 0 0 0 0 0 0 0 0 0 0 0 0 0 0 0 0 0 0 0 0 0 0 0 0 0 0 0 0 0 0 0 0 0 0 0 0 0 0 0 0 0 0 0 0 0 0 0 0 0 0 0 0 0 -225 -225 -225 -225 -225 -225 -225 -225 -225 -225 -225 -225 -225 -225 -225 -225 -225 -225 -225 -225 -225 -225 -225 -225 -225 -225 -225 -225 -225 -225 -225 -225 -225 -225 -225 -225 -225 -225 -225 -225 -225 -225 -225 -225 -225 -225 -225 -225 -225 -225 -225 -225 -225 -225 -225 -225 -225 -225 -225 -225 -225 -225 -225 -225 -225 -225 -225 -225 -225 -225 -225 -225 -225 -225 -225 -225 -225 -225 -225 -225 -225 -225 -225 -225 -225 -225 -225 -225 -225 -225 -225 -225 -225 -225 -225 -225 -225 -225 -225 -225 -225 -225 -225 -225 -225 -225 -225 -225 -225 -225 -225 -225 -225 -225 -225 -225 -225 -225 -225 -225 -225 -225 -225 -225 -225 -225 -225 -225 -225 -225 -225 -225 -225 -225 -225 -225 -225 -225 -225 -225 -225 -225 -225 -225 -225 -225 -225 -225 -225 -225 -225 -225 -225 -225 -225 -225 -225 -225 -225 -225 -225 -225 -225 -225 -225 -225 -225 -225 -225 -225 -225 -225 -225 -225 -225 -225 -225 -225 -225 -225 -225 -225 -225 -225 -225 -225 -225 -225 -225 -225 -225 -225 -225 -225 -225 -225 -225 -225 -225 0 0 0 0 0 -209 0 0 -209 -209 -209 -209 -209 -209 -209 -209 -209 -209 -209 -209 -177 -209 -209 -193 -193 -177 -193 231 234 234 234 236 236 235 236 236 235 235 236 235 234 235 235 235 -193 -193 -193 0 0 0 0 0
    0 0 0 0 0 0 0 0 0 0 0 0 0 0 0 0 0 0 0 0 0 0 0 0 0 0 0 0 0 0 0 0 0 0 0 0 0 0 0 0 0 0 0 0 0 0 0 0 0 0 0 0 0 0 0 0 0 0 0 0 0 0 0 0 0 0 0 0 0 -225 -225 -225 -225 -225 -225 -225 -225 -225 -225 -225 -225 -225 -225 -225 -225 -225 -225 -225 -225 0 -256 -1 -27816 -225 -225 -225 -225 -225 -225 -225 -225 -225 -225 -225 -225 -225 -225 -225 -225 -225 -225 -225 -225 -225 -225 -225 -225 -225 -225 -225 -225 -225 -225 -225 -225 -225 -225 -225 -225 -225 -225 -225 -225 -225 -225 -225 -225 -225 -225 -225 -225 -225 -225 -225 -225 -225 -225 -225 -225 -225 -225 -225 -225 -225 -225 -225 -225 -225 -225 -225 -225 -225 -225 -225 -225 -225 -225 -225 -225 -225 -225 -225 -225 -225 -225 -225 -225 -225 -225 -225 -225 -225 -225 -225 -225 -225 -225 -225 -225 -225 -225 -225 -225 -225 -225 -225 -225 -225 -225 -225 -225 -225 -225 -225 -225 -225 -225 -225 -225 -225 -225 -225 -225 -225 -225 -225 -225 -225 -225 -225 -225 -225 -225 -225 -225 -225 -225 -225 -225 -225 -225 -225 -225 -225 -225 -225 -225 -225 -225 -225 -225 -225 -225 -225 -225 -225 -225 -225 -225 -225 -225 -225 -225 -225 -225 -225 -225 -225 -225 -225 -225 -225 -225 -225 -225 -225 -225 -225 -225 -209 -209 -209 -209 -209 0 -193 -193 -209 -209 -209 -209 -209 -209 -209 -209 -209 -209 -209 -177 -193 -193 -177 -177 -177 -193 -193 234 234 236 238 237 238 238 238 238 238 240 238 237 238 237 238 240 243 -193 0 0 0 0 0
    0 0 0 0 0 0 0 0 0 0 0 0 0 0 0 0 0 0 0 0 0 0 0 0 0 0 0 0 0 0 0 0 0 0 0 0 0 0 0 0 0 0 0 0 0 0 0 0 0 0 0 0 0 0 0 0 0 0 0 0 0 0 0 0 0 0 0 0 0 -225 -225 -225 -225 -225 -225 -225 -225 -225 -225 -225 -225 -225 -225 -225 -225 -225 -225 -225 -225 -225 -225 -225 -225 -225 -225 -225 -225 -225 -225 -225 -225 -225 -225 -225 -225 -225 -225 -225 -225 -225 -225 -225 -225 -225 -225 -225 -225 -225 -225 -225 -225 -225 -225 -225 -225 -225 -225 -225 -225 -225 -225 -225 -225 -225 -225 -225 -225 -225 -225 -225 -225 -225 -225 -225 -225 -225 -225 -225 -225 -225 -225 -225 -225 -225 -225 -225 -225 -225 -225 -225 -225 -225 -225 -225 -225 -225 -225 -225 -225 -225 -225 -225 -225 -225 -225 -225 -225 -225 -225 -225 -225 -225 -225 -225 -225 -225 -225 -225 -225 -225 -225 -225 -225 -225 -225 -225 -225 -225 -225 -225 -225 -225 -225 -225 -225 -225 -225 -225 -225 -225 -225 -225 -225 -225 -225 -225 -225 -225 -225 -225 -225 -225 -225 -225 -225 -225 -225 -225 -225 -225 -225 -225 -225 -225 -225 -225 -225 -225 -225 -225 -225 -225 -225 -225 -225 -225 -225 -225 -225 -225 -225 -225 -225 -225 -225 -225 -225 -225 -225 -225 -225 -225 -225 -225 -225 -225 -225 -225 -209 -209 -209 -209 -209 -209 0 -193 -193 -193 -193 -209 -209 -209 -193 -209 -209 -209 -209 -209 -209 -209 -177 -177 -177 -177 -177 -209 235 236 238 240 239 239 240 239 239 239 241 239 239 240 239 240 242 244 244 0 0 0 0 0
    0 0 0 0 0 0 0 0 0 0 0 0 0 0 0 0 0 0 0 0 0 0 0 0 0 0 0 0 0 0 0 0 0 0 0 0 0 0 0 0 0 0 0 0 0 0 0 0 0 0 0 0 0 0 0 0 0 0 0 0 0 0 0 0 0 0 0 0 0 -225 -225 -225 -225 -225 -225 -225 -225 -225 -225 -225 -225 -225 -225 -225 -225 -225 -225 -225 -225 -225 -225 -225 -225 -225 -225 -225 -225 -225 -225 -225 -225 -225 -225 -225 -225 -225 -225 -225 -225 -225 -225 -225 -225 -225 -225 -225 -225 -225 -225 -225 -225 -225 -225 -225 -225 -225 -225 -225 -225 -225 -225 -225 -225 -225 -225 -225 -225 -225 -225 -225 -225 -225 -225 -225 -225 -225 -225 -225 -225 -225 -225 -225 -225 -225 -225 -225 -225 -225 -225 -225 -225 -225 -225 -225 -225 -225 -225 -225 -225 -225 -225 -225 -225 -225 -225 -225 -225 -225 -225 -225 -225 -225 -225 -225 -225 -225 -225 -225 -225 -225 -225 -225 -225 -225 -225 -225 -225 -225 -225 -225 -225 -225 -225 -225 -225 -225 -225 -225 -225 -225 -225 -225 -225 -225 -225 -225 -225 -225 -225 -225 -225 -225 -225 -225 -225 -225 -225 -225 -225 -225 -225 -225 -225 -225 -225 -225 -225 -225 -225 -225 -225 -225 -225 -225 -225 -225 -225 -225 -225 -225 -225 -225 -225 -225 -225 -225 -225 -225 -225 -225 -225 -225 -225 -225 -225 -225 -225 -209 -209 -209 -209 -209 -209 -209 0 0 0 0 0 -193 -193 -209 -209 -209 92 -209 -209 -177 -177 -193 -209 -193 -177 -177 -177 -209 237 238 242 243 242 241 243 241 241 241 242 240 241 242 242 242 244 246 245 0 0 0 0 0
    0 0 0 0 0 0 0 0 0 0 0 0 0 0 0 0 0 0 0 0 0 0 0 0 0 0 0 0 0 0 0 0 0 0 0 0 0 0 0 0 0 0 0 0 0 0 0 0 0 0 0 0 0 0 0 0 0 0 0 0 0 0 0 0 0 0 0 0 0 -225 -225 -225 -225 -225 -225 -225 -225 -225 -225 -225 -225 -225 -225 -225 -225 -225 -225 -225 -225 -225 -225 -225 -225 -225 -225 -225 -225 -225 -225 -225 -225 -225 -225 -225 -225 -225 -225 -225 -225 -225 -225 -225 -225 -225 -225 -225 -225 -225 -225 -225 -225 -225 -225 -225 -225 -225 -225 -225 -225 -225 -225 -225 -225 -225 -225 -225 -225 -225 -225 -225 -225 -225 -225 -225 -225 -225 -225 -225 -225 -225 -225 -225 -225 -225 -225 -225 -225 -225 -225 -225 -225 -225 -225 -225 -225 -225 -225 -225 -225 -225 -225 -225 -225 -225 -225 -225 -225 -225 -225 -225 -225 -225 -225 -225 -225 -225 -225 -225 -225 -225 -225 -225 -225 -225 -225 -225 -225 -225 -225 -225 -225 -225 -225 -225 -225 -225 -225 -225 -225 -225 -225 -225 -225 -225 -225 -225 -225 -225 -225 -225 -225 -225 -225 -225 -225 -225 -225 -225 -225 -225 -225 -225 -225 -225 -225 -225 -225 -225 -225 -225 -225 -225 -225 -225 -225 -225 -225 -225 -225 -225 -225 -225 -225 -225 -225 -225 -225 -225 -225 -225 -225 -225 -225 -225 -225 -225 -209 -209 -209 -209 -209 -209 -209 -209 0 0 0 0 0 -193 -193 -209 -209 -209 -209 -209 83 -177 -177 -177 -177 -209 -209 -209 -209 -209 -209 239 243 244 244 243 245 243 242 242 243 241 241 243 242 243 245 247 246 0 0 0 0 0
    0 0 0 0 0 0 0 0 0 0 0 0 0 0 0 0 0 0 0 0 0 0 0 0 0 0 0 0 0 0 0 0 0 0 0 0 0 0 0 0 0 0 0 0 0 0 0 0 0 0 0 0 0 0 0 0 0 0 0 0 0 0 0 0 0 0 0 0 0 -225 -225 -225 -225 -225 -225 -225 -225 -225 -225 -225 -225 -225 -225 -225 -225 -225 -225 -225 -225 -225 -225 -225 -225 -225 -225 -225 -225 -225 -225 -225 -225 -225 -225 -225 -225 -225 -225 -225 -225 -225 -225 -225 -225 -225 -225 -225 -225 -225 -225 -225 -225 -225 -225 -225 -225 -225 -225 -225 -225 -225 -225 -225 -225 -225 -225 -225 -225 -225 -225 -225 -225 -225 -225 -225 -225 -225 -225 -225 -225 -225 -225 -225 -225 -225 -225 -225 -225 -225 -225 -225 -225 -225 -225 -225 -225 -225 -225 -225 -225 -225 -225 -225 -225 -225 -225 -225 -225 -225 -225 -225 -225 -225 -225 -225 -225 -225 -225 -225 -225 -225 -225 -225 -225 -225 -225 -225 -225 -225 -225 -225 -225 -225 -225 -225 -225 -225 -225 -225 -225 -225 -225 -225 -225 -225 -225 -225 -225 -225 -225 -225 -225 -225 -225 -225 -225 -225 -225 -225 -225 -225 -225 -225 -225 -225 -225 -225 -225 -225 -225 -225 -225 -225 -225 -225 -225 -225 -225 -225 -225 -225 -225 -225 -225 -225 -225 -225 -225 -225 -225 -225 -225 -225 -225 -225 -225 -209 -209 -209 -209 -209 -209 -209 -209 -209 -209 0 0 0 0 0 0 -177 -209 -209 -209 -209 -177 -177 -177 -177 -209 -209 -177 -177 -177 -209 236 238 242 245 245 245 246 245 245 245 246 244 244 244 245 245 247 249 249 0 0 0 0 0
    0 0 0 0 0 0 0 0 0 0 0 0 0 0 0 0 0 0 0 0 0 0 0 0 0 0 0 0 0 0 0 0 0 0 0 0 0 0 0 0 0 0 0 0 0 0 0 0 0 0 0 0 0 0 0 0 0 0 0 0 0 0 0 0 0 0 0 0 0 -225 -225 -225 -225 -225 -225 -225 -225 -225 -225 -225 -225 -225 -225 -225 -225 -225 -225 -225 -225 -225 -225 -225 -225 -225 -225 -225 -225 -225 -225 -225 -225 -225 -225 -225 -225 -225 -225 -225 -225 -225 -225 -225 -225 -225 -225 -225 -225 -225 -225 -225 -225 -225 -225 -225 -225 -225 -225 -225 -225 -225 -225 -225 -225 -225 -225 -225 -225 -225 -225 -225 -225 -225 -225 -225 -225 -225 -225 -225 -225 -225 -225 -225 -225 -225 -225 -225 -225 -225 -225 -225 -225 -225 -225 -225 -225 -225 -225 -225 -225 -225 -225 -225 -225 -225 -225 -225 -225 -225 -225 -225 -225 -225 -225 -225 -225 -225 -225 -225 -225 -225 -225 -225 -225 -225 -225 -225 -225 -225 -225 -225 -225 -225 -225 -225 -225 -225 -225 -225 -225 -225 -225 -225 -225 -225 -225 -225 -225 -225 -225 -225 -225 -225 -225 -225 -225 -225 -225 -225 -225 -225 -225 -225 -225 -225 -225 -225 -225 -225 -225 -225 -225 -225 -225 -225 -225 -225 -225 -225 -225 -225 -225 -225 -225 -225 -225 -225 -225 -225 -225 -225 -225 -225 -225 -225 -209 -209 -209 -209 -209 -209 -209 -209 -209 -209 -209 -209 0 -193 0 0 0 -177 -193 -209 -209 -209 86 83 -177 -209 -209 -209 -177 -209 -209 -209 -193 237 243 246 247 247 249 248 248 248 249 248 247 247 247 247 249 250 250 0 0 0 0 0
    0 0 0 0 0 0 0 0 0 0 0 0 0 0 0 0 0 0 0 0 0 0 0 0 0 0 0 0 0 0 0 0 0 0 0 0 0 0 0 0 0 0 0 0 0 0 0 0 0 0 0 0 0 0 0 0 0 0 0 0 0 0 0 0 0 0 0 0 0 -225 -225 -225 -225 -225 -225 -225 -225 -225 -225 -225 -225 -225 -225 -225 -225 -225 -225 -225 -225 -225 -225 -225 -225 -225 -225 -225 -225 -225 -225 -225 -225 -225 -225 -225 -225 -225 -225 -225 -225 -225 -225 -225 -225 -225 -225 -225 -225 -225 -225 -225 -225 -225 -225 -225 -225 -225 -225 -225 -225 -225 -225 -225 -225 -225 -225 -225 -225 -225 -225 -225 -225 -225 -225 -225 -225 -225 -225 -225 -225 -225 -225 -225 -225 -225 -225 -225 -225 -225 -225 -225 -225 -225 -225 -225 -225 -225 -225 -225 -225 -225 -225 -225 -225 -225 -225 -225 -225 -225 -225 -225 -225 -225 -225 -225 -225 -225 -225 -225 -225 -225 -225 -225 -225 -225 -225 -225 -225 -225 -225 -225 -225 -225 -225 -225 -225 -225 -225 -225 -225 -225 -225 -225 -225 -225 -225 -225 -225 -225 -225 -225 -225 -225 -225 -225 -225 -225 -225 -225 -225 -225 -225 -225 -225 -225 -225 -225 -225 -225 -225 -225 -225 -225 -225 -225 -225 -225 -225 -225 -225 -225 -225 -225 -225 -225 -225 -225 -225 -225 -225 -225 -225 -225 -225 -225 -209 -209 -209 -209 -209 -209 -209 -209 -209 -209 -209 -209 -193 -193 0 0 0 -177 -177 -209 -209 -177 84 81 -209 -209 -209 -209 65 -209 -209 -209 -209 240 246 248 -193 250 254 -193 -193 251 254 253 251 250 251 251 251 253 253 0 0 0 0 0
    0 0 0 0 0 0 0 0 0 0 0 0 0 0 0 0 0 0 0 0 0 0 0 0 0 0 0 0 0 0 0 0 0 0 0 0 0 0 0 0 0 0 0 0 0 0 0 0 0 0 0 0 0 0 0 0 0 0 0 0 0 0 0 0 0 0 0 0 0 -225 -225 -225 -225 -225 -225 -225 -225 -225 -225 -225 -225 -225 -225 -225 -225 -225 -225 -225 -225 -225 -225 -225 -225 -225 -225 -225 -225 -225 -225 -225 -225 -225 -225 -225 -225 -225 -225 -225 -225 -225 -225 -225 -225 -225 -225 -225 -225 -225 -225 -225 -225 -225 -225 -225 -225 -225 -225 -225 -225 -225 -225 -225 -225 -225 -225 -225 -225 -225 -225 -225 -225 -225 -225 -225 -225 -225 -225 -225 -225 -225 -225 -225 -225 -225 -225 -225 -225 -225 -225 -225 -225 -225 -225 -225 -225 -225 -225 -225 -225 -225 -225 -225 -225 -225 -225 -225 -225 -225 -225 -225 -225 -225 -225 -225 -225 -225 -225 -225 -225 -225 -225 -225 -225 -225 -225 -225 -225 -225 -225 -225 -225 -225 -225 -225 -225 -225 -225 -225 -225 -225 -225 -225 -225 -225 -225 -225 -225 -225 -225 -225 -225 -225 -225 -225 -225 -225 -225 -225 -225 -225 -225 -225 -225 -225 -225 -225 -225 -225 -225 -225 -225 -225 -225 -225 -225 -225 -225 -225 -225 -225 -225 -225 -225 -225 -225 -225 -225 -225 -225 -225 -225 -225 -225 -225 -209 -209 -209 -209 -209 -209 -209 -209 -209 -209 -209 -209 -193 -193 -193 -177 0 0 0 -209 -209 88 -209 -209 -209 -209 -209 -209 -209 -209 -209 -209 -209 -193 -193 -193 -193 -193 260 -193 -193 257 259 259 256 253 255 253 253 257 256 0 0 0 0 0
    0 0 0 0 0 0 0 0 0 0 0 0 0 0 0 0 0 0 0 0 0 0 0 0 0 0 0 0 0 0 0 0 0 0 0 0 0 0 0 0 0 0 0 0 0 0 0 0 0 0 0 0 0 0 0 0 0 0 0 0 0 0 0 0 0 0 0 0 0 291 291 290 289 290 288 288 288 289 289 289 -177 290 -193 286 -177 -177 386 -193 -193 72 80 -225 -225 -225 -225 -225 -225 -225 293 -193 -193 -225 -225 -225 -225 -225 -225 -225 -225 -225 -225 -225 -225 -225 -225 -225 -225 -225 -225 -225 -225 -225 -225 -225 -225 -225 -225 -225 -225 -225 -225 -225 -225 -225 -225 -225 -225 -225 -225 -225 -225 -225 -225 -225 -225 -225 -225 -225 -225 -225 -225 -225 -225 -225 -225 -225 -225 -225 -225 -225 -225 -225 -225 -225 -225 -225 -225 -225 -225 -225 -225 -225 -225 -225 -225 -225 -225 -225 -225 -225 -225 -225 -225 -225 -225 -225 -225 -225 -225 -225 -225 -225 -225 -225 -225 -225 -225 -225 -225 -225 -225 -225 -225 -225 -225 -225 -225 -225 -225 -225 -225 -225 -225 -225 -225 -225 -225 -225 -225 -225 -225 -225 -225 -225 -225 -225 -225 -225 -225 -225 -225 -225 -225 -225 -225 -225 -225 -225 -225 -225 -225 -225 -225 -225 -225 -225 -225 -225 -225 -225 -225 -225 -225 -225 -225 -225 -225 -225 -225 -225 -225 -225 -225 -225 -209 -209 -209 -209 -209 -209 -209 -209 -209 -209 -209 -209 -209 -193 -193 -209 0 -193 -193 -209 -209 91 -209 -209 -209 -209 -209 -209 -209 -209 -209 -209 -209 252 253 259 262 261 262 -193 260 259 261 260 260 255 257 255 255 259 259 0 0 0 0 0
    0 0 0 0 0 0 0 0 0 0 0 0 0 0 0 0 0 0 0 0 0 0 0 0 0 0 0 0 0 0 0 0 0 0 0 0 0 0 0 0 0 0 0 0 0 0 0 0 0 0 0 0 0 0 0 0 0 0 0 0 0 0 0 0 0 0 0 0 0 291 290 289 288 288 288 287 287 287 287 287 286 289 285 286 284 283 283 -193 -193 -193 281 284 285 291 287 292 294 292 294 295 293 -209 -209 298 -193 -193 22 -209 148 -193 -209 -193 -193 -193 -209 287 284 -225 -225 -225 -225 -225 -225 -225 -225 -225 -225 -225 -225 -225 -225 -225 -225 -225 -225 -225 -225 -225 -225 -225 -225 -225 -225 -225 -225 -225 -225 -225 -225 -225 -225 -225 -225 -225 -225 -225 -225 -225 -225 -225 -225 -225 -225 -225 -225 -225 -225 -225 -225 -225 -225 -225 -225 -225 -225 -225 -225 -225 -225 -225 -225 -225 -225 -225 -225 -225 -225 -225 -225 -225 -225 -225 -225 -225 -225 -225 -225 -225 -225 -225 -225 -225 -225 -225 -225 -225 -225 -225 -225 -225 -225 -225 -225 -225 -225 -225 -225 -225 -225 -225 -225 -225 -225 -225 -225 -225 -225 -225 -225 -225 -225 -225 -225 -225 -225 -225 -225 -225 -225 -225 -225 -225 -225 -225 -225 -225 -225 -225 -225 -225 -225 -225 -225 -225 -225 -225 -225 -225 -225 -225 -225 -225 -225 -209 -209 -209 -209 -209 -209 -209 -209 -209 -209 -209 -209 -209 -209 -209 -209 -209 -209 -193 -209 -209 -209 -209 -209 -209 -209 -209 -209 -209 -209 -209 -209 -209 -209 254 258 262 264 264 264 264 263 261 263 261 261 255 258 256 256 260 262 0 0 0 0 0
    0 0 0 0 0 0 0 0 0 0 0 0 0 0 0 0 0 0 0 0 0 0 0 0 0 0 0 0 0 0 0 0 0 0 0 0 0 0 0 0 0 0 0 0 0 0 0 0 0 0 0 0 0 0 0 0 0 0 0 0 0 0 0 0 0 0 0 0 0 289 289 288 287 287 287 285 287 287 287 287 287 290 286 287 286 285 285 284 284 283 281 281 282 290 286 292 292 291 294 293 292 293 292 296 297 -193 -193 293 293 294 292 -193 -193 -193 286 287 285 286 -193 -193 -193 -193 -209 -193 -193 -209 -209 -209 -225 -225 -225 -225 -225 -225 -225 -225 -225 -225 -225 -225 -225 24 -209 -193 -193 -209 -209 641 -209 -209 -225 -209 -193 -225 -225 -225 -193 -193 -193 -193 102 -193 103 -177 -225 -225 -225 -225 115 124 128 129 -193 -193 284 286 287 -225 285 -225 -225 -225 -225 -225 -225 -225 -225 -225 -225 -225 -225 -225 -225 -225 -225 -225 -225 -225 -225 -225 -225 -225 -225 -225 -225 -225 -225 -225 -225 -225 -225 -225 -225 -225 -225 -225 -225 -225 -225 -225 -225 -225 -225 -225 -225 -225 -225 -225 -225 -225 -225 -225 -225 -225 -225 -225 -225 -225 -225 -225 -225 -225 -225 -225 -225 -225 -225 -225 -225 -225 -225 -225 -225 -225 -225 -225 -225 -225 -225 -225 -225 -225 -225 -209 -209 -209 -209 -209 -209 -209 -209 -209 -209 -209 -209 -209 -209 -209 -209 -209 -209 -209 -209 -209 -209 -209 -209 -209 -209 -209 -209 -209 -209 -209 -209 -209 -209 261 264 265 266 266 266 265 -193 263 265 263 263 260 262 -193 -193 -193 266 0 0 0 0 0
    0 0 0 0 0 0 0 0 0 0 0 0 0 0 0 0 0 0 0 0 0 0 0 0 0 0 0 0 0 0 0 0 0 0 0 0 0 0 0 0 0 0 0 0 0 0 0 0 0 0 0 0 0 0 0 0 0 0 0 0 0 0 0 0 0 0 0 0 0 -177 288 287 286 286 286 284 286 287 287 287 287 290 287 287 286 285 285 284 284 283 281 280 282 286 285 290 290 290 293 291 290 292 291 295 294 295 294 291 -177 -177 292 288 288 289 287 287 286 287 286 284 286 285 283 285 283 -193 -193 283 -209 -209 -209 -209 -209 -209 -209 -225 -225 765 769 771 -209 -193 284 286 286 286 286 -193 -193 -193 -193 -209 -209 -193 -193 -193 -193 -193 -193 -193 -193 -193 101 -177 -193 -193 -177 -193 -193 -177 -177 -193 -193 -193 283 285 286 285 285 287 286 286 283 284 283 287 286 288 -193 -193 -193 -193 -209 -209 -193 -193 -225 -225 -225 -225 -225 -225 -225 -193 -193 -177 -193 284 286 283 287 284 285 283 282 283 283 283 -225 -225 -225 -225 -225 -225 -225 -225 -225 -193 276 -225 -225 -225 -225 -225 -209 -225 -225 -225 -193 -193 -193 -193 277 -193 -193 -209 -209 -193 -193 -225 -193 -225 -193 -225 -225 -225 -225 -225 -225 -225 -225 -225 -225 -193 -209 -209 -209 -209 -209 -209 -209 -209 -209 -209 -209 -209 -209 -209 -209 -209 -209 -209 -209 -209 -209 -209 -209 -209 -209 -209 -209 -209 -209 -209 -209 -193 -193 265 267 267 269 268 267 267 267 265 267 264 265 262 264 264 -193 265 270 0 0 0 0 0
    0 0 0 0 0 0 0 0 0 0 0 0 0 0 0 0 0 0 0 0 0 0 0 0 0 0 0 0 0 0 0 0 0 0 0 0 0 0 0 0 0 0 0 0 0 0 0 0 0 0 0 0 0 0 0 0 0 0 0 0 0 0 0 0 0 0 0 0 0 286 287 286 285 286 286 284 285 286 287 287 287 289 287 287 287 285 285 285 284 284 282 283 283 285 285 289 289 290 292 290 290 292 291 294 293 293 293 290 289 289 291 287 288 289 286 287 286 288 286 285 286 286 284 287 284 285 282 283 -209 268 -193 -209 -209 -209 -209 -193 766 -193 -193 -193 -209 284 283 286 285 285 285 -193 -193 -193 288 290 290 291 291 292 291 291 289 290 287 288 286 287 288 291 -193 286 282 -193 -177 -193 -193 -193 282 284 285 284 285 287 286 288 285 285 284 286 285 287 -193 -193 286 288 -193 -193 -193 -193 -193 -177 -193 -193 -193 862 -209 -209 -177 -209 -193 284 284 283 286 284 284 282 282 283 283 283 283 282 281 -209 -193 -193 -193 -193 -193 -193 278 280 276 -225 -225 -225 280 278 279 -193 279 279 279 276 277 -193 278 75 -209 146 149 148 -193 0 0 0 -225 -225 -225 -225 -225 -225 -225 -225 -193 -193 -209 -209 -209 -209 -209 -209 -209 -209 -209 -209 -209 -209 -209 -209 -209 -209 -209 -209 -209 -209 -209 -209 -209 -209 -209 -209 -209 -209 -209 275 271 271 270 267 269 269 271 270 269 269 268 266 268 265 265 264 265 265 267 268 275 0 0 0 0 0
    0 0 0 0 0 0 0 0 0 0 0 0 0 0 0 0 0 0 0 0 0 0 0 0 0 0 0 0 0 0 0 0 0 0 0 0 0 0 0 0 0 0 0 0 0 0 0 0 0 0 0 0 0 0 0 0 0 0 0 0 0 0 0 0 0 0 0 0 0 287 286 286 286 286 286 284 285 286 286 287 287 289 287 287 287 286 285 285 285 285 283 284 284 285 285 289 288 290 291 289 289 291 290 293 292 292 291 288 287 287 290 286 287 287 286 287 286 288 286 285 287 286 285 287 285 286 282 284 284 279 281 284 285 289 284 287 -193 -193 284 287 285 284 283 285 284 284 285 285 283 284 288 289 288 290 290 291 289 289 288 288 287 287 285 287 287 290 285 285 283 -193 -177 -193 -193 -193 282 283 283 283 284 285 284 288 284 285 283 285 285 286 283 285 284 287 -209 -209 -193 -193 -193 -193 -193 -193 -209 -209 -209 -193 -209 -209 281 282 283 281 285 284 283 283 282 284 284 284 284 283 282 285 -193 -193 -193 -193 -193 -193 277 279 273 274 276 277 279 278 278 279 279 279 279 277 277 -193 278 -209 -209 145 148 147 -193 0 0 0 0 0 -225 -225 -225 -225 -225 -209 -209 -209 -209 -209 -209 -209 -209 -209 -209 -209 -209 -209 -209 -209 -209 -209 -209 -209 -209 -193 282 -193 -193 279 -193 -209 -209 -209 -209 -209 276 275 273 273 271 269 270 270 272 271 270 270 269 267 268 266 266 -193 -193 267 273 275 279 0 0 0 0 0
    0 0 0 0 0 0 0 0 0 0 0 0 0 0 0 0 0 0 0 0 0 0 0 0 0 0 0 0 0 0 0 0 0 0 0 0 0 0 0 0 0 0 0 0 0 0 0 0 0 0 0 0 0 0 0 0 0 0 0 0 0 0 0 0 0 0 0 0 0 287 286 285 286 287 286 284 285 286 286 287 287 289 287 287 288 286 285 285 285 285 283 284 285 285 285 288 287 289 289 288 288 290 289 292 291 290 289 287 286 286 288 286 286 287 286 287 286 288 286 285 287 286 286 287 285 286 283 285 286 281 283 286 286 290 285 286 286 283 284 287 285 284 283 285 284 284 285 285 283 283 287 287 286 288 288 289 288 288 287 287 286 287 285 286 286 288 285 285 284 -193 -193 283 282 282 282 283 282 282 282 284 282 285 283 283 282 284 284 284 283 284 284 286 -193 -193 -193 -193 286 -209 -209 -209 -209 -193 -193 -193 283 282 281 282 282 281 283 283 282 282 282 284 284 285 285 284 283 286 285 285 283 -193 -193 281 279 279 275 275 276 277 279 278 278 279 279 279 279 277 278 -193 278 -209 -209 146 149 148 -193 -193 0 -193 -193 0 -193 -209 -209 -225 -209 -209 -209 235 237 239 -209 -209 -209 -209 -209 -209 -209 -209 -209 -209 -209 -209 283 281 281 281 281 280 279 278 278 278 278 277 275 274 277 277 275 275 274 271 272 272 273 272 271 271 270 268 269 266 266 -193 -193 268 275 -193 280 0 0 0 0 0
    0 0 0 0 0 0 0 0 0 0 0 0 0 0 0 0 0 0 0 0 0 0 0 0 0 0 0 0 0 0 0 0 0 0 0 0 0 0 0 0 0 0 0 0 0 0 0 0 0 0 0 0 0 0 0 0 0 0 0 0 0 0 0 0 0 0 0 0 0 287 286 285 286 286 286 284 285 286 286 286 287 289 287 286 288 286 285 285 285 285 283 284 285 284 285 287 286 288 289 288 288 290 289 292 291 290 290 287 287 286 288 286 286 287 286 286 286 288 286 285 287 286 285 286 285 285 282 284 284 280 282 284 285 290 285 286 285 283 283 286 284 283 282 284 284 283 285 285 283 283 287 286 285 287 287 287 286 287 286 286 286 287 285 286 287 288 285 286 284 284 282 283 282 282 282 283 283 282 283 284 282 285 283 282 282 283 283 283 282 283 283 285 -193 -193 -193 -193 286 288 -209 -209 284 283 284 -193 283 282 281 282 282 280 282 282 282 282 282 284 284 284 284 283 283 286 285 284 283 282 282 282 280 281 278 277 278 279 280 279 278 278 278 279 279 277 278 278 279 -209 280 -193 -193 149 -209 -209 -193 -193 -193 0 -193 -209 -193 -193 -209 -209 -209 235 237 240 -209 -209 -209 -209 -209 -209 284 -193 -193 -209 -209 284 283 281 281 281 281 280 279 278 278 278 277 276 275 274 276 277 275 275 275 273 274 273 274 273 272 272 272 268 269 265 266 -209 -209 -193 -193 -209 280 0 0 0 0 0
    0 0 0 0 0 0 0 0 0 0 0 0 0 0 0 0 0 0 0 0 0 0 0 0 0 0 0 0 0 0 0 0 0 0 0 0 0 0 0 0 0 0 0 0 0 0 0 0 0 0 0 0 0 0 0 0 0 0 0 0 0 0 0 0 0 0 0 0 0 287 286 285 286 286 286 284 284 285 285 286 286 288 287 286 288 286 285 286 285 285 284 284 285 284 285 287 286 288 289 288 289 290 290 292 292 291 291 288 287 287 288 287 286 287 286 286 287 289 286 286 287 286 285 285 284 284 282 283 283 280 281 283 284 288 285 286 286 283 283 285 284 283 282 283 283 283 284 285 284 284 287 286 285 286 286 286 286 286 285 286 286 287 286 287 287 288 286 287 285 285 283 284 283 282 282 283 283 283 283 284 283 285 283 283 282 283 283 283 282 283 283 284 284 284 284 285 286 287 -193 283 284 284 284 283 282 282 281 282 282 280 282 282 282 282 282 284 284 284 284 283 282 285 284 283 283 282 282 282 281 282 280 279 279 280 281 280 279 278 278 279 279 277 279 279 280 280 280 279 279 -193 -193 -209 -209 -193 -209 -193 -193 -209 -193 -193 -209 -209 -209 -193 -193 238 -209 -209 -209 -209 -209 -209 284 -193 -193 -193 -193 284 283 282 281 281 281 280 279 278 278 278 277 276 274 273 275 275 273 274 275 275 275 275 275 274 273 274 275 270 269 265 -209 -209 -209 -209 -209 -209 282 0 0 0 0 0
    0 0 0 0 0 0 0 0 0 0 0 0 0 0 0 0 0 0 0 0 0 0 0 0 0 0 0 0 0 0 0 0 0 0 0 0 0 0 0 0 0 0 0 0 0 0 0 0 0 0 0 0 0 0 0 0 0 0 0 0 0 0 0 0 0 0 0 0 0 287 286 285 286 287 286 284 285 285 284 285 286 287 287 285 288 286 286 286 285 286 285 284 285 284 285 286 285 288 287 286 288 288 289 291 289 289 289 288 286 286 287 287 286 287 286 286 287 289 287 286 287 286 285 286 285 284 282 283 283 281 282 283 284 287 286 287 287 284 284 285 284 283 282 283 283 283 284 285 284 284 287 286 285 285 285 285 285 284 284 284 285 286 286 287 287 288 286 287 286 286 283 284 283 283 283 283 283 283 283 285 283 285 283 283 283 283 283 283 282 283 283 284 284 284 284 285 285 286 283 283 285 284 284 283 283 282 281 282 282 281 282 282 282 282 282 284 284 284 284 283 282 284 284 283 282 282 283 282 282 283 281 281 281 281 282 281 280 280 279 279 280 278 279 279 280 280 280 279 279 279 280 279 279 -209 279 279 -209 -193 283 -193 -193 282 283 -209 -209 -209 -209 -209 -209 -209 -209 290 285 -193 -193 -193 286 285 284 282 281 281 281 279 279 278 277 278 276 274 272 270 272 272 270 274 274 276 276 276 276 276 276 277 277 277 274 275 -209 -209 -209 -193 287 285 283 0 0 0 0 0
    0 0 0 0 0 0 0 0 0 0 0 0 0 0 0 0 0 0 0 0 0 0 0 0 0 0 0 0 0 0 0 0 0 0 0 0 0 0 0 0 0 0 0 0 0 0 0 0 0 0 0 0 0 0 0 0 0 0 0 0 0 0 0 0 0 0 0 0 0 287 286 285 286 287 286 284 285 285 284 285 286 287 287 285 288 285 285 286 285 285 285 284 285 284 285 285 284 287 285 285 285 286 287 288 286 286 286 286 285 284 285 286 286 287 286 286 287 289 287 287 286 286 285 286 285 284 282 283 283 281 282 283 283 287 286 287 288 285 284 285 285 283 283 283 283 283 284 284 284 284 287 285 284 284 284 284 284 284 284 284 285 286 286 287 287 287 285 286 285 284 283 283 282 282 282 283 283 283 283 285 283 285 284 283 283 283 282 282 281 282 282 283 283 284 284 285 285 285 284 284 285 284 284 283 283 283 282 282 282 281 282 282 282 282 282 283 284 283 284 283 282 284 284 283 282 282 282 282 283 283 282 281 282 282 283 282 281 281 281 280 281 279 279 280 280 281 280 280 280 279 280 280 279 279 279 279 280 281 282 282 281 282 282 -193 -193 -193 -209 -209 -209 -209 -193 287 -193 -193 -193 283 285 285 284 282 281 281 281 279 279 278 277 277 274 272 271 268 269 271 269 273 274 276 276 277 277 277 277 278 278 278 277 281 281 285 291 288 288 286 284 0 0 0 0 0
    0 0 0 0 0 0 0 0 0 0 0 0 0 0 0 0 0 0 0 0 0 0 0 0 0 0 0 0 0 0 0 0 0 0 0 0 0 0 0 0 0 0 0 0 0 0 0 0 0 0 0 0 0 0 0 0 0 0 0 0 0 0 0 0 0 0 0 0 0 287 286 285 286 287 286 285 285 285 284 285 285 286 287 284 287 285 285 286 285 285 285 284 285 283 284 285 284 287 284 285 285 285 286 287 285 285 284 285 283 283 284 286 285 286 286 286 287 289 287 287 286 286 285 286 285 284 282 283 283 281 282 283 283 286 286 286 287 284 284 285 284 283 282 282 283 282 283 284 284 284 287 285 284 283 284 284 283 283 283 283 285 286 285 286 286 285 284 285 283 284 282 283 282 282 282 282 283 283 283 285 283 285 284 283 283 282 282 281 281 281 281 282 283 283 283 285 285 285 284 283 285 284 284 284 283 283 282 282 282 281 282 281 282 282 282 282 283 282 283 282 282 285 285 284 283 283 283 283 283 283 282 281 282 282 283 282 282 281 281 281 281 279 280 280 281 280 280 280 280 279 280 280 279 278 279 279 278 280 281 281 280 282 282 284 284 287 284 -193 281 283 285 284 282 280 280 282 285 284 283 282 281 281 281 279 278 278 277 277 273 272 272 269 270 273 272 275 274 276 276 277 277 278 278 278 278 279 279 282 284 288 292 287 286 285 283 0 0 0 0 0
    0 0 0 0 0 0 0 0 0 0 0 0 0 0 0 0 0 0 0 0 0 0 0 0 0 0 0 0 0 0 0 0 0 0 0 0 0 0 0 0 0 0 0 0 0 0 0 0 0 0 0 0 0 0 0 0 0 0 0 0 0 0 0 0 0 0 0 0 0 287 286 286 286 287 287 285 285 284 284 285 285 285 286 284 287 285 285 285 285 285 285 284 285 284 285 285 285 288 285 285 285 285 286 287 285 285 284 285 283 282 283 286 284 286 286 286 286 288 287 287 286 286 285 285 285 284 282 283 282 281 282 282 282 285 285 285 286 284 284 284 283 283 282 282 282 281 283 283 283 283 286 284 283 283 283 283 283 283 283 283 284 285 285 285 285 284 283 284 283 283 282 283 282 281 282 282 282 283 283 284 283 284 284 283 282 282 281 280 280 281 280 281 282 282 283 284 285 285 284 283 285 284 285 284 283 283 283 283 283 281 282 281 281 282 282 282 283 282 283 283 283 286 285 284 283 284 284 283 284 283 282 282 281 282 282 282 282 281 281 281 281 280 280 281 281 281 281 281 281 280 281 281 279 278 279 278 277 279 280 280 279 282 281 283 284 286 282 281 282 283 284 283 283 280 280 282 284 283 283 282 281 280 280 279 278 277 277 276 273 273 273 271 273 275 274 275 274 276 275 277 277 278 278 278 278 279 280 285 288 291 293 289 286 286 283 0 0 0 0 0
    0 0 0 0 0 0 0 0 0 0 0 0 0 0 0 0 0 0 0 0 0 0 0 0 0 0 0 0 0 0 0 0 0 0 0 0 0 0 0 0 0 0 0 0 0 0 0 0 0 0 0 0 0 0 0 0 0 0 0 0 0 0 0 0 0 0 0 0 0 288 287 286 286 287 287 285 285 284 284 285 285 285 286 284 286 284 284 285 284 285 284 284 285 284 285 285 285 288 285 285 285 284 286 286 284 284 284 285 284 283 283 287 284 286 286 285 286 288 287 287 285 286 285 285 284 284 282 283 283 282 282 282 282 285 285 285 285 283 283 283 283 282 281 281 282 281 283 283 283 283 285 283 283 282 283 283 282 283 283 282 284 284 284 284 284 283 282 283 282 283 282 283 282 281 282 282 282 283 283 284 283 284 284 283 282 282 281 280 280 280 281 281 282 282 282 284 285 284 283 283 285 284 285 284 283 283 283 283 283 281 281 281 281 281 282 282 282 282 283 282 283 284 285 283 283 284 284 284 285 283 282 282 281 282 282 282 282 282 282 282 282 281 281 281 282 281 281 281 281 281 281 281 279 278 279 278 277 278 279 279 278 282 282 283 284 286 281 281 281 282 282 283 282 280 280 282 284 283 283 282 280 280 280 279 278 277 277 276 273 275 274 272 274 276 276 276 276 277 276 277 278 278 278 278 279 280 280 284 288 290 294 290 287 287 283 0 0 0 0 0
    0 0 0 0 0 0 0 0 0 0 0 0 0 0 0 0 0 0 0 0 0 0 0 0 0 0 0 0 0 0 0 0 0 0 0 0 0 0 0 0 0 0 0 0 0 0 0 0 0 0 0 0 0 0 0 0 0 0 0 0 0 0 0 0 0 0 0 0 0 287 286 286 286 286 286 285 285 284 284 285 285 285 286 284 286 284 284 284 283 284 284 283 284 283 284 285 284 286 284 284 285 284 285 285 284 284 284 285 284 283 284 287 285 287 286 286 286 288 286 286 285 287 284 285 284 284 282 283 283 282 282 282 282 284 285 284 284 283 283 283 282 282 281 281 282 281 283 283 283 283 285 283 283 282 283 283 283 283 283 283 284 284 284 284 284 283 282 283 282 283 282 283 283 282 282 282 283 283 283 284 283 283 284 283 282 281 281 280 280 280 281 281 282 282 282 285 284 284 283 283 285 284 285 284 283 283 283 283 283 281 281 280 281 281 281 281 281 280 281 280 281 282 283 281 282 284 284 283 284 283 283 282 281 282 282 282 283 283 283 283 283 282 282 282 283 282 281 281 281 281 281 281 279 278 278 278 277 277 279 279 279 281 282 283 284 286 281 281 281 281 281 281 281 278 279 281 283 283 283 283 281 280 280 279 278 278 277 277 274 276 275 273 276 277 277 278 277 278 277 278 279 279 279 279 280 281 281 285 290 291 294 291 289 289 284 0 0 0 0 0
    0 0 0 0 0 0 0 0 0 0 0 0 0 0 0 0 0 0 0 0 0 0 0 0 0 0 0 0 0 0 0 0 0 0 0 0 0 0 0 0 0 0 0 0 0 0 0 0 0 0 0 0 0 0 0 0 0 0 0 0 0 0 0 0 0 0 0 0 0 287 286 285 285 285 285 284 284 283 283 285 285 285 285 283 286 284 284 285 283 283 283 283 284 283 284 284 284 286 284 284 285 283 285 285 284 284 284 285 284 283 284 286 285 286 286 286 286 288 286 287 285 288 284 285 284 283 282 283 282 282 281 282 282 283 285 284 284 283 283 283 283 282 282 281 282 282 283 283 283 283 285 284 283 282 283 283 284 284 284 283 284 284 284 284 284 283 282 282 281 282 282 283 282 281 282 282 284 284 284 285 284 284 285 284 283 282 280 280 280 281 280 281 282 281 282 285 284 283 282 282 284 283 285 283 282 282 283 282 283 281 281 280 280 280 281 280 281 279 279 278 279 280 282 280 281 283 284 283 283 283 282 282 281 281 282 281 283 283 285 284 284 284 283 283 284 282 282 282 282 281 281 281 279 278 278 277 276 276 277 278 279 281 282 284 284 286 281 281 281 282 281 280 281 277 277 280 282 283 282 283 281 280 280 279 279 278 278 277 273 276 274 274 -193 275 274 276 275 277 276 279 280 281 280 280 281 283 283 286 290 290 -209 290 288 288 283 0 0 0 0 0
    0 0 0 0 0 0 0 0 0 0 0 0 0 0 0 0 0 0 0 0 0 0 0 0 0 0 0 0 0 0 0 0 0 0 0 0 0 0 0 0 0 0 0 0 0 0 0 0 0 0 0 0 0 0 0 0 0 0 0 0 0 0 0 0 0 0 0 0 0 287 286 285 284 284 284 283 284 283 283 285 285 285 286 284 286 285 285 285 284 284 284 283 284 283 284 284 284 286 284 284 284 283 285 284 284 283 283 284 283 283 283 286 285 286 285 285 286 287 286 287 285 288 285 286 285 284 283 284 283 283 282 283 282 283 285 284 284 283 284 284 283 282 282 281 283 282 283 283 282 283 285 284 284 283 284 283 284 284 284 283 284 283 283 283 283 282 282 281 281 282 282 282 282 281 282 282 283 283 283 284 284 284 285 284 283 282 281 281 281 281 280 280 281 281 280 283 282 281 281 281 282 282 284 283 282 282 282 282 282 281 281 280 280 280 281 280 280 279 279 277 278 278 281 279 281 284 285 281 282 282 281 281 281 281 281 281 284 284 286 284 285 284 283 284 284 282 282 282 282 281 281 280 279 277 277 277 275 274 275 277 278 280 281 283 283 284 281 281 281 282 282 279 279 276 276 278 280 281 280 -209 280 279 279 -193 -193 -193 278 277 273 277 276 -193 -193 275 274 275 275 278 276 278 280 282 281 281 282 283 283 286 287 286 288 287 286 286 283 0 0 0 0 0
    0 0 0 0 0 0 0 0 0 0 0 0 0 0 0 0 0 0 0 0 0 0 0 0 0 0 0 0 0 0 0 0 0 0 0 0 0 0 0 0 0 0 0 0 0 0 0 0 0 0 0 0 0 0 0 0 0 0 0 0 0 0 0 0 0 0 0 0 0 286 285 285 284 283 284 283 284 282 284 285 285 286 286 284 287 285 285 285 284 284 284 283 284 283 284 285 284 286 285 284 284 283 284 284 283 282 282 282 282 282 282 284 284 285 284 284 285 287 286 287 285 288 285 287 285 286 285 286 284 284 283 283 282 283 284 284 283 283 283 284 284 283 282 282 283 282 283 283 282 282 285 284 284 283 284 284 284 284 284 283 283 282 282 282 282 282 281 281 281 281 281 282 282 281 281 282 282 283 283 283 283 283 284 283 282 281 281 281 281 281 280 280 281 280 280 282 281 280 279 280 281 281 282 282 281 281 282 281 282 280 280 279 280 280 280 279 279 278 278 276 278 278 279 279 282 284 284 280 281 281 280 281 281 280 281 281 284 285 286 284 284 283 283 283 283 282 281 281 281 281 281 280 278 277 277 276 275 272 272 274 275 279 281 284 283 283 280 281 281 282 281 278 276 275 275 277 278 278 278 -209 -193 278 279 279 279 278 279 278 274 279 -193 -209 -209 -209 280 278 278 280 278 278 279 282 281 281 281 280 281 283 283 283 283 284 284 285 282 0 0 0 0 0
    0 0 0 0 0 0 0 0 0 0 0 0 0 0 0 0 0 0 0 0 0 0 0 0 0 0 0 0 0 0 0 0 0 0 0 0 0 0 0 0 0 0 0 0 0 0 0 0 0 0 0 0 0 0 0 0 0 0 0 0 0 0 0 0 0 0 0 0 0 287 285 285 284 283 283 282 284 283 285 286 286 287 287 286 288 286 286 285 284 284 284 284 285 284 285 285 285 287 286 285 284 284 284 284 283 282 281 281 281 281 281 283 284 284 284 284 284 286 286 287 285 287 285 288 286 286 285 286 285 285 283 284 282 283 283 283 282 282 282 282 282 282 282 281 282 282 282 283 282 282 283 284 284 283 285 284 284 284 285 283 283 282 282 281 282 281 281 280 280 280 280 281 281 280 281 281 282 282 282 283 283 283 283 283 282 281 280 280 280 280 280 279 280 280 279 281 280 279 279 279 280 280 282 282 281 281 282 281 281 280 280 279 279 279 279 278 278 278 278 275 276 277 278 279 281 283 281 280 280 280 280 281 281 280 281 281 284 285 286 284 283 282 282 282 282 281 281 280 281 280 280 280 278 278 277 276 275 271 272 274 275 277 281 283 282 282 280 280 280 280 279 276 274 273 273 275 276 276 277 -193 -193 278 278 279 279 279 280 280 278 281 282 284 284 282 282 280 280 281 281 279 279 281 280 280 280 278 278 -193 280 281 279 281 281 282 281 0 0 0 0 0
    0 0 0 0 0 0 0 0 0 0 0 0 0 0 0 0 0 0 0 0 0 0 0 0 0 0 0 0 0 0 0 0 0 0 0 0 0 0 0 0 0 0 0 0 0 0 0 0 0 0 0 0 0 0 0 0 0 0 0 0 0 0 0 0 0 0 0 0 0 287 285 286 284 283 282 281 283 283 286 286 286 287 287 286 289 287 286 286 285 284 285 285 285 284 285 286 286 287 287 286 285 285 286 285 284 283 282 282 281 282 282 283 284 284 284 284 285 286 286 286 285 287 286 288 286 287 286 286 286 285 284 284 283 283 282 282 282 281 282 282 282 283 282 282 283 283 283 283 283 283 283 284 285 283 285 285 284 285 285 284 283 281 281 280 281 281 281 280 280 280 280 280 281 280 281 281 281 281 282 282 283 283 283 283 282 281 281 280 281 281 280 280 280 279 279 280 279 279 279 279 279 280 -193 281 281 281 282 281 281 280 280 279 279 279 280 279 279 278 278 276 276 277 279 280 282 283 282 280 281 281 280 280 280 279 280 280 283 284 286 284 283 282 282 282 281 281 280 280 281 280 280 279 278 278 276 276 275 271 273 276 277 279 281 283 283 281 280 280 280 280 279 277 275 274 274 276 276 276 277 277 277 278 278 279 278 279 280 281 279 282 283 286 285 283 282 279 280 280 280 277 277 279 278 278 276 275 276 -193 277 278 276 278 280 281 281 0 0 0 0 0
    0 0 0 0 0 0 0 0 0 0 0 0 0 0 0 0 0 0 0 0 0 0 0 0 0 0 0 0 0 0 0 0 0 0 0 0 0 0 0 0 0 0 0 0 0 0 0 0 0 0 0 0 0 0 0 0 0 0 0 0 0 0 0 0 0 0 0 0 0 287 285 286 284 283 282 281 283 283 287 287 286 287 287 287 289 288 286 286 285 284 286 285 286 285 285 286 287 287 288 286 286 285 286 285 284 283 283 282 282 283 283 283 284 284 284 284 285 286 286 286 285 287 287 289 286 287 287 287 287 286 285 285 283 283 282 282 281 280 282 282 282 283 283 283 284 284 284 283 283 283 283 284 286 284 285 285 284 285 285 283 283 281 280 280 281 280 281 281 281 280 280 280 281 280 281 281 281 281 282 282 283 282 283 282 282 281 281 281 281 281 281 280 280 279 279 280 278 278 278 279 279 280 -209 -193 -193 280 281 280 281 280 280 279 280 280 280 279 279 279 279 278 277 279 280 281 283 284 283 281 282 282 281 281 280 279 280 281 283 284 286 284 283 282 282 281 281 281 280 279 281 281 280 280 279 278 276 276 276 272 273 276 277 279 281 282 282 281 280 281 282 282 281 279 278 277 277 278 277 277 277 277 277 278 278 278 277 279 279 279 278 280 281 284 283 282 281 279 279 279 278 276 275 277 276 275 275 276 -193 -193 277 -193 -193 278 280 281 281 0 0 0 0 0
    0 0 0 0 0 0 0 0 0 0 0 0 0 0 0 0 0 0 0 0 0 0 0 0 0 0 0 0 0 0 0 0 0 0 0 0 0 0 0 0 0 0 0 0 0 0 0 0 0 0 0 0 0 0 0 0 0 0 0 0 0 0 0 0 0 0 0 0 0 288 285 287 285 283 281 281 284 285 290 289 288 289 288 288 290 289 287 287 286 285 286 286 286 285 285 286 287 286 288 286 286 285 286 285 285 283 283 282 282 283 283 283 285 284 284 284 286 287 287 287 286 287 288 290 287 288 287 287 288 286 285 285 283 284 282 282 281 280 283 283 283 285 284 284 285 285 285 284 284 284 283 284 286 284 286 285 285 285 285 284 283 281 280 280 281 281 281 281 281 280 280 280 -193 280 281 280 281 281 281 282 282 282 282 282 282 281 281 281 282 282 281 280 280 279 279 280 278 278 279 -193 -193 -193 -209 -209 -193 280 280 279 279 279 279 279 279 279 279 278 278 279 279 278 277 279 281 282 283 284 283 281 282 282 282 281 280 279 280 281 284 285 287 285 283 283 283 281 281 281 280 279 280 280 279 279 279 278 275 276 276 273 273 277 278 280 281 282 282 281 281 281 284 283 283 283 280 280 280 281 280 279 278 278 277 278 278 278 277 279 278 278 277 279 280 282 282 281 280 279 278 279 278 275 274 276 275 275 275 276 277 277 278 279 279 279 280 280 281 0 0 0 0 0
    0 0 0 0 0 0 0 0 0 0 0 0 0 0 0 0 0 0 0 0 0 0 0 0 0 0 0 0 0 0 0 0 0 0 0 0 0 0 0 0 0 0 0 0 0 0 0 0 0 0 0 0 0 0 0 0 0 0 0 0 0 0 0 0 0 0 0 0 0 290 286 288 286 284 281 280 282 288 293 291 288 290 290 290 291 290 288 288 287 286 287 287 287 285 285 287 287 286 288 286 286 286 287 285 285 283 283 281 282 283 283 282 284 283 283 284 286 287 287 287 287 287 289 290 287 288 287 287 288 287 286 285 283 284 282 282 281 279 283 283 284 286 285 285 286 285 286 284 285 284 283 284 286 284 285 284 284 -193 285 283 283 281 280 280 -193 281 282 282 282 281 281 281 -193 -193 281 281 280 280 281 282 282 282 282 282 282 281 281 281 282 282 281 280 280 279 280 280 -193 278 279 -193 -193 -193 -209 -193 -193 279 280 279 279 279 279 279 279 279 279 279 279 279 279 279 278 279 281 281 283 283 283 281 281 282 282 281 280 280 281 281 284 285 287 284 283 283 283 281 281 281 280 279 280 280 279 279 279 278 275 276 276 274 275 278 279 280 281 282 281 281 281 282 286 284 284 286 282 282 282 282 281 280 279 279 278 279 279 279 278 279 278 280 278 279 279 282 282 281 280 279 278 279 278 275 273 275 274 275 276 277 278 279 280 281 281 281 280 279 280 0 0 0 0 0
    0 0 0 0 0 0 0 0 0 0 0 0 0 0 0 0 0 0 0 0 0 0 0 0 0 0 0 0 0 0 0 0 0 0 0 0 0 0 0 0 0 0 0 0 0 0 0 0 0 0 0 0 0 0 0 0 0 0 0 0 0 0 0 0 0 0 0 0 0 292 288 292 291 291 282 -193 283 298 296 291 289 290 291 291 292 291 289 289 289 287 289 289 288 286 286 288 288 288 289 287 287 287 288 286 286 283 283 281 281 282 281 281 284 283 283 284 286 287 287 288 287 286 290 291 288 289 288 288 289 287 287 286 284 284 282 282 281 280 284 283 285 287 286 286 286 286 286 284 286 284 282 284 -193 -193 285 -193 -193 -193 283 282 282 279 279 279 -193 280 281 281 -193 281 280 280 -193 -193 280 280 279 279 281 281 282 282 282 282 281 281 281 281 282 281 280 280 280 279 280 280 279 278 279 -193 -209 -209 -209 -193 -193 279 280 -193 278 279 279 280 280 280 280 280 280 280 281 281 280 280 282 282 283 283 283 281 282 282 282 281 281 280 281 281 284 284 286 283 282 281 281 280 280 281 280 279 280 280 280 279 279 279 275 277 276 272 273 276 278 279 281 283 282 281 283 286 290 286 286 289 283 283 283 283 282 281 280 280 278 280 280 279 279 280 280 281 281 281 280 283 282 281 281 280 279 279 279 276 273 275 274 276 277 278 279 281 282 283 283 283 281 280 281 0 0 0 0 0
    0 0 0 0 0 0 0 0 0 0 0 0 0 0 0 0 0 0 0 0 0 0 0 0 0 0 0 0 0 0 0 0 0 0 0 0 0 0 0 0 0 0 0 0 0 0 0 0 0 0 0 0 0 0 0 0 0 0 0 0 0 0 0 0 0 0 0 0 0 294 291 295 295 296 295 298 300 304 302 295 290 291 291 292 292 291 289 289 290 288 290 290 289 288 288 289 289 289 291 288 288 289 289 287 286 284 283 279 279 -209 -177 -209 -193 283 283 284 285 286 287 288 287 285 290 291 289 290 289 288 290 289 288 286 284 284 282 282 282 280 284 282 284 287 286 286 286 285 285 284 287 285 282 284 -193 -193 -193 -193 -209 -193 281 281 -193 -193 278 278 -193 280 281 282 -193 281 280 280 -193 -193 280 279 279 279 281 281 282 282 281 282 281 281 281 281 282 281 281 281 280 279 -193 -193 -193 -193 -193 -209 -209 -209 -209 -193 -193 280 -193 -209 279 279 280 280 281 281 282 281 282 282 283 282 281 281 283 282 283 283 283 281 282 282 283 282 281 280 282 283 283 284 285 280 279 279 279 278 278 279 278 278 280 279 280 279 280 280 276 278 277 272 274 277 279 281 281 283 282 281 284 286 290 286 285 288 283 283 283 283 282 281 280 279 278 280 280 280 280 280 280 282 282 282 282 283 282 281 282 281 280 280 279 276 273 275 275 277 278 279 280 -193 283 284 285 285 283 281 282 0 0 0 0 0
    0 0 0 0 0 0 0 0 0 0 0 0 0 0 0 0 0 0 0 0 0 0 0 0 0 0 0 0 0 0 0 0 0 0 0 0 0 0 0 0 0 0 0 0 0 0 0 0 0 0 0 0 0 0 0 0 0 0 0 0 0 0 0 0 0 0 0 0 0 295 292 296 298 299 300 302 308 310 309 303 287 290 291 292 292 291 289 289 292 289 291 291 290 289 290 291 291 290 292 290 290 291 291 289 286 285 283 -193 747 750 -177 -177 754 -193 284 285 286 288 289 288 287 284 288 289 288 289 288 287 289 288 288 286 284 283 282 282 282 279 283 282 283 287 286 286 286 285 286 284 288 285 282 -193 -209 -209 -209 -209 -209 159 -209 -193 -193 -193 -193 -193 -193 279 280 282 -193 280 -193 -193 596 596 -209 -209 278 278 -209 -193 282 282 281 281 281 281 281 281 282 282 281 -193 -193 279 -209 -209 -193 -193 -193 -193 -193 157 -193 -193 -193 -193 -209 -193 -209 280 280 281 282 282 282 282 282 283 284 283 282 281 284 283 283 283 283 282 283 283 284 282 282 281 283 284 282 284 284 278 277 277 277 276 277 279 278 278 279 279 280 280 281 281 278 279 279 276 278 279 280 281 282 283 283 282 284 285 290 285 285 289 284 284 284 284 283 281 280 280 278 280 280 280 281 281 280 282 282 283 283 283 282 281 283 282 281 281 281 277 275 277 277 278 280 281 282 284 285 286 287 287 285 283 283 0 0 0 0 0</data></disparity>
</opencv_storage>
