<?xml version="1.0"?>
<opencv_storage>
<gps_time_stamp>37391</gps_time_stamp>
<gps_x>-1.3310430526733398e+001</gps_x>
<gps_y>1.4178928136825562e+000</gps_y>
<gps_z>-3.7139081954956055e+000</gps_z>
<image_time_stamp>25264</image_time_stamp>
<disparity type_id="opencv-matrix">
  <rows>90</rows>
  <cols>320</cols>
  <dt>s</dt>
  <data>
    0 0 0 0 0 0 0 0 0 0 0 0 0 0 0 0 0 0 0 0 0 0 0 0 0 0 0 0 0 0 0 0 0 0 0 0 0 0 0 0 0 0 0 0 0 0 0 0 0 0 0 0 0 0 0 0 0 0 0 0 0 0 0 0 0 0 0 0 0 0 0 0 0 0 0 -193 0 0 0 0 9 10 0 0 0 0 0 0 0 0 0 0 0 0 0 0 0 0 0 0 0 0 0 0 0 0 0 0 0 0 0 0 0 0 0 0 0 0 0 0 0 0 0 9 10 0 0 0 0 0 0 0 0 0 0 0 0 0 0 0 0 9 0 0 0 0 0 -193 -209 -209 -193 11 10 11 12 0 0 0 0 0 0 0 0 0 0 0 0 0 0 -209 11 20 14 13 13 12 13 12 11 12 9 10 9 10 11 10 11 12 11 10 12 13 12 12 0 0 0 0 0 0 0 0 0 10 0 0 0 13 11 14 13 13 12 13 14 18 12 14 12 14 14 16 16 14 11 19 15 14 15 16 16 -193 -193 24 25 29 32 32 30 33 30 30 31 -193 -193 -193 -193 -193 20 21 20 14 20 21 21 19 15 15 21 19 19 20 22 22 21 21 21 20 23 23 23 24 25 29 29 29 28 29 29 29 28 28 26 25 26 26 26 25 26 28 27 27 28 28 28 29 30 31 29 31 31 30 32 30 28 30 31 30 30 31 32 31 37 38 38 0 0 0 0 0
    0 0 0 0 0 0 0 0 0 0 0 0 0 0 0 0 0 0 0 0 0 0 0 0 0 0 0 0 0 0 0 0 0 0 0 0 0 0 0 0 0 0 0 0 0 0 0 0 0 0 0 0 0 0 0 0 0 0 0 0 0 0 0 0 0 0 0 0 0 0 0 0 0 0 0 9 9 9 9 9 10 10 0 0 0 0 0 0 0 0 0 0 0 0 0 0 0 0 0 0 0 0 0 0 0 0 0 0 0 0 0 0 0 0 0 0 0 0 0 0 0 0 0 9 10 0 0 0 0 0 0 0 0 0 0 0 0 0 0 0 0 9 0 0 0 0 0 -209 -209 18 -193 11 10 11 12 0 0 0 0 0 0 0 0 0 0 0 0 0 9 -209 11 20 14 13 13 12 13 12 11 12 9 9 9 10 11 10 11 11 11 10 12 13 12 13 0 0 0 9 0 0 0 0 0 10 0 0 0 13 12 15 13 13 12 14 14 18 12 14 13 15 15 17 17 14 11 20 15 14 15 16 16 19 23 23 24 28 32 31 30 33 29 30 31 -193 -193 -193 -193 -193 20 20 20 13 20 21 21 19 14 14 21 18 19 19 22 21 21 20 21 19 22 22 23 22 25 29 29 28 28 29 29 28 28 27 25 24 25 26 25 24 25 27 26 27 27 -193 27 30 30 31 29 31 32 31 32 30 28 30 31 30 30 31 32 31 37 37 38 0 0 0 0 0
    0 0 0 0 0 0 0 0 0 0 0 0 0 0 0 0 0 0 0 0 0 0 0 0 0 0 0 0 0 0 0 0 0 0 0 0 0 0 0 0 0 0 0 0 0 0 0 0 0 0 0 0 0 0 0 0 0 0 0 0 0 0 0 0 0 0 0 0 0 0 0 0 0 0 0 10 9 9 9 9 10 10 9 0 0 0 0 0 0 0 0 0 0 0 0 0 0 0 0 0 0 0 0 0 0 0 0 0 0 9 0 0 0 0 0 0 0 0 0 0 0 0 0 9 9 0 0 0 0 0 0 0 0 0 0 0 0 0 0 0 0 9 0 9 0 9 10 16 20 19 12 12 11 11 11 0 0 0 0 0 0 0 0 0 0 0 0 -193 9 13 12 20 14 14 13 12 12 12 11 12 0 0 9 10 10 9 9 10 9 9 11 11 11 12 0 0 0 0 0 0 0 0 0 9 0 0 0 13 11 15 13 13 12 14 14 18 13 15 13 16 17 17 17 15 12 20 16 14 15 16 16 19 22 22 22 28 31 31 29 33 29 30 31 -193 -193 -193 -193 -193 20 21 20 14 20 21 21 19 15 15 22 18 19 19 21 20 20 19 20 17 21 21 22 20 25 29 29 28 28 29 29 28 27 26 24 23 24 25 24 23 24 26 26 26 -193 -177 27 30 30 31 29 31 32 31 32 30 28 30 30 29 29 30 32 30 36 36 37 0 0 0 0 0
    0 0 0 0 0 0 0 0 0 0 0 0 0 0 0 0 0 0 0 0 0 0 0 0 0 0 0 0 0 0 0 0 0 0 0 0 0 0 0 0 0 0 0 0 0 0 0 0 0 0 0 0 0 0 0 0 0 0 0 0 0 0 0 0 0 0 0 0 0 8 9 0 0 9 9 11 10 9 10 10 10 10 9 0 0 0 0 0 0 0 0 0 0 0 0 0 0 0 0 0 0 0 0 0 0 0 0 0 0 9 0 0 0 0 0 0 0 0 0 0 0 0 0 9 10 0 0 0 0 0 0 0 0 0 0 0 0 0 0 0 0 9 9 9 9 9 11 15 21 20 14 11 10 11 10 0 0 0 0 0 0 0 0 0 0 -193 0 -193 9 12 11 20 14 14 12 12 12 12 11 12 0 0 0 9 9 0 0 0 0 9 10 10 10 10 0 0 0 0 0 0 0 0 0 10 0 0 0 14 12 16 13 13 12 14 14 18 13 15 14 17 18 18 18 16 12 20 16 14 15 16 16 19 21 21 17 27 31 30 28 33 29 30 31 -193 -193 -193 -177 -193 21 21 20 13 21 21 21 19 15 15 21 17 18 18 21 20 19 19 19 16 21 21 21 19 25 29 30 29 29 30 30 28 28 26 24 23 25 25 24 23 24 26 26 26 -193 -177 27 30 30 31 29 31 32 31 31 30 28 29 30 29 29 30 31 30 35 35 37 0 0 0 0 0
    0 0 0 0 0 0 0 0 0 0 0 0 0 0 0 0 0 0 0 0 0 0 0 0 0 0 0 0 0 0 0 0 0 0 0 0 0 0 0 0 0 0 0 0 0 0 0 0 0 0 0 0 0 0 0 0 0 0 0 0 0 0 0 0 0 0 0 0 0 11 11 10 9 11 9 11 10 10 10 10 10 11 0 0 0 0 0 0 0 0 0 0 0 0 0 0 0 0 0 0 0 0 0 0 0 0 0 0 0 10 9 0 0 0 0 0 0 0 0 0 0 0 0 9 9 0 0 0 0 0 0 0 0 0 0 0 0 0 0 0 0 9 9 9 9 0 9 10 12 15 13 11 10 11 9 0 0 0 0 0 0 0 0 0 0 -193 0 9 10 12 11 20 14 14 12 12 12 12 11 12 0 0 0 9 9 0 0 0 0 0 10 0 10 10 0 0 0 0 0 0 0 0 0 10 0 0 0 14 12 16 13 13 13 14 15 18 13 15 15 18 18 19 18 16 13 21 17 15 16 16 17 19 21 21 15 26 30 29 -193 -193 28 29 30 -193 23 -193 -177 -193 20 20 20 12 20 20 20 17 14 15 22 17 18 18 21 19 19 18 19 16 21 21 22 20 25 30 31 29 29 29 30 28 28 26 25 24 25 25 24 23 24 26 26 26 26 -193 27 31 30 31 28 31 32 31 31 30 28 29 30 29 29 30 31 30 34 35 36 0 0 0 0 0
    0 0 0 0 0 0 0 0 0 0 0 0 0 0 0 0 0 0 0 0 0 0 0 0 0 0 0 0 0 0 0 0 0 0 0 0 0 0 0 0 0 0 0 0 0 0 0 0 0 0 0 0 0 0 0 0 0 0 0 0 0 0 0 0 0 0 0 0 0 12 12 11 10 12 10 12 10 10 10 10 11 11 9 0 0 0 0 0 0 0 0 0 0 0 0 0 0 0 0 0 0 0 0 0 0 0 0 0 0 10 9 0 0 0 0 0 0 0 0 0 0 0 0 0 0 0 0 0 0 0 0 0 0 0 0 0 0 0 0 0 0 9 0 0 0 0 0 0 10 12 13 11 10 11 0 0 0 0 0 0 0 0 0 0 0 9 0 9 10 13 11 19 14 14 12 12 12 12 11 12 0 0 0 9 9 0 0 0 0 0 0 0 0 9 0 0 0 0 0 0 0 0 0 10 0 0 0 14 12 16 13 13 13 14 15 19 13 15 16 17 19 19 18 17 13 21 17 14 16 16 16 18 20 20 14 26 29 28 -193 -193 27 29 30 23 22 -193 -193 22 20 20 20 13 22 23 23 22 21 23 24 20 20 20 21 20 20 19 19 16 22 22 22 21 25 29 30 29 28 28 29 27 28 26 25 24 25 25 25 23 24 26 26 26 26 27 27 31 30 31 29 31 31 31 31 30 28 29 31 29 30 30 31 31 35 35 36 0 0 0 0 0
    0 0 0 0 0 0 0 0 0 0 0 0 0 0 0 0 0 0 0 0 0 0 0 0 0 0 0 0 0 0 0 0 0 0 0 0 0 0 0 0 0 0 0 0 0 0 0 0 0 0 0 0 0 0 0 0 0 0 0 0 0 0 0 0 0 0 0 0 0 13 13 12 11 12 10 12 11 10 11 11 11 11 9 0 0 0 0 0 0 0 0 0 0 0 0 0 0 0 0 0 0 0 0 0 0 0 0 0 0 10 9 0 0 0 0 0 0 0 0 0 0 0 0 0 0 0 0 0 0 0 0 0 0 0 0 0 0 0 0 0 0 0 0 0 0 0 0 0 9 10 12 11 10 11 0 0 0 0 0 0 0 0 0 0 0 9 9 9 11 13 11 19 14 13 12 11 12 12 11 12 0 0 0 9 9 0 0 0 0 0 0 0 0 0 0 0 0 0 0 0 0 0 0 10 0 0 0 13 12 15 13 13 13 14 15 19 14 15 17 18 19 19 19 17 13 21 17 14 16 16 16 17 19 19 13 25 26 -193 -193 -193 26 27 28 22 21 -193 -193 21 20 20 20 13 24 25 28 29 25 30 34 22 22 21 22 20 20 19 20 16 22 22 22 20 25 27 29 27 27 27 28 27 27 27 25 25 26 26 25 24 25 27 26 27 26 27 27 30 30 30 29 31 31 31 31 30 28 29 31 30 30 31 32 31 35 35 36 0 0 0 0 0
    0 0 0 0 0 0 0 0 0 0 0 0 0 0 0 0 0 0 0 0 0 0 0 0 0 0 0 0 0 0 0 0 0 0 0 0 0 0 0 0 0 0 0 0 0 0 0 0 0 0 0 0 0 0 0 0 0 0 0 0 0 0 0 0 0 0 0 0 0 13 13 13 12 12 11 12 11 11 11 11 11 11 10 0 0 0 0 0 0 0 0 0 0 0 0 0 0 0 0 0 0 0 0 0 0 0 0 0 0 10 9 0 0 0 0 0 0 0 0 0 0 0 0 0 0 0 0 0 0 0 0 0 0 0 0 0 0 0 0 0 0 0 0 0 0 0 0 0 0 0 9 9 9 10 0 0 0 0 0 0 0 0 0 0 0 9 9 9 10 13 11 18 13 13 11 11 12 12 11 12 0 0 0 9 9 0 0 0 0 0 0 0 0 0 0 0 0 0 0 0 0 0 0 11 9 9 0 13 13 15 13 13 13 14 15 19 14 15 18 18 19 19 19 17 14 21 17 15 16 15 15 15 17 17 11 20 21 -193 -193 -177 -193 25 26 21 20 20 -193 -193 20 20 20 14 25 26 32 38 33 38 41 -193 23 23 23 20 20 20 20 16 22 22 22 19 25 27 30 27 27 26 29 27 28 27 26 26 26 26 26 25 26 27 26 27 26 27 28 31 30 30 29 31 31 32 32 30 29 30 33 31 31 31 32 31 34 34 35 0 0 0 0 0
    0 0 0 0 0 0 0 0 0 0 0 0 0 0 0 0 0 0 0 0 0 0 0 0 0 0 0 0 0 0 0 0 0 0 0 0 0 0 0 0 0 0 0 0 0 0 0 0 0 0 0 0 0 0 0 0 0 0 0 0 0 0 0 0 0 0 0 0 0 14 14 14 13 13 12 13 12 11 12 11 11 11 10 0 0 0 0 0 0 0 0 0 0 0 0 0 0 0 0 0 0 0 0 0 0 0 0 0 0 10 9 0 0 0 0 0 0 0 0 0 0 0 0 0 0 0 0 0 0 0 0 0 0 0 0 0 0 0 0 0 0 9 0 0 0 0 0 0 0 0 0 0 0 -193 0 0 0 0 0 0 0 0 0 0 0 9 9 9 10 14 12 17 13 13 11 11 12 11 11 12 0 0 0 9 9 0 0 0 0 0 0 0 0 0 0 0 0 0 0 0 0 0 0 13 12 11 10 13 14 14 14 14 13 14 15 20 15 15 19 17 19 19 19 17 14 21 17 14 16 14 14 14 16 16 10 15 15 -193 -193 -193 -193 23 24 21 20 20 287 290 21 20 21 16 26 29 34 38 36 40 41 42 25 24 24 20 20 20 19 16 22 22 22 19 25 27 33 29 29 28 30 28 29 28 27 27 27 27 27 26 27 30 28 29 27 29 29 32 30 31 29 31 32 33 33 31 29 31 33 31 32 30 31 30 33 33 33 0 0 0 0 0
    0 0 0 0 0 0 0 0 0 0 0 0 0 0 0 0 0 0 0 0 0 0 0 0 0 0 0 0 0 0 0 0 0 0 0 0 0 0 0 0 0 0 0 0 0 0 0 0 0 0 0 0 0 0 0 0 0 0 0 0 0 0 0 0 0 0 0 0 0 14 14 14 13 14 13 14 13 11 12 12 11 12 10 0 0 0 0 0 0 0 0 0 0 0 0 0 0 0 0 0 0 0 0 0 0 0 0 0 0 10 9 0 0 0 0 0 0 0 0 0 0 0 0 0 0 0 0 0 0 0 0 0 0 0 0 0 0 0 0 0 0 0 0 0 0 0 0 0 0 0 0 0 0 -193 0 -193 -193 -193 -193 0 0 0 0 0 0 8 0 0 10 14 12 17 13 13 11 11 13 12 11 11 0 0 0 9 9 0 0 0 0 0 0 0 0 0 0 0 0 0 0 0 0 0 0 14 13 12 10 13 14 14 14 13 12 13 13 19 15 15 19 17 19 19 18 17 14 20 17 14 16 14 14 14 16 16 10 16 16 -193 -193 -193 -193 23 24 20 19 19 -193 -193 -193 21 21 18 27 30 34 37 36 38 40 41 27 25 -193 20 20 19 19 16 21 22 22 21 26 30 36 35 35 34 34 30 32 31 29 28 29 28 29 29 31 33 30 32 30 31 31 34 31 31 30 31 31 33 33 31 30 32 34 31 32 31 32 31 34 33 33 0 0 0 0 0
    0 0 0 0 0 0 0 0 0 0 0 0 0 0 0 0 0 0 0 0 0 0 0 0 0 0 0 0 0 0 0 0 0 0 0 0 0 0 0 0 0 0 0 0 0 0 0 0 0 0 0 0 0 0 0 0 0 0 0 0 0 0 0 0 0 0 0 0 0 14 14 14 13 14 13 14 13 11 12 12 11 12 10 0 0 0 0 0 0 0 0 0 0 0 0 0 0 0 0 0 0 0 0 0 0 0 0 0 0 10 9 0 0 0 0 0 0 0 0 0 0 0 0 0 0 0 0 0 0 0 0 0 0 0 0 0 0 0 0 0 0 0 0 0 0 0 0 0 0 0 0 0 0 -193 0 -193 -193 -193 -193 0 0 0 0 0 0 0 0 0 9 13 11 16 12 12 11 11 13 12 11 12 0 9 0 10 10 0 0 0 0 0 0 0 0 0 0 0 0 0 0 0 0 0 0 15 13 13 11 13 15 14 14 14 12 12 13 19 15 14 18 16 19 18 18 17 14 20 17 14 15 13 14 14 16 16 10 17 17 -193 -193 -193 21 21 24 20 19 19 -193 -193 -193 22 22 -193 28 32 35 38 37 39 40 41 28 26 25 20 20 20 20 17 22 23 24 24 27 31 38 37 37 36 36 32 35 34 30 31 30 30 31 33 34 35 34 36 33 34 35 36 32 33 32 32 32 34 34 33 32 33 35 32 34 33 34 33 35 35 35 0 0 0 0 0
    0 0 0 0 0 0 0 0 0 0 0 0 0 0 0 0 0 0 0 0 0 0 0 0 0 0 0 0 0 0 0 0 0 0 0 0 0 0 0 0 0 0 0 0 0 0 0 0 0 0 0 0 0 0 0 0 0 0 0 0 0 0 0 0 0 0 0 0 0 14 14 14 13 14 13 14 13 11 12 12 12 12 10 0 0 0 0 0 0 0 0 0 0 0 0 0 0 0 0 0 0 0 0 0 0 0 0 0 0 9 9 0 0 0 0 0 0 0 0 0 0 0 0 0 0 0 0 0 0 0 0 0 0 0 9 0 0 9 0 0 0 0 0 0 0 0 0 0 0 0 0 0 0 9 0 -193 -193 -193 -193 0 0 0 0 0 0 0 0 0 0 12 10 15 12 12 10 11 13 11 11 12 0 9 9 11 11 0 0 0 0 0 0 0 -193 0 0 0 0 9 0 0 9 9 9 16 14 14 12 14 16 14 15 14 12 13 13 19 15 14 19 16 19 18 17 16 13 20 16 13 15 13 13 14 16 16 11 19 19 20 -193 -193 20 21 23 20 19 19 -193 -193 -193 23 23 -209 28 33 35 38 37 39 41 41 31 31 34 21 21 20 20 19 24 25 26 25 29 33 39 39 39 38 38 35 37 37 33 33 32 31 34 36 36 37 36 38 36 37 38 38 35 35 34 33 33 35 36 35 34 35 36 34 36 36 37 36 38 37 37 0 0 0 0 0
    0 0 0 0 0 0 0 0 0 0 0 0 0 0 0 0 0 0 0 0 0 0 0 0 0 0 0 0 0 0 0 0 0 0 0 0 0 0 0 0 0 0 0 0 0 0 0 0 0 0 0 0 0 0 0 0 0 0 0 0 0 0 0 0 0 0 0 0 0 14 13 14 13 13 13 14 13 12 12 12 12 12 11 0 0 0 0 0 0 0 0 0 0 0 0 0 9 0 0 0 9 0 0 0 0 0 0 0 0 9 0 0 0 0 0 0 0 0 0 0 0 0 0 0 0 0 0 0 0 0 9 0 0 9 9 0 0 0 0 0 0 0 0 0 0 0 0 0 0 0 0 0 0 0 0 0 0 -193 0 0 0 0 0 0 0 0 0 0 0 11 10 14 11 11 10 10 12 11 11 12 0 9 9 11 12 0 0 0 0 0 0 -193 -193 8 0 0 0 9 0 0 9 9 9 16 14 14 12 14 16 14 15 15 12 13 13 20 15 14 19 15 18 18 17 16 13 19 16 13 15 13 14 15 16 17 12 24 23 24 -193 23 22 22 23 21 20 20 -193 -193 -193 24 25 27 29 33 35 38 38 40 41 41 34 36 39 22 22 21 21 21 25 26 28 27 31 35 40 40 39 39 40 38 39 39 35 35 33 34 36 38 38 39 38 40 39 39 40 39 37 37 36 34 34 36 37 37 36 37 37 36 38 39 39 38 40 39 39 0 0 0 0 0
    0 0 0 0 0 0 0 0 0 0 0 0 0 0 0 0 0 0 0 0 0 0 0 0 0 0 0 0 0 0 0 0 0 0 0 0 0 0 0 0 0 0 0 0 0 0 0 0 0 0 0 0 0 0 0 0 0 0 0 0 0 0 0 0 0 0 0 0 0 13 13 14 12 13 13 14 14 12 12 12 12 13 11 9 9 0 0 0 0 0 0 0 0 0 0 0 9 9 10 0 10 9 0 0 0 0 0 0 0 9 9 0 0 0 0 0 0 0 0 0 0 0 0 0 0 0 0 9 0 0 11 9 0 9 9 0 0 0 0 0 0 0 0 0 0 0 0 0 0 0 0 0 0 0 0 0 0 -193 0 0 0 0 0 0 0 0 0 0 0 10 10 14 11 12 10 10 12 11 10 12 0 10 9 11 12 9 9 9 0 0 11 14 12 11 0 0 0 9 0 0 9 9 10 17 15 15 13 14 16 14 16 15 12 13 13 20 15 14 19 15 18 17 17 16 13 19 16 13 15 13 14 15 17 17 13 25 25 25 26 25 25 25 24 23 21 22 -193 -193 -193 26 26 29 30 34 36 38 38 40 41 41 36 39 40 -193 23 23 23 23 26 28 32 29 34 37 40 40 40 40 41 40 40 40 37 36 35 36 38 40 39 40 40 42 42 42 42 41 40 39 38 36 36 38 39 39 39 38 39 38 40 41 41 41 42 41 41 0 0 0 0 0
    0 0 0 0 0 0 0 0 0 0 0 0 0 0 0 0 0 0 0 0 0 0 0 0 0 0 0 0 0 0 0 0 0 0 0 0 0 0 0 0 0 0 0 0 0 0 0 0 0 0 0 0 0 0 0 0 0 0 0 0 0 0 0 0 0 0 0 0 0 13 13 14 12 14 13 14 14 12 12 13 13 14 12 11 10 9 9 0 0 0 0 0 0 0 0 0 9 9 10 0 10 0 0 0 0 0 0 0 0 9 0 0 0 0 0 0 0 0 0 0 0 0 0 0 0 0 0 9 0 9 11 0 0 0 9 0 0 0 0 0 0 0 0 0 0 0 0 0 0 0 0 0 0 0 0 0 0 -193 -193 0 0 0 0 0 0 0 0 0 0 9 9 13 11 12 10 10 12 11 11 12 9 9 0 11 12 9 9 9 0 0 12 17 14 12 0 0 0 9 0 0 10 10 10 18 16 15 13 14 17 15 16 15 12 13 13 20 16 14 19 15 18 18 17 16 13 20 16 13 16 13 14 15 17 17 13 25 24 25 27 27 26 26 25 24 23 23 -209 -193 26 27 28 31 31 34 36 38 38 40 41 41 36 38 40 -193 25 24 24 25 28 30 35 31 36 38 40 41 41 41 41 41 41 41 38 37 37 38 39 41 40 42 42 43 43 43 42 42 41 41 40 38 37 39 40 41 41 40 40 39 41 42 43 42 43 43 43 0 0 0 0 0
    0 0 0 0 0 0 0 0 0 0 0 0 0 0 0 0 0 0 0 0 0 0 0 0 0 0 0 0 0 0 0 0 0 0 0 0 0 0 0 0 0 0 0 0 0 0 0 0 0 0 0 0 0 0 0 0 0 0 0 0 0 0 0 0 0 0 0 0 0 14 14 14 13 14 12 14 14 12 12 12 13 14 13 12 11 11 11 0 0 0 0 0 0 0 0 0 0 9 10 9 10 0 0 0 0 0 0 0 0 9 9 0 0 0 0 0 0 0 0 0 0 0 0 0 0 0 0 9 0 9 11 0 0 0 0 0 0 0 0 0 0 0 0 0 0 0 0 0 0 0 0 0 0 0 0 0 0 -193 -193 0 0 0 0 0 0 0 0 0 0 0 9 13 11 11 10 10 11 11 11 12 9 10 9 11 13 9 10 11 9 10 14 16 15 13 0 0 0 10 0 0 10 10 10 18 16 16 13 14 16 15 16 15 12 12 12 20 15 14 18 15 18 18 17 16 13 20 16 13 16 14 14 15 17 17 13 24 24 25 27 28 27 27 27 27 25 26 26 26 27 29 31 34 33 36 36 38 38 40 40 41 35 38 40 40 28 28 27 28 31 34 38 34 38 39 40 41 41 41 41 42 41 41 39 39 38 39 40 42 41 43 42 44 44 43 43 42 42 41 41 39 38 40 41 42 41 41 41 40 42 43 44 43 44 44 43 0 0 0 0 0
    0 0 0 0 0 0 0 0 0 0 0 0 0 0 0 0 0 0 0 0 0 0 0 0 0 0 0 0 0 0 0 0 0 0 0 0 0 0 0 0 0 0 0 0 0 0 0 0 0 0 0 0 0 0 0 0 0 0 0 0 0 0 0 0 0 0 0 0 0 14 14 14 13 15 12 14 13 12 13 13 14 15 14 15 12 13 14 11 9 0 0 0 0 0 0 0 0 9 10 10 11 9 0 0 0 0 0 0 0 0 9 0 0 0 0 0 0 0 0 0 0 0 0 0 0 0 0 9 0 9 11 0 0 0 0 0 0 0 0 0 0 0 0 0 0 0 0 0 0 0 0 0 0 0 0 0 0 0 -193 0 0 0 0 0 0 0 0 0 0 0 0 13 11 11 10 10 11 11 11 12 9 10 9 13 15 11 13 13 12 12 14 14 14 12 9 9 9 10 0 0 10 10 10 18 16 16 13 15 16 15 16 15 12 12 11 19 15 14 18 15 18 18 16 16 13 20 16 13 16 14 14 16 16 17 13 23 23 25 28 30 29 29 28 30 28 28 28 29 29 31 34 36 34 36 37 38 38 39 40 40 34 38 39 39 34 34 32 34 36 37 40 36 38 39 40 40 40 40 41 41 41 41 39 39 39 40 40 42 41 42 42 44 44 43 43 43 42 42 41 39 39 40 41 42 42 41 41 41 43 43 45 44 44 44 43 0 0 0 0 0
    0 0 0 0 0 0 0 0 0 0 0 0 0 0 0 0 0 0 0 0 0 0 0 0 0 0 0 0 0 0 0 0 0 0 0 0 0 0 0 0 0 0 0 0 0 0 0 0 0 0 0 0 0 0 0 0 0 0 0 0 0 0 0 0 0 0 0 0 0 14 14 14 12 15 12 14 13 12 13 13 15 17 15 19 15 18 19 18 12 9 0 0 0 0 0 0 0 9 10 9 10 9 0 0 0 0 0 0 0 0 0 0 0 9 0 0 0 0 0 0 0 0 0 0 0 0 0 8 0 0 11 0 0 0 0 0 0 0 0 0 0 0 0 0 0 0 0 0 0 0 0 0 0 0 0 0 0 0 -177 0 0 0 0 0 0 0 0 0 0 0 0 13 11 11 10 10 11 11 12 13 10 12 10 15 19 14 18 17 16 14 14 14 13 12 10 9 10 10 0 9 10 10 10 18 16 17 14 15 16 15 16 15 12 12 11 19 15 13 18 15 18 18 17 16 13 20 16 13 17 14 14 16 16 17 13 23 23 26 28 31 30 31 29 32 30 31 31 32 31 34 35 38 35 37 38 38 38 39 40 40 35 38 40 40 39 40 39 39 39 39 41 38 39 38 39 39 39 40 40 40 -193 -193 40 40 40 40 40 42 -193 42 42 43 43 43 43 43 42 42 42 40 40 41 41 42 42 41 41 41 42 43 45 45 45 45 44 0 0 0 0 0
    0 0 0 0 0 0 0 0 0 0 0 0 0 0 0 0 0 0 0 0 0 0 0 0 0 0 0 0 0 0 0 0 0 0 0 0 0 0 0 0 0 0 0 0 0 0 0 0 0 0 0 0 0 0 0 0 0 0 0 0 0 0 0 0 0 0 0 0 0 15 15 14 13 15 11 13 12 12 12 13 16 17 16 20 18 22 22 23 19 10 9 0 0 9 0 0 0 0 9 9 10 0 0 0 0 0 0 0 0 0 0 0 0 9 0 0 0 0 0 0 0 0 0 0 0 0 0 0 0 0 11 0 0 0 -177 0 0 0 0 0 0 0 0 0 0 0 0 0 0 0 0 0 0 0 0 0 0 0 386 0 0 0 0 0 0 0 0 0 0 0 0 13 11 11 10 10 11 11 12 13 11 14 -193 19 23 20 21 20 20 17 15 14 13 11 10 9 10 10 0 9 11 10 11 18 16 17 14 15 17 16 17 16 13 13 11 19 15 13 17 14 17 17 16 16 13 20 16 13 17 14 14 16 16 18 14 23 24 27 29 32 32 32 31 34 33 33 33 35 34 35 37 38 37 38 38 39 39 41 41 41 38 40 42 42 41 42 41 41 41 41 42 40 40 39 38 38 39 39 40 -193 -193 -193 -209 -193 -209 -193 -193 -193 -209 42 42 43 -193 -193 -193 -193 42 43 42 42 41 42 42 43 42 42 -193 42 43 44 46 45 45 46 45 0 0 0 0 0
    0 0 0 0 0 0 0 0 0 0 0 0 0 0 0 0 0 0 0 0 0 0 0 0 0 0 0 0 0 0 0 0 0 0 0 0 0 0 0 0 0 0 0 0 0 0 0 0 0 0 0 0 0 0 0 0 0 0 0 0 0 0 0 0 0 0 0 0 0 16 16 15 13 15 11 13 12 12 12 13 16 18 16 21 20 23 23 23 22 13 11 9 9 10 8 0 0 0 0 9 9 0 0 0 0 0 0 0 0 0 9 0 0 9 0 0 0 0 0 0 0 0 0 0 0 0 0 0 0 0 10 0 0 0 -177 0 0 0 0 0 0 0 0 0 0 0 0 0 0 0 0 0 0 0 0 0 0 -193 386 -193 0 0 0 0 0 0 0 0 0 0 0 14 12 12 10 10 11 11 13 14 11 -193 -209 21 25 24 24 22 22 19 15 13 13 11 10 9 10 10 0 9 10 10 11 18 16 18 14 15 17 17 18 16 13 14 11 19 15 13 16 14 17 17 15 15 12 19 16 13 17 14 14 16 17 18 14 24 24 27 29 33 33 33 32 34 34 34 34 35 34 36 37 39 -193 -193 39 39 40 41 41 41 38 40 43 42 42 42 -177 42 42 42 42 41 41 39 38 38 -193 -193 -193 -193 -193 -209 305 305 -193 -209 -193 175 -193 -193 -193 -193 -193 -193 -193 -193 42 43 42 42 41 42 42 44 43 -193 -193 -193 43 44 46 45 45 46 45 0 0 0 0 0
    0 0 0 0 0 0 0 0 0 0 0 0 0 0 0 0 0 0 0 0 0 0 0 0 0 0 0 0 0 0 0 0 0 0 0 0 0 0 0 0 0 0 0 0 0 0 0 0 0 0 0 0 0 0 0 0 0 0 0 0 0 0 0 0 0 0 0 0 0 16 16 16 14 16 12 13 13 13 13 15 19 20 19 24 24 25 25 25 25 12 10 0 0 9 0 0 0 0 0 9 9 0 0 0 0 0 0 0 0 0 0 0 0 9 0 0 0 0 0 0 0 0 0 0 0 0 0 0 0 0 10 0 0 0 -177 0 0 0 0 0 0 0 0 0 0 0 0 0 0 0 0 0 0 0 0 0 -193 -193 387 -193 0 0 0 0 0 0 0 0 0 0 0 15 12 13 11 11 12 11 13 13 12 -193 -193 23 26 26 25 24 24 20 15 13 13 11 10 10 11 10 9 9 10 9 11 17 16 18 15 15 17 18 18 16 13 14 11 18 15 13 15 14 16 17 15 15 13 19 16 14 18 14 14 16 16 18 14 24 25 28 30 33 33 34 32 34 34 35 34 36 35 37 38 40 -193 -193 40 40 41 41 41 41 38 39 42 41 41 42 -177 42 42 42 43 41 41 39 38 -193 -193 -193 -193 -193 -193 -193 305 306 -193 -193 -193 175 171 -193 -193 -193 -193 -193 -193 43 42 42 42 42 41 42 42 44 43 -193 -193 -193 -193 43 45 44 44 45 44 0 0 0 0 0
    0 0 0 0 0 0 0 0 0 0 0 0 0 0 0 0 0 0 0 0 0 0 0 0 0 0 0 0 0 0 0 0 0 0 0 0 0 0 0 0 0 0 0 0 0 0 0 0 0 0 0 0 0 0 0 0 0 0 0 0 0 0 0 0 0 0 0 0 0 17 17 16 14 16 13 14 14 15 16 17 21 21 22 25 26 27 28 27 27 22 22 10 9 10 0 0 0 9 9 9 9 0 0 0 0 0 0 0 0 0 9 0 0 9 0 0 0 0 0 0 0 0 0 0 0 0 0 0 0 0 9 0 0 0 -177 -177 0 0 0 0 0 0 0 0 0 0 0 0 0 0 0 0 0 0 0 0 -193 -193 388 387 -193 0 0 0 0 0 0 0 0 9 9 16 13 14 12 12 13 12 14 15 13 22 -209 24 27 27 26 24 25 22 16 13 13 11 11 10 11 10 9 10 10 9 11 17 16 18 15 15 17 19 18 17 14 14 11 17 15 13 14 14 16 16 15 15 13 19 16 14 18 14 14 16 16 18 13 23 24 28 30 33 34 34 33 35 35 35 35 37 37 37 38 -193 -193 -177 40 40 41 41 41 41 39 39 42 41 41 42 -177 42 41 42 43 41 41 -193 -193 -193 -193 -193 -193 -193 -193 -193 306 306 -193 -193 -193 175 -193 -193 -193 -193 -193 -193 41 43 41 42 42 41 41 42 42 44 42 -193 -193 -193 -193 43 45 44 44 45 44 0 0 0 0 0
    0 0 0 0 0 0 0 0 0 0 0 0 0 0 0 0 0 0 0 0 0 0 0 0 0 0 0 0 0 0 0 0 0 0 0 0 0 0 0 0 0 0 0 0 0 0 0 0 0 0 0 0 0 0 0 0 0 0 0 0 0 0 0 0 0 0 0 0 0 17 17 17 15 18 15 16 16 18 19 20 22 23 23 26 27 28 29 28 28 25 25 23 15 12 9 9 9 11 10 9 9 0 0 0 0 0 0 0 0 0 9 0 0 9 0 0 0 0 0 0 0 0 0 0 0 0 0 0 0 0 0 0 0 0 -177 -177 0 0 0 0 0 0 0 0 0 0 0 -193 0 0 0 0 0 0 0 0 0 0 388 387 -193 -193 -193 0 10 11 11 0 9 10 10 17 13 14 12 12 13 14 16 17 16 25 25 26 29 29 27 26 27 24 18 14 14 11 11 10 11 11 10 10 10 9 12 16 15 19 15 15 18 19 19 17 14 15 12 16 15 13 14 13 15 16 15 15 13 18 16 14 18 14 14 16 16 17 13 22 24 28 30 33 34 35 34 35 35 35 35 38 37 37 38 -193 -177 789 40 40 40 41 41 41 40 39 42 41 41 42 -177 41 41 42 43 41 42 -193 -193 -193 -193 -193 -193 -193 -193 -193 306 305 -193 -193 -193 -193 -193 -209 -193 -193 -193 42 41 43 41 43 42 42 42 42 42 44 42 -193 -193 43 43 43 45 44 44 45 45 0 0 0 0 0
    0 0 0 0 0 0 0 0 0 0 0 0 0 0 0 0 0 0 0 0 0 0 0 0 0 0 0 0 0 0 0 0 0 0 0 0 0 0 0 0 0 0 0 0 0 0 0 0 0 0 0 0 0 0 0 0 0 0 0 0 0 0 0 0 0 0 0 0 0 18 18 17 17 19 17 17 19 21 21 22 23 24 24 26 27 28 28 28 28 26 26 26 22 17 10 10 10 12 12 11 10 0 0 0 0 0 0 0 0 0 10 0 0 10 0 0 0 0 0 0 0 0 0 0 0 0 0 0 0 0 0 0 0 0 -177 -177 0 0 0 0 0 0 0 0 0 0 0 -193 -193 -193 -209 -193 -209 -193 -193 -193 -193 -193 388 388 -193 -193 -193 10 15 18 18 12 13 12 10 17 13 13 12 12 13 15 18 20 20 26 27 28 30 30 28 28 28 25 19 15 14 12 11 11 12 11 10 10 10 9 12 16 15 19 15 15 18 20 19 17 14 15 12 16 16 14 13 13 15 16 15 15 13 17 16 15 18 14 14 16 16 18 13 23 24 29 30 33 35 35 34 35 35 36 35 38 37 37 38 -193 -177 789 40 40 40 41 41 41 40 39 42 41 41 41 41 41 41 42 43 41 42 -193 -193 -193 -193 -193 -193 -193 -193 -193 -193 -193 -193 -193 -193 177 -193 -193 -209 -193 -193 41 41 43 41 43 42 43 43 43 42 45 42 43 43 44 44 44 46 45 44 45 45 0 0 0 0 0
    0 0 0 0 0 0 0 0 0 0 0 0 0 0 0 0 0 0 0 0 0 0 0 0 0 0 0 0 0 0 0 0 0 0 0 0 0 0 0 0 0 0 0 0 0 0 0 0 0 0 0 0 0 0 0 0 0 0 0 0 0 0 0 0 0 0 0 0 0 18 18 17 18 20 19 19 21 23 24 24 26 26 25 27 29 29 30 29 29 28 28 30 27 25 14 14 14 15 16 13 12 14 17 19 19 10 0 9 11 11 12 10 9 10 0 0 0 0 0 0 0 0 0 0 0 0 0 0 0 0 9 0 0 0 9 -177 11 9 0 0 0 0 0 -193 0 -193 -193 30 28 27 26 -209 -209 -209 -193 -193 -193 -193 387 388 -193 11 -209 13 21 24 23 22 -193 16 12 17 13 14 12 12 14 18 21 22 22 28 28 29 31 31 29 29 29 27 21 16 16 12 12 11 12 11 10 10 10 9 12 16 15 19 15 15 18 20 19 17 15 15 12 15 16 14 13 13 15 16 15 15 14 17 16 16 18 15 14 17 17 18 15 23 24 30 30 33 35 35 35 36 35 36 35 38 38 37 39 -193 -177 789 40 40 -193 41 42 41 41 40 44 41 41 42 41 41 41 42 43 41 42 -193 -193 -193 -193 -193 -193 -193 -193 -193 -193 -193 -193 -193 175 177 172 -193 -209 -209 41 41 41 43 42 43 43 43 43 43 43 45 43 45 45 45 45 46 48 46 45 47 48 0 0 0 0 0
    0 0 0 0 0 0 0 0 0 0 0 0 0 0 0 0 0 0 0 0 0 0 0 0 0 0 0 0 0 0 0 0 0 0 0 0 0 0 0 0 0 0 0 0 0 0 0 0 0 0 0 0 0 0 0 0 0 0 0 0 0 0 0 0 0 0 0 0 0 18 18 18 19 21 21 20 23 25 27 27 28 28 26 28 30 31 32 30 30 30 31 32 28 27 25 20 19 20 21 17 15 20 23 25 25 23 19 23 21 16 16 14 11 14 11 9 10 0 0 0 0 0 0 0 0 0 0 0 0 9 12 11 10 10 12 15 16 14 11 -193 9 16 -209 -209 21 32 29 31 29 29 28 26 -209 -209 -209 0 0 0 -193 -193 0 14 -193 17 24 26 -193 -193 -193 20 14 18 15 15 13 13 15 20 23 24 23 29 30 30 32 33 30 31 31 28 22 18 17 13 12 11 13 11 10 10 10 9 13 15 -177 -177 15 14 18 20 19 17 15 15 12 15 17 14 13 14 15 16 15 15 14 17 15 16 17 15 15 18 19 20 17 25 25 30 31 33 35 35 35 36 35 36 35 38 37 37 39 -193 786 789 40 40 -177 42 42 42 41 42 45 42 41 42 41 41 40 41 43 41 42 -193 -193 -193 -193 -193 -193 -193 -193 -193 175 -193 -193 -193 176 178 173 -193 -193 -209 41 41 42 44 42 44 43 43 43 43 44 44 43 46 46 47 47 48 50 48 46 49 50 0 0 0 0 0
    0 0 0 0 0 0 0 0 0 0 0 0 0 0 0 0 0 0 0 0 0 0 0 0 0 0 0 0 0 0 0 0 0 0 0 0 0 0 0 0 0 0 0 0 0 0 0 0 0 0 0 0 0 0 0 0 0 0 0 0 0 0 0 0 0 0 0 0 0 18 18 18 19 22 22 21 25 27 30 30 30 29 28 30 32 32 33 30 30 31 33 33 30 28 26 24 23 23 23 19 18 23 25 25 25 25 24 25 25 22 20 19 14 19 20 13 14 12 -209 -209 -209 -209 0 0 9 0 0 0 9 12 19 20 22 23 22 24 23 24 23 -193 25 25 26 27 26 34 31 32 31 31 30 28 26 27 24 0 0 0 -193 -193 10 -193 -177 -193 27 29 28 27 -193 21 16 18 16 16 14 14 15 22 25 25 25 29 31 30 32 33 31 31 31 28 23 19 19 14 13 12 13 11 10 10 10 9 13 15 -177 -177 15 14 17 20 19 17 16 16 13 15 18 15 13 14 14 15 14 15 14 16 15 17 17 15 15 19 20 20 19 25 26 30 31 32 35 34 35 36 35 36 35 38 38 37 39 40 786 788 -193 -193 -177 42 43 42 42 43 46 42 41 41 41 40 40 41 42 40 42 -193 -193 -193 -193 -193 -193 -193 -193 175 176 -193 -193 -193 177 178 174 -193 -193 42 42 42 43 45 43 45 43 44 44 44 44 45 44 47 47 48 49 49 51 49 48 50 51 0 0 0 0 0
    0 0 0 0 0 0 0 0 0 0 0 0 0 0 0 0 0 0 0 0 0 0 0 0 0 0 0 0 0 0 0 0 0 0 0 0 0 0 0 0 0 0 0 0 0 0 0 0 0 0 0 0 0 0 0 0 0 0 0 0 0 0 0 0 0 0 0 0 0 18 18 19 20 23 23 23 27 30 32 32 31 31 29 32 34 34 33 32 31 33 34 33 30 28 27 25 25 25 24 22 22 25 27 27 26 26 26 27 27 25 22 20 17 21 -193 21 21 -209 -209 -209 -209 -209 0 0 0 0 0 0 9 15 23 24 26 26 26 26 26 27 26 26 27 27 28 29 29 35 32 33 32 32 31 29 28 28 26 13 12 0 10 16 17 -209 -193 27 29 31 29 28 -193 22 17 19 18 17 15 16 17 24 26 27 27 29 31 31 32 34 31 31 31 29 24 21 20 16 13 12 13 11 11 10 10 9 13 14 -177 -177 15 13 17 21 18 17 16 16 13 15 19 15 13 15 15 16 15 15 16 15 15 17 16 16 16 19 20 21 20 25 26 30 31 32 35 34 35 36 35 36 36 38 38 37 -193 -193 785 788 41 -193 -177 43 44 42 42 44 46 43 41 41 40 40 40 41 42 40 42 -193 -193 -193 -193 -193 -193 -193 -193 175 176 -193 -193 -193 177 179 174 -193 42 42 43 43 43 45 44 45 44 45 45 45 45 45 45 48 48 49 50 50 50 49 48 50 51 0 0 0 0 0
    0 0 0 0 0 0 0 0 0 0 0 0 0 0 0 0 0 0 0 0 0 0 0 0 0 0 0 0 0 0 0 0 0 0 0 0 0 0 0 0 0 0 0 0 0 0 0 0 0 0 0 0 0 0 0 0 0 0 0 0 0 0 0 0 0 0 0 0 0 19 19 19 21 24 24 25 28 32 33 33 32 33 31 34 35 34 34 34 33 35 35 33 31 29 28 27 27 27 26 26 25 29 30 29 29 29 28 28 27 26 23 22 20 24 -193 26 26 -209 -209 -209 -209 -209 0 0 0 0 0 0 9 19 25 26 28 28 28 28 28 29 28 27 28 28 30 31 31 35 33 33 32 33 32 30 29 29 26 24 21 23 19 23 -193 -193 -193 29 31 32 30 29 24 23 17 18 18 17 16 16 18 25 27 28 28 29 32 32 32 34 31 32 32 30 26 22 21 17 14 13 14 11 12 10 10 9 13 14 14 18 15 13 17 21 18 17 17 16 13 16 19 16 14 16 16 17 16 17 17 16 16 18 16 16 16 19 21 21 21 25 26 30 31 31 35 34 35 37 35 36 36 38 37 37 39 -193 -193 -177 41 -193 -193 42 43 42 42 44 46 43 42 42 41 41 41 41 43 41 42 -193 -209 -193 -193 -193 -193 -193 -193 -193 -193 -193 -193 44 -193 -193 -193 44 43 44 43 44 44 45 44 45 45 45 45 45 46 46 46 49 48 49 50 50 50 49 49 50 51 0 0 0 0 0
    0 0 0 0 0 0 0 0 0 0 0 0 0 0 0 0 0 0 0 0 0 0 0 0 0 0 0 0 0 0 0 0 0 0 0 0 0 0 0 0 0 0 0 0 0 0 0 0 0 0 0 0 0 0 0 0 0 0 0 0 0 0 0 0 0 0 0 0 0 19 19 20 21 25 26 27 29 32 33 33 33 34 31 34 33 33 33 33 32 34 33 31 30 29 29 28 28 28 28 29 28 33 33 31 31 30 29 29 28 28 25 24 24 27 33 33 30 32 -193 -209 -209 -209 -209 0 0 0 0 0 10 21 26 28 31 30 30 30 30 31 30 29 30 29 31 32 32 35 34 33 33 34 33 31 30 30 28 26 26 27 25 27 -193 27 -193 30 32 32 30 29 24 23 19 18 19 18 16 17 19 26 29 30 29 29 32 33 33 34 31 32 32 30 30 24 22 19 15 14 14 11 12 10 10 9 14 14 14 18 15 14 17 21 19 17 17 16 13 16 19 17 14 17 17 18 17 18 18 16 16 19 16 16 16 19 21 21 21 25 26 30 31 31 35 34 35 37 35 36 36 38 37 37 39 -193 -193 -193 40 41 -193 42 43 42 42 44 46 43 42 42 41 41 41 42 43 41 42 41 41 -193 -193 -193 -193 -193 -193 -193 -193 44 44 46 44 -193 44 44 43 45 44 44 44 45 44 45 45 46 45 46 47 46 47 49 48 49 50 50 50 49 49 50 51 0 0 0 0 0
    0 0 0 0 0 0 0 0 0 0 0 0 0 0 0 0 0 0 0 0 0 0 0 0 0 0 0 0 0 0 0 0 0 0 0 0 0 0 0 0 0 0 0 0 0 0 0 0 0 0 0 0 0 0 0 0 0 0 0 0 0 0 0 0 0 0 0 0 0 20 20 21 22 27 27 28 31 34 34 34 34 34 32 34 32 32 32 32 32 33 32 31 29 29 29 29 29 30 31 32 31 35 35 33 31 30 30 29 29 29 26 26 28 31 37 36 35 37 36 -209 -209 -209 -209 0 0 0 0 0 -193 22 27 30 34 33 33 33 33 33 32 31 31 29 32 33 33 35 34 33 34 35 34 32 32 31 29 28 29 31 28 30 30 28 34 31 33 32 29 28 23 23 18 18 19 17 17 17 20 28 31 31 31 31 33 34 34 34 32 33 33 31 32 27 24 21 16 14 14 11 12 11 10 9 14 15 15 19 16 14 18 21 19 18 17 17 13 16 20 17 14 17 18 19 18 18 18 17 17 19 17 17 17 20 22 22 22 25 26 30 31 31 35 34 35 37 36 36 36 38 37 37 39 39 -193 -193 40 41 41 42 43 41 42 44 46 44 42 42 42 42 42 42 44 41 42 41 42 42 41 -193 -193 -193 -193 -193 44 45 45 47 45 46 44 44 43 45 44 44 44 45 44 45 45 46 44 47 48 46 47 50 49 49 51 50 50 49 49 50 50 0 0 0 0 0
    0 0 0 0 0 0 0 0 0 0 0 0 0 0 0 0 0 0 0 0 0 0 0 0 0 0 0 0 0 0 0 0 0 0 0 0 0 0 0 0 0 0 0 0 0 0 0 0 0 0 0 0 0 0 0 0 0 0 0 0 0 0 0 0 0 0 0 0 0 21 22 22 23 28 28 29 31 33 34 34 34 35 33 35 33 33 32 32 32 32 31 30 29 28 29 30 30 32 32 34 34 36 35 34 32 31 31 30 30 30 27 27 35 34 -193 39 37 39 38 -209 -209 -209 -209 0 0 0 0 0 -209 -209 28 31 35 34 35 34 34 35 34 32 32 30 33 34 34 36 35 33 34 35 34 33 32 32 30 29 31 34 30 33 35 31 36 33 33 33 30 28 23 22 17 18 19 17 17 17 21 28 31 31 31 31 34 34 34 35 32 33 34 32 32 28 28 23 18 15 15 12 12 11 11 9 15 15 15 19 16 14 18 21 19 18 18 17 14 17 20 18 15 18 18 19 18 19 19 17 17 20 17 17 18 21 22 22 23 26 26 30 31 30 35 33 34 37 36 36 36 38 38 37 39 40 39 40 41 41 42 42 43 41 42 44 47 44 43 43 43 43 43 43 44 42 42 42 42 42 41 42 -193 -193 -193 -193 44 46 46 47 45 46 45 44 43 46 44 44 44 45 44 45 45 46 44 47 48 46 47 49 48 49 51 50 50 49 49 50 50 0 0 0 0 0
    0 0 0 0 0 0 0 0 0 0 0 0 0 0 0 0 0 0 0 0 0 0 0 0 0 0 0 0 0 0 0 0 0 0 0 0 0 0 0 0 0 0 0 0 0 0 0 0 0 0 0 0 0 0 0 0 0 0 0 0 0 0 0 0 0 0 0 0 0 22 23 23 23 30 28 30 32 34 35 35 35 35 35 36 35 34 33 33 32 32 31 29 28 28 29 30 31 33 33 35 35 36 35 34 33 31 31 32 31 32 28 29 -193 37 -209 39 37 40 39 -193 -209 -209 -209 -193 0 0 0 0 -209 -209 29 31 35 34 34 35 35 35 34 32 33 31 34 35 35 36 36 33 34 36 35 34 33 33 31 29 32 35 31 33 36 32 35 34 34 33 30 28 22 21 18 19 19 18 18 17 21 28 32 31 31 31 34 34 34 35 32 32 34 33 33 29 29 25 20 18 15 13 13 12 11 10 16 16 15 19 17 15 19 21 20 19 19 19 15 18 21 18 15 19 19 20 19 19 19 17 18 20 17 18 19 21 23 23 -209 26 -193 30 31 30 34 32 33 36 36 36 36 37 38 38 40 40 39 40 41 41 42 42 42 41 42 44 47 44 44 44 43 43 43 43 45 42 43 42 42 43 42 42 -193 -193 -193 44 45 46 47 48 46 46 46 44 43 47 44 44 44 45 44 45 45 46 44 47 48 46 47 49 48 48 51 49 49 48 49 49 49 0 0 0 0 0
    0 0 0 0 0 0 0 0 0 0 0 0 0 0 0 0 0 0 0 0 0 0 0 0 0 0 0 0 0 0 0 0 0 0 0 0 0 0 0 0 0 0 0 0 0 0 0 0 0 0 0 0 0 0 0 0 0 0 0 0 0 0 0 0 0 0 0 0 0 23 24 26 25 32 30 32 33 36 36 36 35 36 35 36 35 34 33 32 31 32 30 27 27 28 29 31 33 34 34 36 37 37 36 34 33 32 32 33 34 34 34 37 -193 38 -209 39 38 40 39 -193 -177 -177 -209 -193 0 0 0 0 -209 -209 31 34 36 36 36 37 37 37 37 36 37 35 37 37 36 36 36 33 34 36 36 35 35 34 32 30 34 36 31 33 37 32 35 34 33 32 30 27 22 21 18 19 19 18 19 17 22 27 32 32 32 32 34 34 34 35 33 33 34 33 33 31 31 27 21 20 16 13 14 13 11 10 17 17 16 20 18 16 20 22 20 20 20 20 17 20 22 19 16 20 19 20 19 19 20 17 18 21 18 18 19 21 23 23 -209 27 27 30 31 30 34 31 32 35 35 36 35 36 37 37 39 39 39 39 40 40 41 41 42 40 42 43 46 44 44 44 44 44 44 43 45 42 43 42 42 42 42 42 -193 -193 -193 44 45 46 47 48 45 46 46 44 43 47 44 44 44 45 44 45 45 46 43 47 47 46 47 48 47 47 50 49 49 48 48 49 48 0 0 0 0 0
    0 0 0 0 0 0 0 0 0 0 0 0 0 0 0 0 0 0 0 0 0 0 0 0 0 0 0 0 0 0 0 0 0 0 0 0 0 0 0 0 0 0 0 0 0 0 0 0 0 0 0 0 0 0 0 0 0 0 0 0 0 0 0 0 0 0 0 0 0 26 29 34 30 36 33 35 35 37 36 36 35 36 36 36 35 34 32 32 30 31 28 25 25 26 28 31 34 35 34 36 37 37 36 35 34 33 32 33 35 35 36 39 41 40 42 42 40 43 43 44 -209 -209 -209 -209 -209 -209 -209 -209 -209 -209 35 36 38 38 38 39 39 39 39 39 40 38 40 39 38 37 37 34 35 36 36 35 35 35 32 31 34 35 30 32 35 31 33 33 32 32 30 27 22 21 17 18 18 18 19 16 22 27 32 32 32 33 35 35 35 35 33 33 35 35 34 34 33 30 23 -193 17 13 14 12 11 11 19 18 18 20 19 18 21 23 21 21 21 21 19 22 23 21 19 21 21 21 21 20 21 17 19 22 18 19 19 20 23 23 24 27 27 29 30 29 34 32 31 34 35 35 35 36 37 36 39 39 38 38 39 39 40 40 41 38 41 42 45 44 45 45 44 44 44 44 45 42 43 42 42 42 42 42 -193 -193 -193 44 45 47 47 47 45 46 46 44 43 47 44 44 44 45 44 45 45 46 43 47 47 46 46 47 46 46 50 48 48 47 48 48 48 0 0 0 0 0
    0 0 0 0 0 0 0 0 0 0 0 0 0 0 0 0 0 0 0 0 0 0 0 0 0 0 0 0 0 0 0 0 0 0 0 0 0 0 0 0 0 0 0 0 0 0 0 0 0 0 0 0 0 0 0 0 0 0 0 0 0 0 0 0 0 0 0 0 0 34 36 38 36 38 36 36 36 37 37 37 36 36 36 36 35 34 32 32 29 30 27 25 24 26 27 31 34 35 34 37 38 37 36 36 35 34 33 34 36 36 37 39 41 40 44 44 43 46 45 46 47 48 -209 -209 -209 -209 -209 -209 -209 -209 38 39 41 41 40 42 42 42 42 42 43 42 43 41 39 38 37 35 36 36 36 36 36 35 33 32 34 34 29 30 32 29 31 33 32 32 30 27 23 22 19 19 18 17 18 15 22 27 32 33 33 34 35 35 35 35 33 34 35 36 35 36 35 34 29 43 -193 16 16 14 12 13 22 21 20 21 21 20 22 24 23 23 23 23 22 24 26 23 22 23 23 23 23 23 23 20 23 24 21 20 20 21 23 22 25 27 27 29 30 29 34 32 32 33 35 34 34 35 36 35 38 37 37 36 38 38 38 38 39 36 40 41 45 43 45 45 44 45 45 44 45 42 43 42 42 42 42 42 -193 -193 -193 44 45 47 46 46 -193 -193 46 43 43 47 44 44 44 44 44 44 45 45 42 46 46 45 46 46 46 46 49 48 48 47 48 48 48 0 0 0 0 0
    0 0 0 0 0 0 0 0 0 0 0 0 0 0 0 0 0 0 0 0 0 0 0 0 0 0 0 0 0 0 0 0 0 0 0 0 0 0 0 0 0 0 0 0 0 0 0 0 0 0 0 0 0 0 0 0 0 0 0 0 0 0 0 0 0 0 0 0 0 33 36 38 37 39 37 37 37 38 38 38 36 37 36 36 35 33 31 31 29 29 26 25 25 26 28 32 34 35 34 37 37 36 36 36 35 35 34 35 36 37 38 39 41 41 45 45 47 51 48 50 51 51 53 -209 -193 -209 -209 -209 -193 47 42 42 45 44 43 45 46 45 45 46 46 44 46 45 42 39 39 36 36 37 37 36 37 36 34 32 35 34 29 30 31 28 30 32 31 32 31 28 -193 -193 -193 20 18 17 19 -193 22 27 32 32 33 35 35 35 36 35 34 34 36 36 36 37 38 36 37 42 43 24 23 25 21 27 28 27 26 25 24 25 25 26 25 26 27 28 31 33 36 36 28 29 30 28 28 26 27 26 28 30 28 26 25 23 24 22 25 29 27 28 29 28 32 31 31 32 33 32 32 34 35 35 37 36 36 35 38 37 37 37 37 32 39 40 44 43 45 44 44 45 45 44 45 42 43 42 42 43 43 43 44 -193 -193 44 45 -193 -193 -193 -193 -193 -193 43 43 47 44 44 43 43 43 43 45 44 42 46 45 45 45 45 45 45 49 47 47 47 47 48 47 0 0 0 0 0
    0 0 0 0 0 0 0 0 0 0 0 0 0 0 0 0 0 0 0 0 0 0 0 0 0 0 0 0 0 0 0 0 0 0 0 0 0 0 0 0 0 0 0 0 0 0 0 0 0 0 0 0 0 0 0 0 0 0 0 0 0 0 0 0 0 0 0 0 0 34 37 38 38 39 37 38 37 38 38 38 36 36 36 36 34 33 31 31 28 29 26 24 25 27 28 33 34 35 34 36 36 35 35 35 35 35 34 35 37 37 38 40 41 43 45 46 49 52 50 51 53 51 53 51 53 53 45 52 48 48 45 44 47 46 44 47 49 47 47 48 48 46 48 48 44 40 39 37 37 37 37 37 37 37 34 33 35 33 29 30 31 28 30 31 31 31 31 28 25 25 25 22 20 19 -193 -193 24 29 34 33 34 36 36 35 36 36 34 35 37 37 36 38 38 37 38 42 42 29 27 31 30 32 31 30 32 32 31 33 31 34 32 34 36 37 39 41 41 42 40 39 39 39 38 34 35 35 36 36 35 32 30 29 29 28 27 30 28 28 30 27 29 30 30 31 33 31 31 32 34 34 37 36 36 36 38 38 38 38 38 34 39 41 44 43 45 44 44 44 44 43 45 42 43 42 43 43 43 -177 44 -193 -193 -193 -193 -193 -193 178 177 -193 -193 43 43 46 43 43 43 43 43 43 45 44 41 45 44 44 44 44 44 44 48 47 47 47 47 48 47 0 0 0 0 0
    0 0 0 0 0 0 0 0 0 0 0 0 0 0 0 0 0 0 0 0 0 0 0 0 0 0 0 0 0 0 0 0 0 0 0 0 0 0 0 0 0 0 0 0 0 0 0 0 0 0 0 0 0 0 0 0 0 0 0 0 0 0 0 0 0 0 0 0 0 36 38 39 39 38 37 38 38 38 38 38 36 36 37 36 35 34 32 32 29 31 28 26 27 29 30 34 35 35 33 35 35 34 35 34 34 35 35 37 38 38 39 40 42 44 45 46 50 54 51 51 53 52 53 52 53 53 45 51 50 49 47 46 49 47 45 49 51 48 49 50 49 47 49 50 45 40 40 38 38 37 38 37 37 37 34 33 35 33 30 31 32 29 30 32 31 32 32 29 27 27 26 24 21 20 -193 -193 26 32 36 34 35 36 36 36 36 36 35 35 37 37 36 38 38 38 38 40 39 31 28 32 31 32 30 28 30 31 30 34 33 35 34 34 37 37 39 40 40 41 40 38 39 39 38 35 35 35 35 35 35 33 31 31 31 28 26 24 24 -193 26 25 27 27 28 30 33 31 31 33 34 34 38 37 37 37 38 38 38 38 39 37 39 42 45 43 45 44 44 44 44 43 45 42 44 42 43 43 44 -177 -177 -193 -193 -193 -193 -193 -193 178 178 177 -193 42 43 45 43 43 43 43 43 43 44 44 41 44 43 43 43 43 43 43 47 46 47 47 47 47 47 0 0 0 0 0
    0 0 0 0 0 0 0 0 0 0 0 0 0 0 0 0 0 0 0 0 0 0 0 0 0 0 0 0 0 0 0 0 0 0 0 0 0 0 0 0 0 0 0 0 0 0 0 0 0 0 0 0 0 0 0 0 0 0 0 0 0 0 0 0 0 0 0 0 0 36 38 39 39 37 38 37 37 38 38 37 36 37 38 36 37 36 33 34 30 33 29 27 29 29 32 35 35 35 33 35 34 32 34 33 35 36 35 37 38 38 39 40 42 44 45 47 51 54 52 52 53 52 53 52 54 54 46 51 51 49 48 47 51 48 46 50 52 49 50 51 51 48 51 51 48 42 41 40 39 38 38 38 38 38 34 34 36 34 33 33 34 32 32 34 33 33 34 31 29 29 29 26 23 21 -193 -177 28 35 38 35 35 38 37 36 36 37 35 36 37 38 36 38 38 38 38 39 37 33 30 34 35 34 31 29 30 31 30 34 33 35 33 33 35 35 37 38 38 40 38 37 39 39 37 35 34 34 34 35 35 34 33 34 33 32 28 27 25 27 26 25 27 27 29 29 33 31 32 33 34 33 37 38 37 36 38 37 38 38 39 37 38 42 45 43 45 45 44 44 45 44 45 43 44 43 43 44 44 -177 44 -193 -193 -193 -193 -193 -193 178 178 -193 -193 42 43 45 43 43 43 43 43 43 44 43 41 44 42 42 42 42 42 42 47 45 46 47 47 47 47 0 0 0 0 0
    0 0 0 0 0 0 0 0 0 0 0 0 0 0 0 0 0 0 0 0 0 0 0 0 0 0 0 0 0 0 0 0 0 0 0 0 0 0 0 0 0 0 0 0 0 0 0 0 0 0 0 0 0 0 0 0 0 0 0 0 0 0 0 0 0 0 0 0 0 38 39 40 39 38 38 37 37 38 37 38 36 36 38 37 37 35 32 34 30 33 29 27 30 30 33 35 35 35 33 35 34 31 33 33 35 36 36 37 37 38 39 40 42 44 44 47 51 54 53 53 54 53 53 53 55 54 49 51 52 50 49 48 51 49 47 51 53 50 51 52 52 49 52 52 50 43 46 41 41 39 40 39 39 40 37 38 38 36 35 34 36 34 33 35 35 35 35 34 32 31 32 30 26 23 -193 452 32 37 39 36 36 38 37 36 35 37 36 37 37 38 37 38 38 39 38 39 36 36 34 36 36 35 32 29 29 29 28 31 32 33 32 32 35 35 36 38 38 40 38 36 38 38 36 36 34 34 34 36 36 35 35 36 35 34 30 29 25 29 32 27 28 29 31 31 33 31 31 32 33 31 37 38 37 37 39 38 39 39 40 40 38 42 45 43 45 45 44 44 45 44 45 43 44 43 43 44 44 -177 45 -193 -193 -193 -193 -193 -193 178 179 -193 -193 42 43 44 43 43 43 42 43 42 44 43 41 43 42 42 42 42 42 41 47 45 46 47 47 47 48 0 0 0 0 0
    0 0 0 0 0 0 0 0 0 0 0 0 0 0 0 0 0 0 0 0 0 0 0 0 0 0 0 0 0 0 0 0 0 0 0 0 0 0 0 0 0 0 0 0 0 0 0 0 0 0 0 0 0 0 0 0 0 0 0 0 0 0 0 0 0 0 0 0 0 39 40 -193 40 38 38 38 37 38 37 37 36 36 37 36 36 35 32 33 31 33 30 28 30 31 34 36 36 36 34 36 35 32 34 33 35 37 36 37 38 38 39 40 42 45 45 48 52 54 53 53 54 53 53 53 54 54 50 52 52 50 50 48 51 49 48 51 53 50 51 52 53 50 52 52 50 43 50 46 43 41 42 41 41 42 40 41 38 36 35 35 36 35 34 35 35 35 36 35 35 34 33 33 29 26 -193 -177 35 36 39 37 38 39 38 37 36 37 36 37 38 38 37 38 38 39 38 39 37 38 37 37 37 36 34 31 30 30 29 30 32 33 33 33 35 35 36 38 39 40 37 33 36 36 35 36 34 33 33 35 35 35 34 35 33 30 28 28 25 29 29 26 28 29 32 32 33 31 30 33 33 29 36 38 37 37 39 38 39 39 40 41 39 43 44 42 44 44 44 43 44 44 45 43 45 43 44 44 45 43 45 -193 -193 176 -193 -193 -193 178 -193 176 -193 41 43 43 42 42 42 42 43 42 44 42 41 43 41 41 42 42 42 42 47 46 47 48 48 48 48 0 0 0 0 0
    0 0 0 0 0 0 0 0 0 0 0 0 0 0 0 0 0 0 0 0 0 0 0 0 0 0 0 0 0 0 0 0 0 0 0 0 0 0 0 0 0 0 0 0 0 0 0 0 0 0 0 0 0 0 0 0 0 0 0 0 0 0 0 0 0 0 0 0 0 39 40 42 40 39 39 38 38 38 37 37 37 37 38 37 37 36 35 36 35 34 32 29 32 32 35 36 35 35 32 35 34 31 34 33 36 39 38 39 39 39 40 41 44 48 46 49 52 54 53 53 54 53 53 53 54 54 50 52 52 50 50 48 51 49 47 50 52 49 51 52 52 49 52 52 50 43 50 48 46 42 43 43 42 42 41 42 38 35 36 35 36 36 35 35 35 36 36 36 37 35 34 34 32 28 -193 449 -193 37 39 38 39 39 38 38 36 37 36 38 37 38 38 38 38 39 38 39 37 39 38 39 39 37 35 32 31 31 29 29 31 32 33 34 36 35 35 38 39 40 39 33 34 35 35 36 35 32 32 33 34 34 33 33 29 27 25 27 24 29 29 27 28 30 33 33 35 33 30 32 32 29 35 38 37 37 39 38 39 39 40 41 40 42 43 42 44 43 43 42 44 43 45 43 45 44 44 45 45 44 44 -193 -193 -177 -193 -193 -193 -193 -193 -193 43 41 43 43 42 42 42 42 42 42 44 42 41 43 41 42 43 42 42 42 47 46 47 48 48 48 48 0 0 0 0 0
    0 0 0 0 0 0 0 0 0 0 0 0 0 0 0 0 0 0 0 0 0 0 0 0 0 0 0 0 0 0 0 0 0 0 0 0 0 0 0 0 0 0 0 0 0 0 0 0 0 0 0 0 0 0 0 0 0 0 0 0 0 0 0 0 0 0 0 0 0 40 40 42 41 38 39 38 38 38 37 38 38 37 38 37 37 37 35 36 35 34 32 30 34 34 36 37 34 34 32 35 34 31 34 33 36 -209 39 40 40 40 41 42 46 52 48 50 52 54 54 54 53 53 53 53 54 55 51 52 52 51 50 49 51 50 48 50 52 49 51 51 52 49 51 51 49 43 49 47 46 42 44 44 44 44 46 46 40 37 37 35 36 36 35 35 35 35 36 36 37 36 35 35 33 29 -193 -193 -193 39 41 41 41 39 38 38 35 38 36 38 37 37 37 37 38 39 37 39 36 39 39 39 39 37 35 32 30 30 29 28 30 30 32 34 36 35 34 37 40 -193 -209 -193 33 34 35 37 35 31 30 32 34 34 -193 -193 -193 26 25 28 25 29 28 27 27 29 33 33 35 33 30 31 32 28 36 38 38 37 39 39 40 40 41 41 41 43 43 42 44 43 42 42 43 43 45 43 45 44 45 46 46 44 45 -193 -193 -193 -193 -193 -193 -193 -193 -193 43 42 44 43 42 42 42 41 42 41 43 42 41 45 42 43 44 43 42 43 47 46 46 48 48 48 48 0 0 0 0 0
    0 0 0 0 0 0 0 0 0 0 0 0 0 0 0 0 0 0 0 0 0 0 0 0 0 0 0 0 0 0 0 0 0 0 0 0 0 0 0 0 0 0 0 0 0 0 0 0 0 0 0 0 0 0 0 0 0 0 0 0 0 0 0 0 0 0 0 0 0 42 40 43 41 37 38 38 37 37 37 37 38 37 39 37 37 37 36 36 35 34 32 30 33 34 36 36 33 33 31 35 34 30 34 32 37 -209 42 42 41 41 42 43 47 53 48 50 52 54 54 54 53 53 52 53 53 54 51 51 52 51 50 49 51 50 48 50 52 49 50 51 52 49 50 51 49 43 50 48 46 42 45 46 45 47 50 49 42 37 37 36 36 36 35 35 35 34 35 35 36 35 33 34 32 29 -193 -193 -193 39 41 40 40 38 37 37 34 37 36 38 37 37 37 37 37 38 37 38 35 39 39 38 39 37 35 32 30 31 30 30 32 32 34 36 38 36 35 37 -209 -209 -209 -209 -193 -193 35 -193 -209 31 30 32 34 -193 -193 -193 -209 -209 -193 28 26 30 29 27 27 29 32 34 37 35 27 30 30 28 37 40 39 39 40 40 41 41 42 43 41 44 44 42 44 43 42 42 44 43 45 44 46 45 46 48 47 45 46 -193 -193 -193 -193 43 44 44 -193 -193 44 42 44 43 42 42 41 41 42 41 43 42 42 47 43 44 45 44 43 43 48 46 46 48 49 48 49 0 0 0 0 0
    0 0 0 0 0 0 0 0 0 0 0 0 0 0 0 0 0 0 0 0 0 0 0 0 0 0 0 0 0 0 0 0 0 0 0 0 0 0 0 0 0 0 0 0 0 0 0 0 0 0 0 0 0 0 0 0 0 0 0 0 0 0 0 0 0 0 0 0 0 48 48 49 -209 36 37 37 36 36 36 36 37 36 38 37 36 37 36 36 35 34 31 29 31 32 35 35 32 32 31 35 34 29 33 30 37 -193 44 43 42 41 43 44 49 53 47 50 51 53 53 53 52 52 51 52 52 53 51 51 52 51 50 49 51 50 49 50 53 48 50 51 52 49 50 51 48 44 51 49 46 42 46 48 -193 48 51 50 42 38 37 36 37 37 36 36 35 34 35 34 35 33 32 32 30 28 36 -193 -193 -193 40 40 40 37 36 37 34 37 36 38 36 37 37 37 37 38 37 38 35 40 -193 -193 -193 38 35 33 32 -193 -193 30 -193 33 35 36 38 -193 -193 -193 -209 -209 -209 -209 -209 -193 34 -193 -209 31 30 32 34 -193 -193 -193 -209 -209 -209 -209 -193 34 32 30 29 31 34 -193 -209 -209 -209 30 31 29 36 43 40 40 41 41 42 43 44 44 41 45 44 42 44 43 43 42 44 44 47 45 47 47 48 50 50 47 47 44 46 45 43 44 44 45 44 -193 44 42 44 43 42 42 41 40 41 41 44 42 43 49 44 44 46 44 43 43 48 46 47 49 50 48 49 0 0 0 0 0
    0 0 0 0 0 0 0 0 0 0 0 0 0 0 0 0 0 0 0 0 0 0 0 0 0 0 0 0 0 0 0 0 0 0 0 0 0 0 0 0 0 0 0 0 0 0 0 0 0 0 0 0 0 0 0 0 0 0 0 0 0 0 0 0 0 0 0 0 0 58 60 61 64 -209 39 39 36 36 36 36 37 36 38 37 36 36 36 36 35 33 31 28 29 32 -193 35 32 31 31 35 35 29 30 28 37 -225 -193 43 41 41 43 44 50 54 48 51 51 53 54 53 52 52 51 51 52 53 51 51 52 51 50 49 51 51 50 51 53 48 50 51 52 49 49 50 48 44 50 48 46 -209 -193 -193 -193 47 50 50 -209 -193 38 37 38 38 37 36 35 34 35 35 34 33 31 31 29 27 34 -193 -193 -193 40 40 41 37 35 36 31 36 35 37 35 36 36 37 36 38 36 38 35 41 -209 -193 -193 38 36 -193 -209 -209 -209 -193 -193 33 35 36 37 -193 -193 -193 652 -209 -209 -209 -209 -193 34 36 -209 -193 31 -193 -209 -209 449 -209 -209 -209 -209 -209 -209 32 34 31 -193 -209 -209 -209 -209 -209 -209 -209 -209 -209 37 42 39 39 40 40 42 42 44 44 42 45 44 42 44 43 42 42 45 45 49 46 50 49 51 53 53 50 49 45 48 47 45 46 45 45 45 44 44 41 44 42 42 41 41 40 41 41 43 42 44 51 46 45 47 45 44 44 49 47 47 50 51 49 50 0 0 0 0 0
    0 0 0 0 0 0 0 0 0 0 0 0 0 0 0 0 0 0 0 0 0 0 0 0 0 0 0 0 0 0 0 0 0 0 0 0 0 0 0 0 0 0 0 0 0 0 0 0 0 0 0 0 0 0 0 0 0 0 0 0 0 0 0 0 0 0 0 0 0 62 65 66 68 73 -209 -209 -193 36 37 37 37 37 38 37 36 36 36 35 34 31 29 25 26 27 -209 -209 -193 -209 30 35 35 29 -225 -225 -225 -225 -209 43 40 41 43 44 50 54 48 50 51 53 54 54 53 52 52 52 53 53 52 51 51 52 51 49 51 51 51 51 53 49 50 52 52 50 48 49 47 44 51 48 45 -193 806 -193 806 -209 -209 49 -193 -209 -193 38 -193 -193 -193 37 35 34 35 34 32 31 29 29 27 26 31 -193 -193 -209 -193 42 54 -193 34 34 30 36 34 37 34 35 36 37 37 38 37 39 38 42 44 -209 -193 39 -209 -193 -193 -193 481 -177 488 -193 35 37 -225 -225 -225 -225 -225 -225 -225 -225 -225 -225 -225 -209 -209 -209 -193 -209 -209 -209 -209 -209 -209 -209 -209 -209 -209 31 -193 -209 -193 -209 -209 -209 -209 -209 -209 85 87 85 87 -209 -209 42 44 42 42 43 45 45 43 45 44 42 44 43 42 42 45 47 52 49 52 52 53 55 55 53 51 47 50 48 47 47 45 45 45 44 44 42 44 42 41 42 40 39 41 40 43 42 45 52 46 46 48 47 45 46 50 47 48 52 52 50 50 0 0 0 0 0
    0 0 0 0 0 0 0 0 0 0 0 0 0 0 0 0 0 0 0 0 0 0 0 0 0 0 0 0 0 0 0 0 0 0 0 0 0 0 0 0 0 0 0 0 0 0 0 0 0 0 0 0 0 0 0 0 0 0 0 0 0 0 0 0 0 0 0 0 0 66 68 68 69 72 71 73 77 -209 37 36 36 36 37 36 35 36 35 35 34 31 30 24 -225 -225 59 -225 -193 -209 -209 -193 -225 -225 -225 -225 -225 -225 -225 50 44 42 45 47 51 55 49 51 51 53 54 54 53 52 52 52 52 52 52 51 51 52 51 48 51 52 51 52 54 50 50 52 53 51 48 49 47 44 51 47 -193 806 804 -225 -225 -225 -225 -225 -225 -225 -225 -225 -225 -225 -225 37 -225 34 34 34 30 30 28 28 26 25 29 -225 -225 -225 -225 -225 -225 -225 -225 -225 -193 -193 -193 -193 33 35 37 38 38 40 39 40 40 42 -193 -209 -209 -193 -209 484 -193 477 478 482 487 -225 -225 -225 -225 -225 -225 -225 -225 -225 -225 -225 -225 -225 -225 -225 -209 -209 -209 -209 -209 -193 -209 -209 -209 -209 -209 -209 -209 -209 -209 -209 -209 -209 -209 -209 -193 -209 86 87 88 87 89 89 91 93 -209 -209 44 46 49 49 45 48 43 41 43 42 40 40 44 50 55 53 56 56 56 59 59 56 53 50 53 51 49 48 45 46 46 46 46 43 44 42 42 42 40 38 40 40 42 42 47 53 46 46 49 48 46 48 51 -193 -193 -193 53 52 52 0 0 0 0 0
    0 0 0 0 0 0 0 0 0 0 0 0 0 0 0 0 0 0 0 0 0 0 0 0 0 0 0 0 0 0 0 0 0 0 0 0 0 0 0 0 0 0 0 0 0 0 0 0 0 0 0 0 0 0 0 0 0 0 0 0 0 0 0 0 0 0 0 0 0 67 69 68 69 72 73 74 76 77 76 83 -193 -225 -225 -225 -225 -225 -225 36 -225 -225 -225 -225 -225 -225 -225 -225 -225 -225 -225 -225 -225 -225 -225 -225 -225 -225 -225 45 44 45 46 47 51 55 49 51 53 53 53 54 52 51 50 50 50 50 50 49 48 51 50 47 50 52 51 52 53 50 48 50 52 50 46 47 45 43 47 48 -193 -225 -225 -225 -225 -225 -225 -225 -225 -225 -225 -225 -225 -225 -225 -225 -225 -225 35 33 -193 28 26 26 -225 -225 -225 -225 -225 -225 -225 -225 -225 -225 -225 -225 -225 -225 -225 -225 -225 -225 -225 -225 -225 -225 -225 -225 -225 -225 -225 -225 -225 -209 -209 482 -209 -193 477 -225 -225 -225 -225 -225 -225 -225 -225 -225 -225 -225 -225 -225 -225 -225 -225 -225 -225 -209 -209 -209 -209 -209 -209 -209 -209 -209 -193 -209 -209 -209 -209 -209 -209 -209 -193 -209 88 90 87 89 89 88 89 90 90 91 89 90 -209 51 -209 -209 48 49 -209 -193 -209 -209 38 37 -209 54 58 56 58 59 59 61 62 61 57 55 59 60 -209 51 43 47 46 49 48 43 44 43 42 44 39 37 39 39 42 43 47 53 45 46 50 50 46 -193 -193 -209 -209 -193 56 55 54 0 0 0 0 0
    0 0 0 0 0 0 0 0 0 0 0 0 0 0 0 0 0 0 0 0 0 0 0 0 0 0 0 0 0 0 0 0 0 0 0 0 0 0 0 0 0 0 0 0 0 0 0 0 0 0 0 0 0 0 0 0 0 0 0 0 0 0 0 0 0 0 0 0 0 67 69 68 70 72 72 73 75 75 77 -225 -225 -225 -225 -225 -225 -225 -225 -225 -225 -225 -225 -225 -225 -225 -225 -225 -225 -225 -225 -225 -225 -225 -225 -225 -225 -225 -225 -225 42 42 43 42 49 55 49 51 53 54 54 54 53 52 50 50 49 49 48 48 47 51 50 47 50 52 51 53 54 51 49 50 52 50 47 48 46 44 49 49 -225 -225 -225 -225 -225 -225 -225 -225 -225 -225 -225 -225 -225 -225 -225 -225 -225 -225 -225 -225 -225 -225 -225 -225 -225 -225 -225 -225 -225 -225 -225 -225 -225 -225 -225 -225 -225 -225 -225 -225 -225 -225 -225 -225 -225 -225 -225 -225 -225 -225 -225 -225 -225 -225 -225 -225 -225 -225 -225 -225 -225 -225 -225 -225 -225 -225 -225 -225 -225 -225 -225 -225 -225 -225 -225 -225 -225 -225 -225 -225 -209 -209 -209 -209 -209 -209 -209 -209 -209 -209 -209 -209 -209 -209 -193 -193 88 91 88 89 89 88 89 89 89 89 85 86 -209 46 -209 -209 -209 -209 -209 -209 -209 -209 -209 -209 -209 -209 -209 -193 60 62 63 64 65 64 60 57 62 65 64 -209 42 48 47 52 52 44 47 44 44 48 41 37 40 -193 43 50 52 57 -209 46 53 56 -209 -209 -209 -209 -209 -209 72 -209 -209 0 0 0 0 0
    0 0 0 0 0 0 0 0 0 0 0 0 0 0 0 0 0 0 0 0 0 0 0 0 0 0 0 0 0 0 0 0 0 0 0 0 0 0 0 0 0 0 0 0 0 0 0 0 0 0 0 0 0 0 0 0 0 0 0 0 0 0 0 0 0 0 0 0 0 68 70 70 72 73 72 73 75 -225 -225 -225 -225 -225 -225 -225 -225 -225 -225 -225 -225 -225 -225 -225 -225 -225 -225 -225 -225 -225 -225 -225 -225 -225 -225 -225 -225 -225 -225 -225 -225 39 40 40 45 54 48 50 52 54 54 54 52 51 50 50 50 50 48 48 47 52 51 -225 -225 -225 -225 -225 -225 51 49 51 52 50 49 50 48 45 52 -225 -225 -225 -225 -225 -225 -225 -225 -225 -225 -225 -225 -225 -225 -225 -225 -225 -225 -225 -225 -225 -225 -225 -225 -225 -225 -225 -225 -225 -225 -225 -225 -225 -225 -225 -225 -225 -225 -225 -225 -225 -225 -225 -225 -225 -225 -225 -225 -225 -225 -225 -225 -225 -225 -225 -225 -225 -225 -225 -225 -225 -225 -225 -225 -225 -225 -225 -225 -225 -225 -225 -225 -225 -225 -225 -225 -225 -225 -225 -225 -225 -225 -225 -225 -225 77 77 78 76 -193 -209 -209 -209 -225 -209 90 86 88 90 88 89 89 88 89 88 88 88 83 84 -193 -193 -193 -209 -193 -209 -209 85 84 85 87 -209 -209 -209 -209 -193 -193 -193 -193 -193 66 66 61 57 61 61 61 -209 44 50 50 54 -209 -209 47 45 45 52 -193 -209 -209 -209 -209 66 69 70 70 -209 -193 -209 -209 -209 -209 -209 -209 -193 -209 90 91 0 0 0 0 0
    0 0 0 0 0 0 0 0 0 0 0 0 0 0 0 0 0 0 0 0 0 0 0 0 0 0 0 0 0 0 0 0 0 0 0 0 0 0 0 0 0 0 0 0 0 0 0 0 0 0 0 0 0 0 0 0 0 0 0 0 0 0 0 0 0 0 0 0 0 -225 -225 70 72 73 73 73 75 -225 -225 -225 -225 -225 -225 -225 -225 -225 -225 -225 -225 -225 -225 -225 -225 -225 -225 -225 -225 -225 -225 -225 -225 -225 -225 -225 -225 -225 -225 -225 -225 -225 -225 39 44 52 47 48 50 53 53 -225 -225 -225 49 -225 -225 -225 -225 -225 -225 -225 -225 -225 -225 -225 -225 -225 -225 -225 -225 51 53 51 52 52 50 46 -225 -225 -225 -225 -225 -225 -225 -225 -225 -225 -225 -225 -225 -225 -225 -225 -225 -225 -225 -225 -225 -225 -225 -225 -225 -225 -225 -225 -225 -225 -225 -225 -225 -225 -225 -225 -225 -225 -225 -225 -225 -225 -225 -225 -225 -225 -225 -225 -225 -225 -225 -225 -225 -225 -225 -225 -225 -225 -225 -225 -225 -225 -225 -225 -225 -225 -225 -225 -225 -225 -225 -225 -225 -225 -225 -225 -225 -225 -225 -225 -225 -225 -225 -225 -225 -225 -225 -225 -225 -225 -225 -225 -225 -225 -225 -209 87 85 87 90 88 89 89 87 89 88 88 88 84 84 83 -193 79 85 -193 -209 79 85 85 85 85 82 77 79 -209 -209 -193 -193 -193 -193 65 64 61 55 59 -209 -209 -209 41 44 44 49 -209 -209 -209 -209 -209 -209 -209 -209 -193 -209 -209 69 -193 73 -193 -209 -209 -193 -209 -209 -209 -209 -209 -209 -209 92 91 0 0 0 0 0
    0 0 0 0 0 0 0 0 0 0 0 0 0 0 0 0 0 0 0 0 0 0 0 0 0 0 0 0 0 0 0 0 0 0 0 0 0 0 0 0 0 0 0 0 0 0 0 0 0 0 0 0 0 0 0 0 0 0 0 0 0 0 0 0 0 0 0 0 0 -225 68 69 71 73 72 72 75 -225 -225 -225 -225 -225 -225 -225 -225 -225 -225 -225 -225 -225 -225 -225 -225 -225 -225 -225 -225 -225 -225 -225 -225 -225 -225 -225 -225 -225 -225 -225 -225 -225 -225 -225 -225 -225 -225 -225 -225 -225 -225 -225 -225 -225 -225 -225 -225 -225 -225 -225 -225 -225 -225 -225 -225 -225 -225 -225 -225 -225 -225 -225 -225 -225 -225 -225 -225 -225 -225 -225 -225 -225 -225 -225 -225 -225 -225 -225 -225 -225 -225 -225 -225 -225 -225 -225 -225 -225 -225 -225 -225 -225 -225 -225 -225 -225 -225 -225 -225 -225 -225 -225 -225 -225 -225 -225 -225 -225 -225 -225 -225 -225 -225 -225 -225 -225 -225 -225 -225 -225 -225 -225 -225 -225 -225 -225 -225 -225 -225 -225 -225 -225 -225 -225 -225 -225 -225 -225 -225 -225 -225 -225 -225 -225 -225 -225 -225 -225 -225 -225 -225 -225 -225 -225 -225 -225 -225 -225 -225 -225 -225 -225 -225 -209 87 85 87 90 88 89 89 88 89 88 88 88 83 85 84 -193 81 86 81 -209 82 86 85 84 83 79 75 76 -193 -209 -209 -193 -193 -193 -193 61 -193 -209 -209 -209 -209 -209 -193 42 43 -209 -209 -209 -209 -193 107 105 104 102 99 97 -209 -209 77 82 -209 -209 -209 -209 -209 -209 -193 -209 -209 -209 -209 -209 -209 0 0 0 0 0
    0 0 0 0 0 0 0 0 0 0 0 0 0 0 0 0 0 0 0 0 0 0 0 0 0 0 0 0 0 0 0 0 0 0 0 0 0 0 0 0 0 0 0 0 0 0 0 0 0 0 0 0 0 0 0 0 0 0 0 0 0 0 0 0 0 0 0 0 0 70 68 69 71 73 70 69 73 76 80 -225 -225 -225 -225 -225 -225 -225 -225 -225 -225 -225 -225 -225 -225 -225 -225 -225 -225 -225 -225 -225 -225 -225 -225 -225 -225 -225 -225 -225 -225 -225 -225 -225 -225 -225 -225 -225 -225 -225 -225 -225 -225 -225 -225 -225 -225 -225 -225 -225 -225 -225 -225 -225 -225 -225 -225 -225 -225 -225 -225 -225 -225 -225 -225 -225 -225 -225 -225 -225 -225 -225 -225 -225 -225 -225 -225 -225 -225 -225 -225 -225 -225 -225 -225 -225 -225 -225 -225 -225 -225 -225 -225 -225 -225 -225 -225 -225 -225 -225 -225 -225 -225 -225 -225 -225 -225 -225 -225 -225 -225 -225 -225 -225 -225 -225 -225 -225 -225 -225 -225 -225 -225 -225 -225 -225 -225 -225 -225 -225 -225 -225 -225 -225 -225 -225 -225 -225 -225 -225 -225 -225 -225 -225 -225 -225 -225 -225 -225 -225 -225 -225 -225 -225 -225 -225 -225 -225 -225 -225 -225 -225 -225 -209 88 87 88 91 89 90 90 88 89 89 88 88 84 85 84 76 79 84 -209 -209 -209 -209 -209 78 79 -209 -193 76 -209 -209 -209 -209 -193 -193 -209 -209 -209 -209 -209 -209 -209 -209 -209 -209 -209 -209 -193 107 105 107 108 107 106 105 -193 102 -209 -209 -209 -209 -209 -209 -209 -209 -209 114 -209 -209 -209 -209 -209 -209 -209 0 0 0 0 0
    0 0 0 0 0 0 0 0 0 0 0 0 0 0 0 0 0 0 0 0 0 0 0 0 0 0 0 0 0 0 0 0 0 0 0 0 0 0 0 0 0 0 0 0 0 0 0 0 0 0 0 0 0 0 0 0 0 0 0 0 0 0 0 0 0 0 0 0 0 -209 -209 -177 -209 128 133 131 128 126 -193 118 121 -225 -225 -225 -225 -225 -225 -225 134 131 126 125 125 123 122 122 122 119 119 119 120 -225 -225 -225 -225 -225 -225 -225 -225 -225 -225 -225 -225 -225 -225 -225 -225 -225 -225 -225 -225 -225 -225 -225 -225 -225 -225 -225 -225 -225 -225 -225 -225 -225 -225 -225 -225 -225 -225 -225 -225 -225 -225 -225 -225 -225 -225 -225 -225 -225 -225 -225 -225 -225 -225 -225 -225 -225 -225 -225 -225 -225 -225 -225 -225 -225 -225 -225 -225 -225 -225 -225 -225 -225 -225 -225 -225 -225 -225 -225 -225 -225 -225 -225 -225 -225 -225 -225 -225 -225 -225 -225 -225 -225 -225 -225 -225 -225 -225 -225 -225 -225 -225 -225 -225 -225 -225 -225 -225 -225 -225 -225 -225 -225 -225 -225 -225 -225 -225 -225 -225 -225 -225 -225 -225 -225 -225 -225 -225 -225 -225 -225 -225 -225 -225 -225 -225 -225 -225 -225 -225 -225 90 91 93 95 91 90 91 90 90 90 87 87 84 86 85 76 77 82 -209 -209 -209 -209 -209 -209 -209 -209 -209 -209 -209 -209 -209 -209 -193 0 -193 -209 -209 -209 -209 -209 -209 -209 -193 -209 -209 -193 112 111 108 109 111 110 109 109 109 105 -209 -209 -209 -209 -209 -193 -209 122 123 120 120 122 123 124 123 -209 -209 0 0 0 0 0
    0 0 0 0 0 0 0 0 0 0 0 0 0 0 0 0 0 0 0 0 0 0 0 0 0 0 0 0 0 0 0 0 0 0 0 0 0 0 0 0 0 0 0 0 0 0 0 0 0 0 0 0 0 0 0 0 0 0 0 0 0 0 0 0 0 0 0 0 0 -193 123 126 126 132 134 132 132 130 125 124 126 127 126 126 -225 -225 -225 127 132 129 125 124 125 122 122 122 -193 -193 118 118 119 118 119 117 -225 -225 -225 -225 -225 -225 -225 -225 -225 -225 -225 -225 -225 -225 -225 -225 -225 -225 -225 -225 -225 -225 -225 -225 -225 -225 -225 -225 -225 -225 -225 -225 -225 -225 -225 -225 -225 -225 -225 -225 -225 -225 -225 -225 -225 -225 -225 -225 -225 -225 -225 -225 -225 -225 -225 -225 -225 -225 -225 -225 -225 -225 -225 -225 -225 -225 -225 -225 -225 -225 -225 -225 -225 -225 -225 -225 -225 -225 -225 -225 -225 -225 -225 -225 -225 -225 -225 -225 -225 -225 -225 -225 -225 -225 -225 -225 -225 -225 -225 -225 -225 -225 -225 -225 -225 -225 -225 -225 -225 -225 -225 -225 -225 -225 -225 -225 -225 -225 -225 -225 -225 -225 -225 -225 -225 -225 -225 -225 -225 -225 -225 -225 -225 -225 -225 -225 -225 -225 89 92 98 98 93 92 93 91 92 91 86 86 83 85 85 -209 74 78 -209 -209 -209 -209 -209 -209 -209 -209 -209 -209 -209 -209 -209 -209 -193 0 -193 -209 -209 -209 -209 -209 -209 -209 -193 -209 -209 -193 115 -193 109 109 113 110 111 113 117 112 117 123 126 126 124 126 -193 122 126 122 122 124 126 126 126 124 125 0 0 0 0 0
    0 0 0 0 0 0 0 0 0 0 0 0 0 0 0 0 0 0 0 0 0 0 0 0 0 0 0 0 0 0 0 0 0 0 0 0 0 0 0 0 0 0 0 0 0 0 0 0 0 0 0 0 0 0 0 0 0 0 0 0 0 0 0 0 0 0 0 0 0 -193 133 134 131 134 135 133 132 129 124 125 126 127 127 126 -225 -225 124 127 132 128 126 125 125 123 123 122 122 118 118 118 118 117 117 118 -225 -225 -225 -225 -225 -225 -225 -225 -225 -225 -225 -225 -225 -225 -225 -225 -225 -225 -225 -225 -225 -225 -225 -225 -225 -225 -225 -225 -225 -225 -225 -225 -225 -225 -225 -225 -225 -225 -225 -225 -225 -225 -225 -225 -225 -225 -225 -225 -225 -225 -225 -225 -225 -225 -225 -225 -225 -225 -225 -225 -225 -225 -225 -225 -225 -225 -225 -225 -225 -225 -225 -225 -225 -225 -225 -225 -225 -225 -225 -225 -225 -225 -225 -225 -225 -225 -225 -225 -225 -225 -225 -225 -225 -225 -225 -225 -225 -225 -225 -225 -225 -225 -225 -225 -225 -225 -225 -225 -225 -225 -225 -225 -225 -225 -225 -225 -225 -225 -225 -225 -225 -225 -225 -225 -225 -225 -225 -225 -225 -225 -225 -225 -225 -225 -225 -225 -225 -225 -225 99 102 99 98 99 100 96 97 97 82 78 78 79 -209 69 72 -193 -209 -209 -209 -209 -209 -209 -209 -209 -209 -209 -209 -209 -209 -209 0 0 0 -193 -209 -209 -209 -209 -209 -209 -209 -209 -209 -209 -209 -209 110 110 115 114 115 118 121 121 121 124 127 127 126 128 124 124 127 123 122 124 125 125 125 123 124 0 0 0 0 0
    0 0 0 0 0 0 0 0 0 0 0 0 0 0 0 0 0 0 0 0 0 0 0 0 0 0 0 0 0 0 0 0 0 0 0 0 0 0 0 0 0 0 0 0 0 0 0 0 0 0 0 0 0 0 0 0 0 0 0 0 0 0 0 0 0 0 0 0 0 143 136 136 133 135 135 134 132 127 123 124 126 127 126 126 -225 -225 124 127 132 128 126 125 125 123 123 122 122 118 118 118 118 117 117 118 -225 -225 -225 -225 -225 -225 -225 -225 -225 -225 -225 -225 -225 -225 -225 -225 -225 -225 -225 -225 -225 -225 -225 -225 -225 -225 -225 -225 -225 -225 -225 -225 -225 -225 -225 -225 -225 -225 -225 -225 -225 -225 -225 -225 -225 -225 -225 -225 -225 -225 -225 -225 -225 -225 -225 -225 -225 -225 -225 -225 -225 -225 -225 -225 -225 -225 -225 -225 -225 -225 -225 -225 -225 -225 -225 -225 -225 -225 -225 -225 -225 -225 -225 -225 -225 -225 -225 -225 -225 -225 -225 -225 -225 -225 -225 -225 -225 -225 -225 -225 -225 -225 -225 -225 -225 -225 -225 -225 -225 -225 -225 -225 -225 -225 -225 -225 -225 -225 -225 -225 -225 -225 -225 -225 -225 -225 -225 -225 -225 -225 -225 -225 -225 -225 -225 -225 -225 -225 -225 -225 108 -193 -209 -209 -209 -209 -209 -209 -209 -209 75 75 -209 70 71 71 -209 -209 -209 -209 -209 -209 -209 -209 146 146 -209 -209 -209 -209 -193 -193 -193 -193 -193 -209 -209 -209 -209 -193 -209 -209 -209 -209 -209 -209 -209 113 115 116 116 119 121 121 121 124 126 126 126 128 124 125 129 124 121 124 124 124 125 123 124 0 0 0 0 0
    0 0 0 0 0 0 0 0 0 0 0 0 0 0 0 0 0 0 0 0 0 0 0 0 0 0 0 0 0 0 0 0 0 0 0 0 0 0 0 0 0 0 0 0 0 0 0 0 0 0 0 0 0 0 0 0 0 0 0 0 0 0 0 0 0 0 0 0 0 -209 141 140 135 136 137 135 133 128 124 125 127 129 127 126 127 -225 124 127 132 128 126 125 125 123 123 122 122 118 118 118 118 117 117 118 -225 -225 -225 -225 -225 -225 -225 -225 -225 -225 -225 -225 -225 -225 -225 -225 -225 -225 -225 -225 -225 -225 -225 -225 -225 -225 -225 -225 -225 -225 -225 -225 -225 -225 -225 -225 -225 -225 -225 -225 -225 -225 -225 -225 -225 -225 -225 -225 -225 -225 -225 -225 -225 -225 -225 -225 -225 -225 -225 -225 -225 -225 -225 -225 -225 -225 -225 -225 -225 -225 -225 -225 -225 -225 -225 -225 -225 -225 -225 -225 -225 -225 -225 -225 -225 -225 -225 -225 -225 -225 -225 -225 -225 -225 -225 -225 -225 -225 -225 -225 -225 -225 -225 -225 -225 -225 -225 -225 -225 -225 -225 -225 -225 -225 -225 -225 -225 -225 -225 -225 -225 -225 -225 -225 -225 -225 -225 -225 -225 -225 -225 -225 -225 -225 -225 -225 -225 -225 -225 -225 -209 -209 -209 -209 -209 -209 -209 142 -209 -209 74 75 75 72 73 72 -193 69 71 -209 -209 -209 -193 -209 149 149 -209 -209 -209 -209 -209 -193 0 -193 -193 -209 -209 -209 -209 -193 -209 -209 -209 -209 -193 -193 -193 118 117 118 118 121 122 122 122 124 126 126 126 128 124 126 129 125 123 125 125 125 126 125 125 0 0 0 0 0
    0 0 0 0 0 0 0 0 0 0 0 0 0 0 0 0 0 0 0 0 0 0 0 0 0 0 0 0 0 0 0 0 0 0 0 0 0 0 0 0 0 0 0 0 0 0 0 0 0 0 0 0 0 0 0 0 0 0 0 0 0 0 0 0 0 0 0 0 0 151 144 140 135 136 137 135 133 130 126 125 128 130 129 127 127 -225 124 127 132 128 126 125 125 123 123 122 122 118 118 118 118 117 117 118 -225 -225 -225 -225 -225 -225 -225 -225 -225 -225 -225 -225 -225 -225 -225 -225 -225 -225 -225 -225 -225 -225 -225 -225 -225 -225 -225 -225 -225 -225 -225 -225 -225 -225 -225 -225 -225 -225 -225 -225 -225 -225 -225 -225 -225 -225 -225 -225 -225 -225 -225 -225 -225 -225 -225 -225 -225 -225 -225 -225 -225 -225 -225 -225 -225 -225 -225 -225 -225 -225 -225 -225 -225 -225 -225 -225 -225 -225 -225 -225 -225 -225 -225 -225 -225 -225 -225 -225 -225 -225 -225 -225 -225 -225 -225 -225 -225 -225 -225 -225 -225 -225 -225 -225 -225 -225 -225 -225 -225 -225 -225 -225 -225 -225 -225 -225 -225 -225 -225 -225 -225 -225 -225 -225 -225 -225 -225 -225 -225 -225 -225 -225 -225 -225 -225 -225 -225 -225 -225 -225 -209 -209 -209 -209 -209 -209 -209 142 149 -193 -209 -209 -209 -209 74 74 75 -193 74 -209 -193 -209 52 -209 -193 -209 -209 -209 -209 -209 -209 -209 -193 -209 -209 -209 -209 -209 -193 243 -193 -209 -209 -209 -193 -193 122 120 119 120 118 121 123 123 123 124 126 126 126 128 124 124 127 124 122 125 125 125 126 125 125 0 0 0 0 0
    0 0 0 0 0 0 0 0 0 0 0 0 0 0 0 0 0 0 0 0 0 0 0 0 0 0 0 0 0 0 0 0 0 0 0 0 0 0 0 0 0 0 0 0 0 0 0 0 0 0 0 0 0 0 0 0 0 0 0 0 0 0 0 0 0 0 0 0 0 150 146 140 136 136 136 135 133 130 126 126 128 131 130 127 127 -225 124 127 132 128 126 125 125 123 123 122 122 118 118 118 118 117 117 118 -225 -225 -225 -225 -225 -225 -225 -225 -225 -225 -225 -225 -225 -225 -225 -225 -225 -225 -225 -225 -225 -225 -225 -225 -225 -225 -225 -225 -225 -225 -225 -225 -225 -225 -225 -225 -225 -225 -225 -225 -225 -225 -225 -225 -225 -225 -225 -225 -225 -225 -225 -225 -225 -225 -225 -225 -225 -225 -225 -225 -225 -225 -225 -225 -225 -225 -225 -225 -225 -225 -225 -225 -225 -225 -225 -225 -225 -225 -225 -225 -225 -225 -225 -225 -225 -225 -225 -225 -225 -225 -225 -225 -225 -225 -225 -225 -225 -225 -225 -225 -225 -225 -225 -225 -225 -225 -225 -225 -225 -225 -225 -225 -225 -225 -225 -225 -225 -225 -225 -225 -225 -225 -225 -225 -225 -225 -225 -225 -225 -225 -225 -225 -225 -225 -225 -225 -225 -225 -225 -225 -209 -209 -209 -209 -209 -209 -209 142 148 150 -209 -209 -209 -209 74 74 75 73 74 -209 -193 -209 51 52 -193 -193 -193 -193 -209 -209 -209 -209 -193 -193 -193 -209 -209 -209 240 243 244 -209 -209 -209 -193 125 127 124 122 123 121 124 125 124 124 126 126 127 125 127 122 121 126 123 121 124 124 124 125 125 125 0 0 0 0 0
    0 0 0 0 0 0 0 0 0 0 0 0 0 0 0 0 0 0 0 0 0 0 0 0 0 0 0 0 0 0 0 0 0 0 0 0 0 0 0 0 0 0 0 0 0 0 0 0 0 0 0 0 0 0 0 0 0 0 0 0 0 0 0 0 0 0 0 0 0 151 149 142 137 137 137 135 134 130 126 126 129 131 130 127 128 -225 125 126 131 128 126 125 125 123 123 122 122 118 118 118 118 117 117 117 -225 -225 -225 -225 -225 -225 -225 -225 -225 -225 -225 -225 -225 -225 -225 -225 -225 -225 -225 -225 -225 -225 -225 -225 -225 -225 -225 -225 -225 -225 -225 -225 -225 -225 -225 -225 -225 -225 -225 -225 -225 -225 -225 -225 -225 -225 -225 -225 -225 -225 -225 -225 -225 -225 -225 -225 -225 -225 -225 -225 -225 -225 -225 -225 -225 -225 -225 -225 -225 -225 -225 -225 -225 -225 -225 -225 -225 -225 -225 -225 -225 -225 -225 -225 -225 -225 -225 -225 -225 -225 -225 -225 -225 -225 -225 -225 -225 -225 -225 -225 -225 -225 -225 -225 -225 -225 -225 -225 -225 -225 -225 -225 -225 -225 -225 -225 -225 -225 -225 -225 -225 -225 -225 -225 -225 -225 -225 -225 -225 -225 -225 -225 -225 -225 -225 -225 -225 -225 -225 -225 -209 -209 -209 -209 -209 -209 -209 141 147 150 -209 -209 -209 -209 -209 73 74 -193 -209 -209 -193 -209 -209 -209 -209 -193 -209 -209 -193 -209 -209 -209 -193 -209 -209 -209 -209 -209 -209 246 -209 135 132 129 130 128 130 127 124 127 123 129 128 127 127 129 130 130 127 130 122 120 125 122 120 123 123 124 125 126 126 0 0 0 0 0
    0 0 0 0 0 0 0 0 0 0 0 0 0 0 0 0 0 0 0 0 0 0 0 0 0 0 0 0 0 0 0 0 0 0 0 0 0 0 0 0 0 0 0 0 0 0 0 0 0 0 0 0 0 0 0 0 0 0 0 0 0 0 0 0 0 0 0 0 0 151 149 142 138 137 137 135 134 130 127 127 130 132 131 129 -225 -225 -225 125 130 127 125 125 125 123 123 122 122 117 117 116 117 115 114 -225 -225 -225 -225 -225 -225 -225 -225 -225 -225 -225 -225 -225 -225 -225 -225 -225 -225 -225 -225 -225 -225 -225 -225 -225 -225 -225 -225 -225 -225 -225 -225 -225 -225 -225 -225 -225 -225 -225 -225 -225 -225 -225 -225 -225 -225 -225 -225 -225 -225 -225 -225 -225 -225 -225 -225 -225 -225 -225 -225 -225 -225 -225 -225 -225 -225 -225 -225 -225 -225 -225 -225 -225 -225 -225 -225 -225 -225 -225 -225 -225 -225 -225 -225 -225 -225 -225 -225 -225 -225 -225 -225 -225 -225 -225 -225 -225 -225 -225 -225 -225 -225 -225 -225 -225 -225 -225 -225 -225 -225 -225 -225 -225 -225 -225 -225 -225 -225 -225 -225 -225 -225 -225 -225 -225 -225 -225 -225 -225 -225 -225 -225 -225 -225 -225 -225 -225 -225 -225 -225 -225 -225 -209 -209 -209 -209 -209 -209 -193 144 149 -209 -209 -209 -209 -209 -209 -209 -209 -209 142 147 149 -209 -209 -209 -193 -209 -193 164 -209 -193 -193 -193 -209 -209 -209 -209 -209 -209 -209 -209 -193 131 -193 127 125 -193 125 123 126 123 128 127 127 127 129 128 127 125 127 120 118 123 120 119 124 125 126 127 128 129 0 0 0 0 0
    0 0 0 0 0 0 0 0 0 0 0 0 0 0 0 0 0 0 0 0 0 0 0 0 0 0 0 0 0 0 0 0 0 0 0 0 0 0 0 0 0 0 0 0 0 0 0 0 0 0 0 0 0 0 0 0 0 0 0 0 0 0 0 0 0 0 0 0 0 152 151 145 139 138 138 136 135 130 128 127 130 132 132 130 -225 -225 -225 -225 130 128 126 125 125 124 123 122 121 116 116 115 116 114 -225 -225 -225 -225 -225 -225 -225 -225 -225 -225 -225 -225 -225 -225 -225 -225 -225 -225 -225 -225 -225 -225 -225 -225 -225 -225 -225 -225 -225 -225 -225 -225 -225 -225 -225 -225 -225 -225 -225 -225 -225 -225 -225 -225 -225 -225 -225 -225 -225 -225 -225 -225 -225 -225 -225 -225 -225 -225 -225 -225 -225 -225 -225 -225 -225 -225 -225 -225 -225 -225 -225 -225 -225 -225 -225 -225 -225 -225 -225 -225 -225 -225 -225 -225 -225 -225 -225 -225 -225 -225 -225 -225 -225 -225 -225 -225 -225 -225 -225 -225 -225 -225 -225 -225 -225 -225 -225 -225 -225 -225 -225 -225 -225 -225 -225 -225 -225 -225 -225 -225 -225 -225 -225 -225 -225 -225 -225 -225 -225 -225 -225 -225 -225 -225 -225 -225 -225 -225 -225 -225 -225 -225 -225 -225 -225 -225 -209 -209 -209 -193 139 140 -209 -209 -209 -209 -209 -209 -209 -209 -209 143 147 150 -209 -209 159 163 -209 164 167 166 167 166 165 165 -209 160 154 -209 -209 -209 -209 -209 -209 -209 -209 -209 -209 -209 -209 -193 -209 128 127 -193 127 128 126 125 124 125 -193 118 122 118 119 122 123 124 125 126 128 0 0 0 0 0
    0 0 0 0 0 0 0 0 0 0 0 0 0 0 0 0 0 0 0 0 0 0 0 0 0 0 0 0 0 0 0 0 0 0 0 0 0 0 0 0 0 0 0 0 0 0 0 0 0 0 0 0 0 0 0 0 0 0 0 0 0 0 0 0 0 0 0 0 0 153 152 148 140 139 138 136 136 131 129 129 131 133 134 -225 -225 -225 -225 -225 -225 -225 -225 -225 -225 -225 -225 -225 -225 -225 -225 -225 -225 -225 -225 -225 -225 -225 -225 -225 -225 -225 -225 -225 -225 -225 -225 -225 -225 -225 -225 -225 -225 -225 -225 -225 -225 -225 -225 -225 -225 -225 -225 -225 -225 -225 -225 -225 -225 -225 -225 -225 -225 -225 -225 -225 -225 -225 -225 -225 -225 -225 -225 -225 -225 -225 -225 -225 -225 -225 -225 -225 -225 -225 -225 -225 -225 -225 -225 -225 -225 -225 -225 -225 -225 -225 -225 -225 -225 -225 -225 -225 -225 -225 -225 -225 -225 -225 -225 -225 -225 -225 -225 -225 -225 -225 -225 -225 -225 -225 -225 -225 -225 -225 -225 -225 -225 -225 -225 -225 -225 -225 -225 -225 -225 -225 -225 -225 -225 -225 -225 -225 -225 -225 -225 -225 -225 -225 -225 -225 -225 -225 -225 -225 -225 -225 -225 -225 -225 -225 -225 -225 -225 -225 -225 -225 -225 -225 -225 -225 -225 -225 128 134 135 134 -209 -209 -209 -209 -209 -209 -209 -209 -209 141 146 149 -209 -209 163 167 -193 168 170 170 170 169 168 168 -209 162 157 -193 157 -209 -209 -209 -209 -209 -209 -209 -209 -209 -209 -209 -209 -209 -209 -193 -209 -193 -193 -193 -193 175 174 173 -193 -193 -193 -193 -193 120 123 127 128 0 0 0 0 0
    0 0 0 0 0 0 0 0 0 0 0 0 0 0 0 0 0 0 0 0 0 0 0 0 0 0 0 0 0 0 0 0 0 0 0 0 0 0 0 0 0 0 0 0 0 0 0 0 0 0 0 0 0 0 0 0 0 0 0 0 0 0 0 0 0 0 0 0 0 155 155 151 141 140 140 137 137 133 132 131 132 135 135 -225 -225 -225 -225 -225 -225 -225 -225 -225 -225 -225 -225 -225 -225 -225 -225 -225 -225 -225 -225 -225 -225 -225 -225 -225 -225 -225 -225 -225 -225 -225 -225 -225 -225 -225 -225 -225 -225 -225 -225 -225 -225 -225 -225 -225 -225 -225 -225 -225 -225 -225 -225 -225 -225 -225 -225 -225 -225 -225 -225 -225 -225 -225 -225 -225 -225 -225 -225 -225 -225 -225 -225 -225 -225 -225 -225 -225 -225 -225 -225 -225 -225 -225 -225 -225 -225 -225 -225 -225 -225 -225 -225 -225 -225 -225 -225 -225 -225 -225 -225 -225 -225 -225 -225 -225 -225 -225 -225 -225 -225 -225 -225 -225 -225 -225 -225 -225 -225 -225 -225 -225 -225 -225 -225 -225 -225 -225 -225 -225 -225 -225 -225 -225 -225 -225 -225 -225 -225 -225 -225 -225 -225 -225 -225 -225 -225 -225 -225 -225 -225 -225 -225 -225 -225 -225 -225 -225 -225 -225 -225 -225 -225 -225 -225 -225 -225 -225 -209 -209 -209 -209 -209 -209 -209 -209 -209 -209 -209 -209 -209 -209 149 -209 -193 -209 168 170 170 170 172 173 172 171 170 170 -209 -209 -209 -209 -209 -209 -209 -209 -209 -209 -209 -209 -209 -209 -209 -209 -209 178 179 176 180 179 180 179 -193 177 178 176 178 177 178 178 178 -209 -209 -209 -209 0 0 0 0 0
    0 0 0 0 0 0 0 0 0 0 0 0 0 0 0 0 0 0 0 0 0 0 0 0 0 0 0 0 0 0 0 0 0 0 0 0 0 0 0 0 0 0 0 0 0 0 0 0 0 0 0 0 0 0 0 0 0 0 0 0 0 0 0 0 0 0 0 0 0 156 164 157 -209 -209 146 136 137 135 135 136 135 137 -225 -225 -225 -225 -225 -225 -225 -225 -225 -225 -225 -225 -225 -225 -225 -225 -225 -225 -225 -225 -225 -225 -225 -225 -225 -225 -225 -225 -225 -225 -225 -225 -225 -225 -225 -225 -225 -225 -225 -225 -225 -225 -225 -225 -225 -225 -225 -225 -225 -225 -225 -225 -225 -225 -225 -225 -225 -225 -225 -225 -225 -225 -225 -225 -225 -225 -225 -225 -225 -225 -225 -225 -225 -225 -225 -225 -225 -225 -225 -225 -225 -225 -225 -225 -225 -225 -225 -225 -225 -225 -225 -225 -225 -225 -225 -225 -225 -225 -225 -225 -225 -225 -225 -225 -225 -225 -225 -225 -225 -225 -225 -225 -225 -225 -225 -225 -225 -225 -225 -225 -225 -225 -225 -225 -225 -225 -225 -225 -225 -225 -225 -225 -225 -225 -225 -225 -225 -225 -225 -225 -225 -225 -225 -225 -225 -225 -225 -225 -225 -225 -225 -225 -225 -225 -225 -225 -225 -225 -225 -225 -225 -225 -225 -225 -225 -225 -225 -193 -209 -209 -209 -209 -209 -209 -209 -209 -209 -193 -209 -209 -209 -209 153 155 156 162 167 169 170 170 172 175 175 175 176 182 -209 -209 -209 -209 -209 -209 -209 -209 -209 -209 -209 -209 -209 -209 -209 -193 -209 172 173 172 177 178 180 180 179 178 179 178 181 181 181 180 180 184 -209 188 194 0 0 0 0 0
    0 0 0 0 0 0 0 0 0 0 0 0 0 0 0 0 0 0 0 0 0 0 0 0 0 0 0 0 0 0 0 0 0 0 0 0 0 0 0 0 0 0 0 0 0 0 0 0 0 0 0 0 0 0 0 0 0 0 0 0 0 0 0 0 0 0 0 0 0 157 -209 -209 -209 -209 -209 134 135 135 136 -193 -209 -209 -225 -225 -225 -225 -225 -225 -225 -225 -225 -225 -225 -225 -225 -225 -225 -225 -225 -225 -225 -225 -225 -225 -225 -225 -225 -225 -225 -225 -225 -225 -225 -225 -225 -225 -225 -225 -225 -225 -225 -225 -225 -225 -225 -225 -225 -225 -225 -225 -225 -225 -225 -225 -225 -225 -225 -225 -225 -225 -225 -225 -225 -225 -225 -225 -225 -225 -225 -225 -225 -225 -225 -225 -225 -225 -225 -225 -225 -225 -225 -225 -225 -225 -225 -225 -225 -225 -225 -225 -225 -225 -225 -225 -225 -225 -225 -225 -225 -225 -225 -225 -225 -225 -225 -225 -225 -225 -225 -225 -225 -225 -225 -225 -225 -225 -225 -225 -225 -225 -225 -225 -225 -225 -225 -225 -225 -225 -225 -225 -225 -225 -225 -225 -225 -225 -225 -225 -225 -225 -225 -225 -225 -225 -225 -225 -225 -225 -225 -225 -225 -225 -225 -225 -225 -225 -225 -225 -225 -225 -225 -225 -225 -225 -225 -225 -225 -225 103 -193 -209 -209 -209 -209 -209 -209 -209 -209 -209 -209 -209 -209 -209 150 153 155 156 160 167 168 171 171 174 177 179 179 182 185 -209 189 196 -209 -209 -209 -209 -209 -209 172 -193 172 -193 171 168 169 175 174 175 172 178 179 181 182 182 181 181 180 182 183 183 183 182 185 188 191 195 0 0 0 0 0
    0 0 0 0 0 0 0 0 0 0 0 0 0 0 0 0 0 0 0 0 0 0 0 0 0 0 0 0 0 0 0 0 0 0 0 0 0 0 0 0 0 0 0 0 0 0 0 0 0 0 0 0 0 0 0 0 0 0 0 0 0 0 0 0 0 0 0 0 0 100 99 -177 -177 -209 -209 202 -209 203 205 206 208 -193 -193 209 211 210 210 209 -225 -225 -225 -225 -225 -225 -225 -225 -225 -225 -225 -225 -225 -225 -225 -225 -225 -225 -225 -225 -225 -225 -225 -225 -225 -225 -225 -225 -225 -225 -225 -225 -225 -225 -225 -225 -225 -225 -225 -225 -225 -225 -225 -225 -225 -225 -225 -225 -225 -225 -225 -225 -225 -225 -225 -225 -225 -225 -225 -225 -225 -225 -225 -225 -225 -225 -225 -225 -225 -225 -225 -225 -225 -225 -225 -225 -225 -225 -225 -225 -225 -225 -225 -225 -225 -225 -225 -225 -225 -225 -225 -225 -225 -225 -225 -225 -225 -225 -225 -225 -225 -225 -225 -225 -225 -225 -225 -225 -225 -225 -225 -225 -225 -225 -225 -225 -225 -225 -225 -225 -225 -225 -225 -225 -225 -225 -225 -225 -225 -225 -225 -225 -225 -225 -225 -225 -225 -225 -225 -225 -225 -225 -225 -225 -225 -225 -225 -225 -225 -225 -225 -225 -225 -225 -225 -225 -225 -225 -225 -225 102 103 -209 -209 -209 -209 -209 -209 -177 -209 -209 -209 -209 -209 -209 150 152 154 154 158 166 -193 171 171 176 178 182 182 184 186 189 191 198 -209 -209 201 -209 -209 -209 175 176 174 173 172 170 170 176 175 176 172 178 180 181 182 181 180 180 179 183 184 184 186 184 188 190 193 197 0 0 0 0 0
    0 0 0 0 0 0 0 0 0 0 0 0 0 0 0 0 0 0 0 0 0 0 0 0 0 0 0 0 0 0 0 0 0 0 0 0 0 0 0 0 0 0 0 0 0 0 0 0 0 0 0 0 0 0 0 0 0 0 0 0 0 0 0 0 0 0 0 0 0 -177 -177 -193 -193 -193 203 205 204 206 208 211 214 211 213 214 214 213 212 212 212 209 -225 -225 -225 -225 -225 -225 -225 -225 -225 -225 -225 -225 -225 -225 -225 -225 -225 -225 -225 -225 -225 -225 -225 -225 -225 -225 -225 -225 -225 -225 -225 -225 -225 -225 -225 -225 -225 -225 -225 -225 -225 -225 -225 -225 -225 -225 -225 -225 -225 -225 -225 -225 -225 -225 -225 -225 -225 -225 -225 -225 -225 -225 -225 -225 -225 -225 -225 -225 -225 -225 -225 -225 -225 -225 -225 -225 -225 -225 -225 -225 -225 -225 -225 -225 -225 -225 -225 -225 -225 -225 -225 -225 -225 -225 -225 -225 -225 -225 -225 -225 -225 -225 -225 -225 -225 -225 -225 -225 -225 -225 -225 -225 -225 -225 -225 -225 -225 -225 -225 -225 -225 -225 -225 -225 -225 -225 -225 -225 -225 -225 -225 -225 -225 -225 -225 -225 -225 -225 -225 -225 -225 -225 -225 -225 -225 -225 -225 -225 -225 -225 -225 -225 -225 -225 -225 -225 -225 -225 102 -209 -209 -209 -209 -209 -209 -177 -177 -193 -209 -209 -209 -209 -209 150 153 154 -193 -193 -193 -193 -193 173 180 181 184 184 185 188 -193 195 200 201 201 202 -193 -193 187 181 179 177 174 172 170 171 176 176 178 174 179 180 181 182 182 181 182 181 -209 -193 187 191 188 192 195 197 199 0 0 0 0 0
    0 0 0 0 0 0 0 0 0 0 0 0 0 0 0 0 0 0 0 0 0 0 0 0 0 0 0 0 0 0 0 0 0 0 0 0 0 0 0 0 0 0 0 0 0 0 0 0 0 0 0 0 0 0 0 0 0 0 0 0 0 0 0 0 0 0 0 0 0 100 99 -177 -177 -193 -193 207 -193 209 210 212 215 213 214 215 215 213 213 213 213 209 212 -225 -225 -225 -225 -225 -225 -225 -225 -225 -225 -225 -225 -225 -225 -225 -225 -225 -225 -225 -225 -225 -225 -225 -225 -225 -225 -225 -225 -225 -225 -225 -225 -225 -225 -225 -225 -225 -225 -225 -225 -225 -225 -225 -225 -225 -225 -225 -225 -225 -225 -225 -225 -225 -225 -225 -225 -225 -225 -225 -225 -225 -225 -225 -225 -225 -225 -225 -225 -225 -225 -225 -225 -225 -225 -225 -225 -225 -225 -225 -225 -225 -225 -225 -225 -225 -225 -225 -225 -225 -225 -225 -225 -225 -225 -225 -225 -225 -225 -225 -225 -225 -225 -225 -225 -225 -225 -225 -225 -225 -225 -225 -225 -225 -225 -225 -225 -225 -225 -225 -225 -225 -225 -225 -225 -225 -225 -225 -225 -225 -225 -225 -225 -225 -225 -225 -225 -225 -225 -225 -225 -225 -225 -225 -225 -225 -225 -225 -225 -225 -225 -225 -225 -225 -225 -225 -225 -193 -193 -209 38 38 42 -193 -209 19 18 21 -193 -193 21 23 -209 -209 154 -209 -193 -193 -193 206 -209 -209 -193 -193 186 -193 186 191 194 196 200 201 202 202 201 201 198 187 -193 180 175 172 172 -209 -209 -193 -193 -193 180 182 183 -209 -209 -209 -209 -209 -193 -193 193 195 193 195 197 197 199 0 0 0 0 0
    0 0 0 0 0 0 0 0 0 0 0 0 0 0 0 0 0 0 0 0 0 0 0 0 0 0 0 0 0 0 0 0 0 0 0 0 0 0 0 0 0 0 0 0 0 0 0 0 0 0 0 0 0 0 0 0 0 0 0 0 0 0 0 0 0 0 0 0 0 99 98 -193 -193 -193 -193 208 -193 209 211 212 215 213 214 215 215 213 213 213 213 209 212 -225 -225 -225 -225 -225 -225 -225 -225 -225 -225 -225 -225 -225 -225 -225 -225 -225 -225 -225 -225 -225 -225 -225 -225 -225 -225 -225 -225 -225 -225 -225 -225 -225 -225 -225 -225 -225 -225 -225 -225 -225 -225 -225 -225 -225 -225 -225 -225 -225 -225 -225 -225 -225 -225 -225 -225 -225 -225 -225 -225 -225 -225 -225 -225 -225 -225 -225 -225 -225 -225 -225 -225 -225 -225 -225 -225 -225 -225 -225 -225 -225 -225 -225 -225 -225 -225 -225 -225 -225 -225 -225 -225 -225 -225 -225 -225 -225 -225 -225 -225 -225 -225 -225 -225 -225 -225 -225 -225 -225 -225 -225 -225 -225 -225 -225 -225 -225 -225 -225 -225 -225 -225 -225 -225 -225 -225 -225 -225 -225 -225 -225 -225 -225 -225 -225 -225 -225 -225 -225 -225 -225 -225 -225 -225 -225 -225 -225 -225 -225 -225 -225 -225 -225 -225 -225 -225 -193 -209 -193 37 37 -193 38 -193 20 -177 -177 21 21 21 23 22 -209 -209 -209 -209 205 205 206 -193 -209 -193 -209 189 -209 189 195 196 197 200 201 202 202 201 199 199 192 187 -193 -209 173 -209 -209 206 -193 -193 -209 -209 -209 -209 -209 -209 -209 -209 -193 -193 -193 -193 196 193 195 -193 197 198 0 0 0 0 0
    0 0 0 0 0 0 0 0 0 0 0 0 0 0 0 0 0 0 0 0 0 0 0 0 0 0 0 0 0 0 0 0 0 0 0 0 0 0 0 0 0 0 0 0 0 0 0 0 0 0 0 0 0 0 0 0 0 0 0 0 0 0 0 0 0 0 0 0 0 -209 -209 -193 -193 -193 206 208 209 210 211 212 215 213 214 215 215 214 213 213 213 209 212 -225 -225 -225 -225 -225 -225 -225 -225 -225 -225 -225 -225 -225 -225 -225 -225 -225 -225 -225 -225 -225 -225 -225 -225 -225 -225 -225 -225 -225 -225 -225 -225 -225 -225 -225 -225 -225 -225 -225 -225 -225 -225 -225 -225 -225 -225 -225 -225 -225 -225 -225 -225 -225 -225 -225 -225 -225 -225 -225 -225 -225 -225 -225 -225 -225 -225 -225 -225 -225 -225 -225 -225 -225 -225 -225 -225 -225 -225 -225 -225 -225 -225 -225 -225 -225 -225 -225 -225 -225 -225 -225 -225 -225 -225 -225 -225 -225 -225 -225 -225 -225 -225 -225 -225 -225 -225 -225 -225 -225 -225 -225 -225 -225 -225 -225 -225 -225 -225 -225 -225 -225 -225 -225 -225 -225 -225 -225 -225 -225 -225 -225 -225 -225 -225 -225 -225 -225 -225 -225 -225 -225 -225 -225 -225 -225 -225 -225 -225 -225 -225 -225 -225 -225 -225 -225 -225 -193 -209 35 37 36 -209 -209 15 17 -177 -177 -177 19 20 21 19 -209 -209 -209 -209 205 205 206 205 -209 -209 -209 -193 -209 -193 199 -209 199 202 202 203 203 201 201 201 196 -193 -193 -209 -209 -209 -209 -193 -193 -193 -209 -209 -209 -209 -209 -209 -209 -209 -209 -209 -193 -193 -193 -193 195 -193 -193 199 0 0 0 0 0
    0 0 0 0 0 0 0 0 0 0 0 0 0 0 0 0 0 0 0 0 0 0 0 0 0 0 0 0 0 0 0 0 0 0 0 0 0 0 0 0 0 0 0 0 0 0 0 0 0 0 0 0 0 0 0 0 0 0 0 0 0 0 0 0 0 0 0 0 0 217 -209 209 -193 208 206 207 209 210 211 212 215 214 215 215 215 214 214 214 214 209 -225 -225 -225 -225 -225 -225 -225 -225 -225 -225 -225 -225 -225 -225 -225 -225 -225 -225 -225 -225 -225 -225 -225 -225 -225 -225 -225 -225 -225 -225 -225 -225 -225 -225 -225 -225 -225 -225 -225 -225 -225 -225 -225 -225 -225 -225 -225 -225 -225 -225 -225 -225 -225 -225 -225 -225 -225 -225 -225 -225 -225 -225 -225 -225 -225 -225 -225 -225 -225 -225 -225 -225 -225 -225 -225 -225 -225 -225 -225 -225 -225 -225 -225 -225 -225 -225 -225 -225 -225 -225 -225 -225 -225 -225 -225 -225 -225 -225 -225 -225 -225 -225 -225 -225 -225 -225 -225 -225 -225 -225 -225 -225 -225 -225 -225 -225 -225 -225 -225 -225 -225 -225 -225 -225 -225 -225 -225 -225 -225 -225 -225 -225 -225 -225 -225 -225 -225 -225 -225 -225 -225 -225 -225 -225 -225 -225 -225 -225 -225 -225 -225 -225 -225 -225 -225 -225 -225 -225 -209 34 37 -209 -209 -209 11 -177 -177 -177 15 15 16 17 15 20 -209 -209 -193 204 205 207 208 -193 -193 -193 -209 -209 -209 -209 -209 -209 206 204 205 204 203 203 203 199 -193 -209 -209 -209 -209 -209 -209 -209 -193 486 -193 -209 -193 -209 -209 -209 -209 -209 -209 -209 -209 -193 -193 196 198 -193 -209 0 0 0 0 0
    0 0 0 0 0 0 0 0 0 0 0 0 0 0 0 0 0 0 0 0 0 0 0 0 0 0 0 0 0 0 0 0 0 0 0 0 0 0 0 0 0 0 0 0 0 0 0 0 0 0 0 0 0 0 0 0 0 0 0 0 0 0 0 0 0 0 0 0 0 218 218 212 -193 210 207 209 211 211 212 213 216 214 215 215 215 214 214 214 214 208 -225 -225 -225 -225 -225 -225 -225 -225 -225 -225 -225 -225 -225 -225 -225 -225 -225 -225 -225 -225 -225 -225 -225 -225 -225 -225 -225 -225 -225 -225 -225 -225 -225 -225 -225 -225 -225 -225 -225 -225 -225 -225 -225 -225 -225 -225 -225 -225 -225 -225 -225 -225 -225 -225 -225 -225 -225 -225 -225 -225 -225 -225 -225 -225 -225 -225 -225 -225 -225 -225 -225 -225 -225 -225 -225 -225 -225 -225 -225 -225 -225 -225 -225 -225 -225 -225 -225 -225 -225 -225 -225 -225 -225 -225 -225 -225 -225 -225 -225 -225 -225 -225 -225 -225 -225 -225 -225 -225 -225 -225 -225 -225 -225 -225 -225 -225 -225 -225 -225 -225 -225 -225 -225 -225 -225 -225 -225 -225 -225 -225 -225 -225 -225 -225 -225 -225 -225 -225 -225 -225 -225 -225 -225 -225 -225 -225 -225 -225 -225 -225 -225 -225 -225 -225 -225 -225 -225 -225 -209 36 37 -209 -209 -209 11 15 13 16 15 15 17 17 14 19 -209 -209 -209 -193 -209 -193 207 -209 -177 -193 -193 -193 -209 218 -193 -209 -193 207 208 206 204 204 -209 -209 -193 -209 -209 439 -193 -209 -209 -209 -209 485 -193 -193 -209 -209 -209 -209 -209 -209 -209 -209 -209 -209 -193 196 -209 -209 -209 0 0 0 0 0
    0 0 0 0 0 0 0 0 0 0 0 0 0 0 0 0 0 0 0 0 0 0 0 0 0 0 0 0 0 0 0 0 0 0 0 0 0 0 0 0 0 0 0 0 0 0 0 0 0 0 0 0 0 0 0 0 0 0 0 0 0 0 0 0 0 0 0 0 0 218 218 214 213 211 209 211 213 213 214 214 216 215 215 215 215 214 214 214 214 208 -225 -225 -225 -225 -225 -225 -225 -225 -225 -225 -225 -225 -225 -225 -225 -225 -225 -225 -225 -225 -225 -225 -225 -225 -225 -225 -225 -225 -225 -225 -225 -225 -225 -225 -225 -225 -225 -225 -225 -225 -225 -225 -225 -225 -225 -225 -225 -225 -225 -225 -225 -225 -225 -225 -225 -225 -225 -225 -225 -225 -225 -225 -225 -225 -225 -225 -225 -225 -225 -225 -225 -225 -225 -225 -225 -225 -225 -225 -225 -225 -225 -225 -225 -225 -225 -225 -225 -225 -225 -225 -225 -225 -225 -225 -225 -225 -225 -225 -225 -225 -225 -225 -225 -225 -225 -225 -225 -225 -225 -225 -225 -225 -225 -225 -225 -225 -225 -225 -225 -225 -225 -225 -225 -225 -225 -225 -225 -225 -225 -225 -225 -225 -225 -225 -225 -225 -225 -225 -225 -225 -225 -225 -225 -225 -225 -225 -225 -225 -225 -225 -225 -225 -225 -225 -225 -225 -225 -225 39 37 38 38 -209 -209 11 13 12 14 13 14 15 17 15 22 -209 -209 -209 -209 -209 -209 -209 -209 -209 -193 -209 -193 -193 218 215 -193 -209 211 211 208 205 205 -209 -209 -193 215 -209 -209 -209 -209 -209 222 -209 483 -209 -209 -209 -209 -209 -209 -209 -209 -193 -193 -209 -209 -209 -209 -209 -209 -209 0 0 0 0 0
    0 0 0 0 0 0 0 0 0 0 0 0 0 0 0 0 0 0 0 0 0 0 0 0 0 0 0 0 0 0 0 0 0 0 0 0 0 0 0 0 0 0 0 0 0 0 0 0 0 0 0 0 0 0 0 0 0 0 0 0 0 0 0 0 0 0 0 0 0 218 218 215 -209 -193 212 212 215 215 215 215 217 215 216 215 215 214 214 214 214 207 -225 -225 -225 -225 -225 -225 -225 -225 -225 -225 -225 -225 -225 -225 -225 -225 -225 -225 -225 -225 -225 -225 -225 -225 -225 -225 -225 -225 -225 -225 -225 -225 -225 -225 -225 -225 -225 -225 -225 -225 -225 -225 -225 -225 -225 -225 -225 -225 -225 -225 -225 -225 -225 -225 -225 -225 -225 -225 -225 -225 -225 -225 -225 -225 -225 -225 -225 -225 -225 -225 -225 -225 -225 -225 -225 -225 -225 -225 -225 -225 -225 -225 -225 -225 -225 -225 -225 -225 -225 -225 -225 -225 -225 -225 -225 -225 -225 -225 -225 -225 -225 -225 -225 -225 -225 -225 -225 -225 -225 -225 -225 -225 -225 -225 -225 -225 -225 -225 -225 -225 -225 -225 -225 -225 -225 -225 -225 -225 -225 -225 -225 -225 -225 -225 -225 -225 -225 -225 -225 -225 -225 -225 -225 -225 -225 -225 -225 -225 -225 -225 -225 -225 -225 -225 -225 -225 -225 -225 38 35 37 37 -209 -209 0 10 11 12 10 11 12 12 12 18 -209 -209 -209 -209 -209 -209 -209 -209 -193 -209 -193 -193 -209 219 216 -193 -209 211 211 209 206 -209 -209 -209 215 217 220 -209 -193 -193 -209 225 -209 -209 -209 -177 -209 -209 -209 -209 -209 -209 -193 -193 -193 -209 -209 -209 -209 -209 -209 0 0 0 0 0
    0 0 0 0 0 0 0 0 0 0 0 0 0 0 0 0 0 0 0 0 0 0 0 0 0 0 0 0 0 0 0 0 0 0 0 0 0 0 0 0 0 0 0 0 0 0 0 0 0 0 0 0 0 0 0 0 0 0 0 0 0 0 0 0 0 0 0 0 0 220 222 -193 -209 -209 -209 -193 220 219 219 217 220 216 217 216 216 215 215 215 214 -225 -225 -225 -225 -225 -225 -225 -225 -225 -225 -225 -225 -225 -225 -225 -225 -225 -225 -225 -225 -225 -225 -225 -225 -225 -225 -225 -225 -225 -225 -225 -225 -225 -225 -225 -225 -225 -225 -225 -225 -225 -225 -225 -225 -225 -225 -225 -225 -225 -225 -225 -225 -225 -225 -225 -225 -225 -225 -225 -225 -225 -225 -225 -225 -225 -225 -225 -225 -225 -225 -225 -225 -225 -225 -225 -225 -225 -225 -225 -225 -225 -225 -225 -225 -225 -225 -225 -225 -225 -225 -225 -225 -225 -225 -225 -225 -225 -225 -225 -225 -225 -225 -225 -225 -225 -225 -225 -225 -225 -225 -225 -225 -225 -225 -225 -225 -225 -225 -225 -225 -225 -225 -225 -225 -225 -225 -225 -225 -225 -225 -225 -225 -225 -225 -225 -225 -225 -225 -225 -225 -225 -225 -225 -225 -225 -225 -225 -225 -225 -225 -225 -225 -225 -225 -225 -225 -225 -225 -225 -209 29 33 -209 -209 -209 0 8 10 11 -193 10 10 9 10 21 -209 -209 -193 -193 -209 -193 -209 -209 -209 -209 -209 -209 -209 -209 218 -209 -209 -209 213 -209 -193 -209 -209 -209 -193 -193 -193 -209 -209 -193 -209 -193 -209 -209 -209 471 -209 -209 -209 -209 -209 -209 -193 -193 -209 -209 -209 -209 -209 -209 -209 0 0 0 0 0
    0 0 0 0 0 0 0 0 0 0 0 0 0 0 0 0 0 0 0 0 0 0 0 0 0 0 0 0 0 0 0 0 0 0 0 0 0 0 0 0 0 0 0 0 0 0 0 0 0 0 0 0 0 0 0 0 0 0 0 0 0 0 0 0 0 0 0 0 0 -209 -193 -209 -193 127 -209 -209 230 233 -209 -209 -209 -209 -209 -193 -193 -209 -209 -209 -209 -225 -225 -225 -225 -225 -225 -225 -225 -225 -225 -225 -225 -225 -225 -225 -225 -225 -225 264 -225 -225 -225 -225 -225 -225 -225 -225 -225 -225 -225 -225 -225 -225 -225 -225 -225 -225 -225 -225 -177 267 268 266 595 -225 -225 -225 -225 -225 -225 -225 -225 -225 -225 -225 -225 -225 -225 -225 -225 -225 271 268 -193 -209 -209 -209 -225 -225 -225 -225 -225 -225 -225 -225 -225 -225 -225 -225 -225 -225 -225 -225 660 987 986 -177 986 986 -225 -225 -225 -225 -225 -225 -225 -225 -225 -225 -225 -225 -225 -225 -225 -225 -225 266 -177 -177 -177 -225 -225 -225 -225 -225 -225 -225 -225 -225 -225 -225 -225 -225 -225 -225 -225 -225 -225 264 264 264 261 -225 -225 -225 -225 -225 -225 -225 -225 -225 -225 -225 -225 -225 -225 -225 -225 -225 266 956 960 958 958 958 957 956 -193 -193 -209 -209 -209 -209 -209 -209 0 0 -193 -193 -193 -209 -209 -209 16 26 -209 -209 -209 72 79 -209 -209 -209 -209 -209 -209 -209 -209 -209 -209 -209 -209 -209 -209 -209 -193 -209 -209 -209 214 -193 -209 -209 -209 -209 -209 -209 -209 -209 -209 -193 -209 -209 -209 -209 -209 -193 604 -193 -193 -209 -209 -209 -209 -209 -209 0 0 0 0 0
    0 0 0 0 0 0 0 0 0 0 0 0 0 0 0 0 0 0 0 0 0 0 0 0 0 0 0 0 0 0 0 0 0 0 0 0 0 0 0 0 0 0 0 0 0 0 0 0 0 0 0 0 0 0 0 0 0 0 0 0 0 0 0 0 0 0 0 0 0 -209 -209 -209 -209 -193 -209 -209 -177 -209 268 -193 80 -193 272 274 272 271 270 271 269 270 274 -225 -225 -225 -225 -225 -225 -225 -225 -225 270 273 267 266 268 267 266 265 267 267 266 268 -193 270 271 -225 -225 -225 -225 -225 -225 -225 -225 -225 657 -177 -193 -193 -177 -193 268 -193 -193 598 -177 600 601 -225 -225 -225 -225 -225 -225 -225 -225 -225 273 268 267 268 -193 266 265 -193 -193 -209 -209 -177 -177 -177 -225 -225 -225 -225 -225 -225 -225 -225 -225 663 664 -193 -193 988 990 990 -193 -193 271 267 268 -225 -225 -225 -225 -225 -225 -225 -225 -225 -193 -209 -209 276 271 269 271 273 -177 -177 -177 267 266 265 267 -225 -225 -225 -225 -225 -225 -225 -225 270 270 264 265 265 265 265 263 263 262 -193 261 262 -225 -225 -225 -225 -225 -225 -225 264 263 264 264 266 -193 957 959 960 961 962 959 -177 -193 -193 -209 -209 -209 -209 -209 -209 0 0 -193 -193 -209 -209 39 -209 -209 -209 -209 253 254 258 -193 -193 -177 -193 248 -209 -209 -209 -209 -209 -209 -209 -209 -209 -209 248 -177 -177 259 -209 -193 -209 -209 -209 -209 -209 -209 -209 -209 -193 -193 253 254 -209 -209 -193 -209 -209 602 601 -209 -193 -193 235 -193 233 234 0 0 0 0 0
    0 0 0 0 0 0 0 0 0 0 0 0 0 0 0 0 0 0 0 0 0 0 0 0 0 0 0 0 0 0 0 0 0 0 0 0 0 0 0 0 0 0 0 0 0 0 0 0 0 0 0 0 0 0 0 0 0 0 0 0 0 0 0 0 0 0 0 0 0 258 259 -209 -193 -193 -209 264 266 271 278 282 280 278 277 277 275 274 273 273 270 271 274 273 -225 -225 -225 -225 -225 280 280 271 277 276 268 267 268 267 266 266 268 267 266 269 270 270 271 273 273 -225 -225 -225 -225 -225 -225 -193 -193 -193 -193 271 273 273 271 271 270 -193 -193 -177 -177 602 603 -225 -225 -225 -225 -225 268 271 273 267 266 267 267 265 264 266 265 -193 267 -193 -193 268 269 269 -209 -193 267 -225 -225 -225 -193 -193 -193 -193 -193 -193 272 271 270 271 271 267 267 268 -225 -225 -225 -225 -225 -225 276 274 275 273 276 275 271 270 271 -177 -177 -177 -177 271 271 -193 -193 -193 -193 -193 277 275 275 275 272 268 269 265 266 265 265 266 264 265 265 265 265 264 264 -225 -225 -225 -225 -225 262 262 263 264 264 265 -209 958 960 961 963 964 -193 -193 261 265 267 -193 270 272 -209 272 -209 -193 -193 -193 -209 -209 -209 -209 -209 254 253 255 256 258 254 252 251 250 250 258 261 -209 -209 -209 -209 -209 -209 -209 247 246 250 254 256 -209 -209 -209 -209 -209 -193 -209 255 -193 255 257 256 255 255 255 254 254 253 253 -209 -209 -209 244 244 240 238 235 234 0 0 0 0 0
    0 0 0 0 0 0 0 0 0 0 0 0 0 0 0 0 0 0 0 0 0 0 0 0 0 0 0 0 0 0 0 0 0 0 0 0 0 0 0 0 0 0 0 0 0 0 0 0 0 0 0 0 0 0 0 0 0 0 0 0 0 0 0 0 0 0 0 0 0 262 262 264 262 -193 -193 267 270 276 281 284 281 280 278 278 276 275 274 272 270 271 272 271 269 275 277 280 -193 280 281 277 279 278 271 270 269 269 268 268 269 267 268 270 271 272 272 274 272 271 276 276 -193 277 274 273 276 278 274 272 275 274 272 272 272 -193 -193 -177 -177 -209 -177 -177 -209 -193 -193 267 267 269 271 266 266 -193 267 264 264 265 265 -209 268 272 269 270 270 270 268 268 268 267 266 -193 267 266 274 272 270 270 271 271 270 271 271 268 268 270 272 272 -225 -225 -225 281 278 276 275 274 275 275 272 270 271 271 272 273 274 273 274 276 278 277 277 -193 277 277 275 273 271 268 268 265 266 266 265 266 265 265 265 265 266 265 266 -193 -193 265 265 265 265 265 264 264 265 265 263 -193 -177 -177 -177 264 262 262 263 266 267 267 269 270 270 271 275 -193 -209 -209 -209 -209 -209 -209 261 259 257 258 258 259 257 254 253 254 252 262 263 266 262 263 265 266 266 262 254 250 252 256 255 259 -209 -193 258 259 255 256 255 254 256 258 257 256 255 257 257 257 256 256 254 252 252 249 247 244 243 236 236 0 0 0 0 0
    0 0 0 0 0 0 0 0 0 0 0 0 0 0 0 0 0 0 0 0 0 0 0 0 0 0 0 0 0 0 0 0 0 0 0 0 0 0 0 0 0 0 0 0 0 0 0 0 0 0 0 0 0 0 0 0 0 0 0 0 0 0 0 0 0 0 0 0 0 263 264 265 263 265 266 271 278 281 286 289 283 282 281 281 279 278 277 275 275 274 275 275 270 275 276 279 279 279 280 278 279 278 273 271 270 270 269 269 269 268 268 271 271 272 272 273 272 271 275 275 -193 277 275 276 279 280 277 276 277 277 275 275 274 270 -193 -193 -177 -209 -209 -193 -193 -193 267 268 268 272 274 270 271 276 276 272 -193 279 276 274 278 281 274 275 274 274 272 271 271 271 269 272 268 267 274 273 271 271 271 272 270 272 273 271 270 276 277 279 280 281 282 282 279 277 276 274 275 275 273 272 272 273 273 275 276 275 276 277 278 277 277 278 277 277 275 272 270 267 268 265 266 266 266 267 266 266 267 266 267 266 268 267 263 265 265 265 265 264 265 265 265 265 264 264 264 265 265 265 265 265 265 267 268 268 267 269 269 270 273 274 274 269 267 266 265 264 262 261 259 260 259 260 258 257 257 260 258 264 264 266 264 265 265 265 265 264 261 257 257 260 260 262 256 256 260 261 258 259 258 255 258 260 260 259 257 259 260 260 259 258 256 254 253 250 247 245 244 238 237 0 0 0 0 0
    0 0 0 0 0 0 0 0 0 0 0 0 0 0 0 0 0 0 0 0 0 0 0 0 0 0 0 0 0 0 0 0 0 0 0 0 0 0 0 0 0 0 0 0 0 0 0 0 0 0 0 0 0 0 0 0 0 0 0 0 0 0 0 0 0 0 0 0 0 264 265 265 264 267 -193 279 286 295 294 294 289 286 283 282 280 280 279 278 278 277 279 279 276 280 280 282 282 282 285 281 281 281 276 276 274 273 271 271 272 269 270 274 273 274 273 273 272 271 276 276 -193 277 277 278 283 283 279 278 278 278 276 277 275 271 -193 -193 -177 -209 -209 -193 262 -193 -193 269 269 275 278 279 278 282 282 282 283 283 283 282 281 284 278 279 278 278 276 275 275 274 -193 -193 269 268 275 275 273 274 273 274 273 275 275 275 276 280 280 281 282 282 284 284 281 278 278 277 276 276 274 274 275 275 275 276 277 278 279 279 280 278 278 279 279 278 275 274 270 267 269 266 267 266 266 268 267 268 269 268 269 269 272 272 264 266 266 266 266 264 265 265 266 266 -193 264 264 265 266 267 266 266 267 268 270 270 269 269 270 270 274 274 274 270 268 266 265 265 264 262 260 261 262 263 262 262 261 263 263 266 267 267 264 265 265 264 264 263 261 258 258 260 261 262 264 262 263 264 261 262 263 262 263 262 262 262 260 261 261 261 261 259 258 255 254 -193 246 245 246 239 237 0 0 0 0 0
    0 0 0 0 0 0 0 0 0 0 0 0 0 0 0 0 0 0 0 0 0 0 0 0 0 0 0 0 0 0 0 0 0 0 0 0 0 0 0 0 0 0 0 0 0 0 0 0 0 0 0 0 0 0 0 0 0 0 0 0 0 0 0 0 0 0 0 0 0 -193 266 268 268 -209 348 -209 296 298 297 297 294 291 285 283 281 281 280 279 279 279 281 282 280 283 284 289 291 290 291 284 283 282 279 279 278 277 273 273 274 270 272 275 275 275 274 274 273 273 278 278 -209 279 279 280 292 288 280 280 280 279 278 278 276 272 268 -193 -193 -209 -193 262 261 -193 -193 269 270 277 -193 282 281 285 284 284 285 286 285 283 283 286 280 280 279 279 278 276 276 276 272 275 271 271 276 276 276 276 276 276 276 277 277 277 281 281 281 283 283 284 284 286 284 279 279 279 279 278 276 276 278 277 278 277 278 278 280 281 281 278 278 279 280 280 277 276 273 268 270 267 268 267 267 268 268 269 270 270 271 273 276 277 -193 270 270 272 270 267 -193 266 267 266 -193 -193 264 265 266 267 267 267 268 269 271 271 271 272 273 274 276 276 275 272 269 267 266 265 264 263 262 262 264 265 265 265 265 266 265 268 270 269 265 266 265 264 264 263 260 258 258 260 261 262 264 263 263 264 263 264 265 264 266 264 264 264 263 263 262 262 261 258 256 253 253 -209 -209 246 -193 -209 -209 0 0 0 0 0
    0 0 0 0 0 0 0 0 0 0 0 0 0 0 0 0 0 0 0 0 0 0 0 0 0 0 0 0 0 0 0 0 0 0 0 0 0 0 0 0 0 0 0 0 0 0 0 0 0 0 0 0 0 0 0 0 0 0 0 0 0 0 0 0 0 0 0 0 0 -193 272 274 -209 -209 -209 -209 -209 301 299 299 295 293 287 284 281 281 280 280 279 280 283 286 286 288 295 298 303 299 -193 294 286 285 280 279 278 278 275 275 276 272 274 277 276 276 275 275 275 275 279 -209 -209 -209 -209 -209 297 294 284 282 281 280 279 279 277 274 269 -193 -209 -209 -193 262 -193 -209 -193 -193 272 279 -209 -193 -193 287 285 285 288 290 288 285 284 288 281 283 281 281 279 278 278 279 276 278 275 275 278 278 278 278 277 278 277 278 279 279 282 281 281 283 283 284 284 285 285 280 280 -193 -193 279 277 277 279 279 279 278 279 278 280 281 281 279 278 279 280 280 278 277 275 268 271 268 268 268 267 269 269 271 273 273 275 277 279 280 283 282 281 279 277 273 273 270 -193 -193 -193 265 265 266 267 268 268 269 272 273 276 276 275 276 277 278 278 277 276 274 270 268 267 265 264 263 263 264 265 266 266 267 268 269 270 272 272 271 269 270 268 266 266 265 261 259 259 260 261 263 -193 263 264 265 265 267 269 268 269 267 266 266 264 264 263 262 263 260 258 256 258 -209 254 256 264 -209 -209 0 0 0 0 0
    0 0 0 0 0 0 0 0 0 0 0 0 0 0 0 0 0 0 0 0 0 0 0 0 0 0 0 0 0 0 0 0 0 0 0 0 0 0 0 0 0 0 0 0 0 0 0 0 0 0 0 0 0 0 0 0 0 0 0 0 0 0 0 0 0 0 0 0 0 -193 -193 -209 -209 -209 -209 -209 -209 306 304 301 297 295 290 285 281 281 280 280 280 0 -256 -1 -29213 294 299 306 310 308 307 301 294 293 290 281 279 -193 278 278 278 275 277 278 277 276 276 276 276 277 280 -209 314 -193 -193 314 310 296 292 286 285 283 280 280 278 276 270 -193 -209 -193 -193 263 -193 -209 -209 -193 275 -193 679 -209 -209 291 287 287 291 294 292 288 285 291 283 289 287 284 281 280 279 281 280 -209 275 277 278 278 279 280 279 279 279 280 280 280 284 284 283 284 284 285 283 284 283 280 279 279 280 280 278 278 280 281 281 279 280 279 280 281 283 281 279 280 281 281 280 278 277 268 270 267 268 268 268 270 270 272 275 277 278 280 281 282 285 285 290 294 -193 -193 279 278 -209 -193 -193 -193 267 269 271 270 270 273 277 277 280 279 278 278 279 279 280 277 277 275 272 270 269 267 266 265 264 265 266 267 268 270 273 274 277 278 278 277 276 276 272 269 268 266 263 262 259 260 261 262 -193 -193 -193 265 266 269 270 271 271 269 267 268 264 264 264 263 262 260 259 258 260 -193 263 263 267 272 273 0 0 0 0 0
    0 0 0 0 0 0 0 0 0 0 0 0 0 0 0 0 0 0 0 0 0 0 0 0 0 0 0 0 0 0 0 0 0 0 0 0 0 0 0 0 0 0 0 0 0 0 0 0 0 0 0 0 0 0 0 0 0 0 0 0 0 0 0 0 0 0 0 0 0 -209 -209 -209 -193 -209 -193 -209 -193 -193 307 304 298 297 294 290 284 284 283 283 284 287 293 298 300 299 304 312 314 314 314 -193 -193 -209 -209 292 288 294 286 284 281 279 280 280 279 277 277 277 277 278 -209 -209 314 -193 314 312 310 301 298 295 295 292 285 282 280 278 275 -209 -209 267 266 -193 -209 -209 -209 -193 -193 -193 682 -209 -193 -209 293 294 296 298 298 294 290 294 285 294 294 289 282 280 279 283 283 -209 -209 -193 -193 280 281 284 284 281 281 283 284 285 289 290 290 287 286 287 282 282 282 279 279 279 280 281 279 279 281 284 285 282 282 281 282 283 285 284 280 280 282 282 282 280 -209 267 271 268 269 269 269 273 274 276 278 279 280 282 284 286 289 287 292 295 298 -193 290 289 -209 -209 -209 -209 271 274 276 276 276 277 280 280 282 282 281 280 281 282 282 279 278 277 276 273 273 271 269 268 268 268 269 270 274 276 278 277 279 280 280 278 277 277 273 269 269 266 263 264 262 261 261 262 -193 -193 -193 -193 -193 -193 269 270 272 272 270 273 269 268 267 266 266 263 261 259 260 264 263 264 269 275 274 0 0 0 0 0
    0 0 0 0 0 0 0 0 0 0 0 0 0 0 0 0 0 0 0 0 0 0 0 0 0 0 0 0 0 0 0 0 0 0 0 0 0 0 0 0 0 0 0 0 0 0 0 0 0 0 0 0 0 0 0 0 0 0 0 0 0 0 0 0 0 0 0 0 0 325 323 323 323 320 320 -193 -193 -193 310 308 300 297 295 292 286 287 287 287 289 294 296 300 306 308 313 317 318 319 318 316 316 316 314 305 298 298 297 295 292 289 291 291 -193 -193 278 278 278 -209 -193 315 314 314 315 313 312 308 302 299 299 297 295 289 285 -209 -193 -193 -193 271 270 269 -209 -193 -209 276 279 -193 -193 -209 682 -193 -209 -209 299 302 301 297 296 296 290 297 298 297 292 283 283 289 294 301 -209 -209 -209 -193 295 294 297 296 294 293 295 295 295 295 297 294 293 293 292 284 292 282 286 -193 287 289 284 283 286 289 293 297 291 287 286 285 288 289 285 280 282 283 284 282 -209 -209 270 267 270 269 270 276 278 278 280 281 283 285 289 292 293 292 295 297 300 299 298 298 298 -193 -209 -209 -193 277 279 279 278 279 280 281 283 283 282 280 282 284 284 281 280 279 279 278 278 276 274 273 272 272 272 273 276 278 280 279 280 280 280 280 280 281 278 276 279 276 269 271 267 263 262 263 -193 -193 -193 -209 -209 -193 -209 275 277 278 278 -193 279 279 279 279 -193 -209 -209 260 260 253 -209 250 -209 -209 272 0 0 0 0 0</data></disparity>
</opencv_storage>
