<?xml version="1.0"?>
<opencv_storage>
<gps_time_stamp>37442</gps_time_stamp>
<gps_x>-1.3343696594238281e+001</gps_x>
<gps_y>1.4272139072418213e+000</gps_y>
<gps_z>-3.7370755672454834e+000</gps_z>
<image_time_stamp>25363</image_time_stamp>
<disparity type_id="opencv-matrix">
  <rows>93</rows>
  <cols>320</cols>
  <dt>s</dt>
  <data>
    0 0 0 0 0 0 0 0 0 0 0 0 0 0 0 0 0 0 0 0 0 0 0 0 0 0 0 0 0 0 0 0 0 0 0 0 0 0 0 0 0 0 0 0 0 0 0 0 0 0 0 0 0 0 0 0 0 0 0 0 0 0 0 0 0 0 0 0 0 -193 -193 -193 0 0 0 0 0 0 0 0 0 0 0 0 0 0 0 0 0 0 0 0 0 0 0 0 0 0 0 0 0 0 0 0 0 0 0 0 0 0 0 0 0 0 0 0 0 0 0 0 0 0 -193 10 11 0 0 0 0 0 0 0 0 0 0 0 0 0 9 -225 -225 -225 -225 -225 -225 -225 -225 -225 -225 -225 -225 -225 -225 114 -193 -209 -209 12 10 9 9 0 9 0 0 0 0 -193 -193 -209 9 9 0 0 9 9 0 0 0 9 9 11 12 10 11 11 11 11 11 12 10 11 12 11 14 0 0 0 13 10 9 9 9 0 11 13 12 10 12 12 12 12 12 15 10 12 12 13 13 13 13 13 9 13 14 14 14 17 19 19 19 18 20 20 19 19 19 18 17 19 19 18 18 20 19 19 19 20 20 19 20 20 19 20 20 20 19 19 19 20 22 22 22 23 24 25 25 25 25 22 23 23 22 21 21 22 23 23 24 24 24 25 26 27 29 28 29 31 34 35 39 37 40 42 42 42 42 43 44 43 44 44 43 44 44 45 44 44 46 45 45 46 46 48 47 0 0 0 0 0
    0 0 0 0 0 0 0 0 0 0 0 0 0 0 0 0 0 0 0 0 0 0 0 0 0 0 0 0 0 0 0 0 0 0 0 0 0 0 0 0 0 0 0 0 0 0 0 0 0 0 0 0 0 0 0 0 0 0 0 0 0 0 0 0 0 0 0 0 0 -193 -193 0 0 0 0 0 0 0 0 0 0 0 0 0 0 0 0 0 0 0 0 0 0 0 0 0 0 0 0 0 0 0 0 0 0 0 0 0 0 0 0 0 0 0 0 0 0 0 0 0 0 0 -193 10 11 9 9 0 0 0 0 0 0 0 0 0 0 0 10 -225 -225 -225 -225 -225 -225 -225 -225 -225 -225 -225 -225 -225 -225 111 114 -209 -209 -193 10 9 9 9 9 0 0 0 -193 -193 -193 -209 9 9 0 0 0 0 0 0 0 0 0 10 12 10 11 11 11 11 12 12 11 12 14 12 17 10 10 10 14 10 10 9 9 0 11 14 12 10 12 12 12 12 12 15 10 11 12 13 13 13 13 12 10 14 14 15 15 18 19 18 19 18 19 20 19 19 19 18 18 19 19 18 18 20 19 18 19 20 19 20 20 20 19 20 20 19 18 19 19 20 22 22 23 24 24 25 25 25 25 22 23 23 23 21 21 23 23 24 24 25 25 26 27 28 30 29 30 31 33 35 38 37 39 41 42 41 42 42 43 42 43 43 43 43 43 44 43 43 44 45 45 46 47 49 48 0 0 0 0 0
    0 0 0 0 0 0 0 0 0 0 0 0 0 0 0 0 0 0 0 0 0 0 0 0 0 0 0 0 0 0 0 0 0 0 0 0 0 0 0 0 0 0 0 0 0 0 0 0 0 0 0 0 0 0 0 0 0 0 0 0 0 0 0 0 0 0 0 0 0 -193 -193 0 0 0 0 0 0 0 0 0 0 0 0 0 0 0 0 0 0 0 0 0 0 0 0 0 0 0 0 0 0 0 0 0 0 0 0 0 0 0 0 0 0 0 0 0 0 0 0 0 0 0 -193 10 11 9 9 0 0 0 0 0 0 0 0 0 9 9 10 11 9 -225 -225 -225 -225 -225 -225 -225 -225 -225 -225 -225 -225 110 -209 -209 -193 -193 10 0 0 0 0 0 0 0 -193 -193 -193 -209 0 0 0 0 0 0 0 0 0 0 0 10 12 9 11 11 11 11 12 12 11 13 15 13 19 12 11 11 16 11 10 10 10 9 11 14 12 10 12 12 12 12 13 14 9 11 11 12 12 12 11 12 10 15 14 16 16 18 18 19 19 18 19 19 18 18 18 18 17 19 17 17 17 19 19 18 18 20 19 20 20 20 19 20 19 19 18 19 19 20 22 22 23 24 24 24 24 25 25 22 23 23 22 21 21 23 23 24 25 26 25 27 28 29 30 30 30 32 34 35 38 38 40 41 42 42 42 42 43 42 43 43 42 42 42 42 42 43 43 44 45 45 47 48 49 0 0 0 0 0
    0 0 0 0 0 0 0 0 0 0 0 0 0 0 0 0 0 0 0 0 0 0 0 0 0 0 0 0 0 0 0 0 0 0 0 0 0 0 0 0 0 0 0 0 0 0 0 0 0 0 0 0 0 0 0 0 0 0 0 0 0 0 0 0 0 0 0 0 0 0 0 0 0 0 0 0 0 0 0 0 0 0 0 0 0 0 0 0 0 0 0 0 0 0 0 0 0 0 0 0 0 0 0 0 0 0 0 0 0 0 0 0 0 0 0 0 0 0 0 0 0 0 -193 10 12 9 9 0 0 0 0 0 0 0 0 0 0 9 9 9 0 -225 -225 -225 -225 -225 -225 -225 -225 -225 -225 -225 -225 -209 10 -209 -193 11 9 0 0 0 0 0 0 0 0 -193 -193 -209 0 0 0 0 0 0 0 0 0 0 0 10 11 9 10 10 11 10 11 11 11 12 14 13 19 13 12 11 16 11 10 10 10 9 12 14 12 10 12 12 12 12 12 12 9 10 10 10 11 10 10 10 10 14 13 16 16 17 18 18 18 17 18 18 16 16 17 17 17 18 17 17 17 20 19 18 18 20 19 20 20 20 19 19 19 19 17 19 18 21 22 22 23 24 24 25 25 25 25 22 23 23 23 22 22 23 24 25 26 27 26 28 28 29 30 29 29 30 33 34 37 37 39 41 41 41 41 41 42 41 43 43 42 42 42 42 42 42 42 44 44 45 47 48 49 0 0 0 0 0
    0 0 0 0 0 0 0 0 0 0 0 0 0 0 0 0 0 0 0 0 0 0 0 0 0 0 0 0 0 0 0 0 0 0 0 0 0 0 0 0 0 0 0 0 0 0 0 0 0 0 0 0 0 0 0 0 0 0 0 0 0 0 0 0 0 0 0 0 0 0 0 0 0 0 0 0 0 0 0 0 0 0 0 0 0 0 0 0 0 0 0 0 0 0 0 0 0 0 0 0 0 0 0 0 0 0 0 0 0 0 0 0 0 0 0 0 0 0 0 0 0 0 -193 10 12 9 9 0 0 0 0 0 0 0 0 0 0 9 9 0 0 0 -225 -225 -225 -225 -225 -225 -225 -225 -225 -225 -225 -193 10 11 9 10 9 0 0 0 0 0 0 0 0 -193 -193 -193 0 0 0 0 0 0 0 0 0 0 0 10 11 0 9 9 10 10 11 11 11 12 14 13 19 13 13 12 16 11 11 10 10 9 12 13 12 10 12 12 12 12 12 10 0 0 0 9 9 9 9 9 10 13 12 15 14 16 17 18 18 18 18 18 16 16 17 18 18 18 18 18 18 20 19 18 19 21 19 20 20 20 18 19 19 19 17 19 18 21 22 23 23 24 25 25 25 25 25 23 24 24 23 22 22 24 25 26 27 27 26 28 29 28 29 29 29 29 32 34 36 36 38 39 41 40 40 40 41 41 42 42 42 42 42 42 42 42 43 44 44 45 46 48 49 0 0 0 0 0
    0 0 0 0 0 0 0 0 0 0 0 0 0 0 0 0 0 0 0 0 0 0 0 0 0 0 0 0 0 0 0 0 0 0 0 0 0 0 0 0 0 0 0 0 0 0 0 0 0 0 0 0 0 0 0 0 0 0 0 0 0 0 0 0 0 0 0 0 0 0 0 0 0 0 0 0 0 0 0 0 0 0 0 0 0 0 0 0 0 0 0 0 0 0 0 0 0 0 0 0 0 0 0 0 0 0 0 0 0 0 0 0 0 0 0 0 0 0 0 0 0 0 -193 10 12 9 9 0 0 0 0 0 0 0 0 0 9 9 10 9 0 0 -225 0 0 -225 0 -225 -225 0 0 0 -193 0 10 10 9 9 8 0 0 0 0 0 0 0 0 -209 -193 -209 0 0 0 0 0 0 0 0 0 0 0 10 10 0 0 9 10 9 10 10 10 11 12 12 18 13 13 11 15 11 11 11 10 9 12 13 12 10 12 12 12 12 12 0 0 0 0 0 0 0 0 0 11 13 13 14 14 15 16 17 18 17 17 17 16 17 18 18 18 17 19 18 18 20 19 18 19 21 19 19 20 19 18 19 19 19 17 19 18 21 23 23 23 24 25 25 25 25 25 24 24 25 25 22 23 24 25 27 29 28 27 29 30 29 30 29 29 29 31 34 35 36 37 39 40 40 40 40 40 41 43 43 42 43 43 42 42 42 43 44 44 45 46 48 49 0 0 0 0 0
    0 0 0 0 0 0 0 0 0 0 0 0 0 0 0 0 0 0 0 0 0 0 0 0 0 0 0 0 0 0 0 0 0 0 0 0 0 0 0 0 0 0 0 0 0 0 0 0 0 0 0 0 0 0 0 0 0 0 0 0 0 0 0 0 0 0 0 0 0 0 0 0 0 0 0 0 0 0 0 0 0 0 0 0 0 0 0 0 0 0 0 0 0 0 0 0 0 0 0 0 0 0 0 0 0 0 0 0 0 0 0 0 0 0 0 0 0 0 0 0 0 0 -177 10 11 9 0 0 0 0 0 0 0 9 9 9 9 10 10 9 0 0 0 0 0 0 0 0 0 0 0 0 -193 0 9 9 9 9 9 0 0 0 0 0 0 0 0 0 0 -209 0 0 0 0 0 0 0 0 0 0 0 10 10 0 0 0 9 0 0 9 9 10 10 11 17 12 13 11 15 11 11 11 11 9 12 13 12 10 12 12 12 12 12 0 0 0 0 0 0 0 0 0 11 13 13 13 13 14 14 16 16 16 16 17 16 17 17 17 17 17 19 18 19 20 19 19 19 21 20 19 19 19 18 19 19 19 17 19 18 22 22 22 23 24 25 25 25 25 25 25 25 25 25 23 24 24 25 27 28 28 28 29 31 30 30 30 30 30 31 34 36 36 37 39 40 40 40 41 41 41 43 43 43 43 43 42 42 42 43 43 44 45 46 47 50 0 0 0 0 0
    0 0 0 0 0 0 0 0 0 0 0 0 0 0 0 0 0 0 0 0 0 0 0 0 0 0 0 0 0 0 0 0 0 0 0 0 0 0 0 0 0 0 0 0 0 0 0 0 0 0 0 0 0 0 0 0 0 0 0 0 0 0 0 0 0 0 0 0 0 0 0 0 0 0 0 0 0 0 0 0 0 0 0 0 0 0 0 0 0 0 0 0 0 0 0 0 0 0 0 0 0 0 0 0 0 0 0 0 0 0 0 0 0 0 0 0 0 0 0 0 0 0 -177 10 11 0 0 0 0 0 0 0 0 9 9 9 9 10 10 9 0 0 0 0 0 0 0 0 0 0 0 0 -193 0 9 9 0 9 9 0 9 0 9 0 0 0 0 -225 -225 -225 0 0 0 0 0 0 0 0 0 0 0 9 9 0 0 0 0 0 0 0 0 9 10 10 15 12 13 12 16 12 11 11 11 9 13 13 12 -193 11 11 11 11 11 0 0 0 0 0 0 0 0 0 11 14 14 15 14 13 13 16 15 15 15 16 16 16 17 17 16 18 19 18 19 20 19 19 19 21 19 19 19 19 17 19 19 19 16 19 19 22 22 22 22 23 24 25 25 25 25 25 26 26 26 24 24 24 25 26 27 27 27 28 30 30 30 30 30 30 31 35 36 37 38 39 40 41 41 41 41 41 43 43 43 43 42 42 42 43 43 44 44 46 46 47 50 0 0 0 0 0
    0 0 0 0 0 0 0 0 0 0 0 0 0 0 0 0 0 0 0 0 0 0 0 0 0 0 0 0 0 0 0 0 0 0 0 0 0 0 0 0 0 0 0 0 0 0 0 0 0 0 0 0 0 0 0 0 0 0 0 0 0 0 0 0 0 0 0 0 0 0 0 0 0 0 0 0 0 0 0 0 0 0 0 0 0 0 0 0 0 0 0 0 0 0 0 0 0 0 0 0 0 0 0 0 0 0 0 0 0 0 0 -193 0 0 0 0 0 0 0 0 0 0 -177 10 11 0 0 0 0 0 0 0 0 9 9 9 9 10 11 9 0 0 0 0 0 0 0 0 0 0 0 0 -209 0 0 0 0 0 0 0 0 0 0 0 0 0 0 -225 0 -209 0 0 0 0 0 0 0 0 0 0 0 9 9 0 0 0 0 0 0 0 0 9 10 10 15 12 13 12 16 12 12 12 12 10 14 13 12 -193 11 11 11 11 11 0 0 0 0 0 0 0 9 9 12 15 16 16 15 13 13 15 15 15 15 15 16 16 17 18 17 19 19 18 19 20 19 19 19 21 18 19 19 19 17 19 19 19 16 20 19 22 21 21 21 23 23 24 24 24 24 25 26 26 26 25 25 25 25 27 27 27 27 28 29 29 30 30 30 30 32 35 37 38 39 41 42 43 42 42 42 42 43 43 43 44 43 43 43 44 44 45 45 47 47 48 50 0 0 0 0 0
    0 0 0 0 0 0 0 0 0 0 0 0 0 0 0 0 0 0 0 0 0 0 0 0 0 0 0 0 0 0 0 0 0 0 0 0 0 0 0 0 0 0 0 0 0 0 0 0 0 0 0 0 0 0 0 0 0 0 0 0 0 0 0 0 0 0 0 0 0 0 0 0 0 0 0 0 0 0 0 0 0 0 0 0 0 0 0 0 0 0 0 0 0 0 0 0 0 0 0 0 0 0 0 0 0 0 0 0 0 0 0 -193 0 0 0 0 0 0 0 0 0 0 -177 10 11 0 0 0 0 0 0 0 0 0 0 9 9 10 10 9 0 0 0 0 0 0 0 0 0 0 0 0 0 0 0 0 0 0 0 0 0 0 0 0 0 0 0 0 0 -193 9 9 0 0 0 0 0 0 0 0 0 9 9 0 0 0 0 0 0 9 9 9 10 10 -193 12 14 12 17 12 12 12 12 10 14 12 11 10 11 10 10 10 10 0 0 0 0 0 9 10 10 11 13 15 17 16 16 13 14 15 15 15 15 15 15 16 17 17 18 19 19 18 19 21 20 20 19 20 19 19 20 19 16 19 19 19 16 20 19 22 21 21 21 22 23 23 24 24 23 25 26 26 26 26 25 25 25 27 27 26 27 28 28 29 29 30 29 30 32 35 35 38 38 41 42 43 42 42 42 42 44 44 44 44 43 44 44 45 46 47 46 47 48 48 51 0 0 0 0 0
    0 0 0 0 0 0 0 0 0 0 0 0 0 0 0 0 0 0 0 0 0 0 0 0 0 0 0 0 0 0 0 0 0 0 0 0 0 0 0 0 0 0 0 0 0 0 0 0 0 0 0 0 0 0 0 0 0 0 0 0 0 0 0 0 0 0 0 0 0 0 0 0 0 0 0 0 0 0 0 0 0 0 0 0 0 0 0 0 0 0 0 0 0 0 0 0 0 0 0 0 0 0 0 0 0 0 0 0 0 0 -193 -193 0 0 0 0 0 0 0 0 0 0 -193 10 11 0 0 0 0 0 0 0 0 0 0 0 0 9 9 0 0 0 0 0 0 0 0 0 0 0 0 0 -209 0 0 0 0 0 0 0 0 0 0 0 0 0 0 9 9 -193 10 10 0 0 0 0 0 0 0 0 0 9 10 0 0 0 0 0 0 9 9 9 9 9 -193 12 13 11 17 12 12 12 12 10 14 12 11 9 9 9 9 9 11 0 0 0 9 9 11 12 12 12 14 17 18 17 17 14 15 15 15 15 15 15 15 15 17 17 18 18 19 18 19 21 20 20 19 20 19 19 20 19 16 20 20 20 17 21 20 22 21 21 20 22 22 22 23 23 23 25 26 26 26 26 26 25 26 27 27 26 27 28 28 28 29 29 29 30 32 34 35 36 38 41 41 43 42 42 43 43 44 44 44 45 44 45 46 46 47 47 47 48 48 48 50 0 0 0 0 0
    0 0 0 0 0 0 0 0 0 0 0 0 0 0 0 0 0 0 0 0 0 0 0 0 0 0 0 0 0 0 0 0 0 0 0 0 0 0 0 0 0 0 0 0 0 0 0 0 0 0 0 0 0 0 0 0 0 0 0 0 0 0 0 0 0 0 0 0 0 0 0 0 0 0 0 0 0 0 0 0 0 0 0 0 0 0 0 0 0 0 0 0 0 0 0 0 0 0 0 0 0 0 0 0 0 0 0 0 0 0 -193 -177 0 0 0 0 0 0 0 0 0 0 -193 10 11 0 0 0 0 0 0 0 0 0 0 0 0 9 0 0 0 0 0 0 0 0 0 0 0 0 -193 -209 -209 0 0 0 0 0 0 0 0 0 0 0 0 0 0 10 10 -193 11 11 0 0 0 0 -193 0 0 0 0 10 10 0 0 0 0 0 0 9 9 9 9 9 -193 11 12 10 16 12 12 12 12 10 14 11 10 0 0 0 0 0 11 0 9 10 10 11 12 13 13 12 14 18 17 16 16 13 15 15 15 15 15 15 16 15 18 17 17 18 19 18 19 21 20 19 19 20 19 19 20 19 15 20 20 21 19 21 21 23 21 20 20 22 22 22 23 24 24 25 26 26 26 26 26 26 26 27 28 27 27 28 29 28 29 29 29 30 32 34 35 35 37 39 39 41 41 42 42 42 44 45 45 46 45 46 47 47 49 48 48 49 48 48 50 0 0 0 0 0
    0 0 0 0 0 0 0 0 0 0 0 0 0 0 0 0 0 0 0 0 0 0 0 0 0 0 0 0 0 0 0 0 0 0 0 0 0 0 0 0 0 0 0 0 0 0 0 0 0 0 0 0 0 0 0 0 0 0 0 0 0 0 0 0 0 0 0 0 0 0 0 0 0 0 0 0 0 0 0 0 0 0 0 0 0 0 0 0 0 0 0 0 0 0 0 0 0 0 0 0 0 0 0 0 0 0 0 0 0 0 -193 -177 0 0 0 0 0 0 0 0 0 0 -193 10 10 0 0 0 0 0 0 0 0 0 9 9 9 10 9 0 0 0 0 0 0 0 0 0 0 0 -193 -193 -209 0 0 0 0 0 0 0 0 0 0 0 0 9 0 11 11 -193 12 11 0 0 0 0 -193 0 0 0 0 10 11 0 0 0 0 0 0 9 9 9 9 9 -193 11 12 10 16 12 12 12 13 10 13 10 10 0 0 0 0 0 12 9 11 12 12 12 14 14 14 12 14 18 17 16 16 14 15 15 15 15 14 15 16 16 18 17 17 19 19 19 20 21 19 19 19 20 19 18 20 19 14 21 21 21 20 21 21 22 20 20 20 22 22 22 23 24 24 25 26 26 26 26 26 25 26 26 27 26 27 28 28 28 28 29 29 30 31 33 35 34 36 38 39 40 40 41 41 42 44 45 45 47 46 47 48 49 50 50 49 50 48 49 50 0 0 0 0 0
    0 0 0 0 0 0 0 0 0 0 0 0 0 0 0 0 0 0 0 0 0 0 0 0 0 0 0 0 0 0 0 0 0 0 0 0 0 0 0 0 0 0 0 0 0 0 0 0 0 0 0 0 0 0 0 0 0 0 0 0 0 0 0 0 0 0 0 0 0 0 0 0 0 0 0 0 0 0 0 0 0 0 0 0 0 0 0 0 0 0 0 0 0 0 0 0 0 0 0 0 0 0 0 0 0 0 0 0 0 0 -193 -177 0 0 0 0 0 0 0 0 0 0 -193 10 10 0 0 0 0 0 0 0 0 0 9 10 9 10 0 0 0 0 0 0 0 0 0 0 0 0 0 0 -209 0 0 -193 0 0 0 0 9 0 9 9 0 9 0 11 11 20 12 12 0 0 0 0 -193 0 0 0 0 10 11 9 9 0 0 0 0 9 9 9 9 9 14 11 13 11 17 13 13 13 13 11 14 10 10 0 0 0 0 0 12 9 11 13 13 13 14 15 15 12 15 18 17 15 16 14 15 15 15 15 14 15 16 16 18 17 17 19 20 19 20 21 19 19 19 20 19 18 20 18 13 21 21 21 20 21 21 22 20 20 20 22 21 22 23 24 24 25 26 26 26 27 26 26 25 26 27 27 27 28 28 28 28 28 29 29 29 31 34 33 35 37 38 39 40 41 41 42 43 45 45 48 46 48 49 50 51 51 51 51 50 50 51 0 0 0 0 0
    0 0 0 0 0 0 0 0 0 0 0 0 0 0 0 0 0 0 0 0 0 0 0 0 0 0 0 0 0 0 0 0 0 0 0 0 0 0 0 0 0 0 0 0 0 0 0 0 0 0 0 0 0 0 0 0 0 0 0 0 0 0 0 0 0 0 0 0 0 0 0 0 0 0 0 0 0 0 0 0 0 0 0 0 0 0 0 0 0 0 0 0 0 0 0 0 0 0 0 0 0 0 0 0 0 0 0 0 0 0 -193 -177 0 0 0 0 0 0 0 0 0 0 -193 10 10 0 0 0 0 0 0 0 0 0 9 9 9 9 0 0 0 0 0 0 0 0 0 0 0 0 0 -193 -209 0 0 -193 0 10 9 9 9 9 10 9 9 10 9 11 12 -193 12 12 0 0 0 0 -193 0 0 0 0 10 12 10 10 9 9 9 0 10 10 10 9 10 14 12 13 12 18 13 13 14 14 11 14 10 10 0 0 0 0 0 10 9 11 13 12 13 14 14 14 13 15 18 16 15 16 14 15 15 15 15 14 15 17 16 18 17 17 20 20 19 20 21 20 20 20 20 18 19 20 19 14 22 21 21 20 21 22 22 21 20 20 21 21 22 23 24 24 25 25 25 25 27 26 25 25 25 26 26 26 27 27 27 27 28 28 28 28 29 33 31 34 35 36 38 39 40 41 41 43 45 45 47 46 48 50 50 52 52 51 52 51 51 51 0 0 0 0 0
    0 0 0 0 0 0 0 0 0 0 0 0 0 0 0 0 0 0 0 0 0 0 0 0 0 0 0 0 0 0 0 0 0 0 0 0 0 0 0 0 0 0 0 0 0 0 0 0 0 0 0 0 0 0 0 0 0 0 0 0 0 0 0 0 0 0 0 0 0 0 0 0 0 0 0 0 0 0 0 0 0 0 0 0 0 0 0 0 0 0 0 0 0 0 0 0 0 0 0 0 0 0 0 0 0 0 0 0 0 0 -193 -193 0 0 0 0 0 0 0 0 0 0 -193 10 11 0 0 0 0 0 0 0 0 0 8 9 9 0 0 0 0 0 0 0 0 0 0 0 0 0 -193 -209 -209 -193 0 -209 0 11 9 9 10 9 10 10 9 11 10 13 13 19 12 11 0 0 0 0 -193 0 0 0 0 11 12 10 11 9 10 10 9 11 11 10 10 10 15 13 14 12 18 14 14 14 14 12 15 10 10 0 0 0 0 0 9 9 11 12 12 12 13 14 14 13 15 17 16 15 17 14 16 15 15 15 15 15 17 15 18 17 18 20 18 18 19 20 19 19 19 20 17 19 20 19 15 22 21 21 20 22 22 22 21 20 21 22 21 22 23 23 23 24 25 25 25 27 25 26 25 26 27 27 27 27 27 27 27 28 28 28 28 28 32 30 32 33 34 36 37 39 40 40 43 45 46 48 47 49 50 50 52 51 51 51 50 50 51 0 0 0 0 0
    0 0 0 0 0 0 0 0 0 0 0 0 0 0 0 0 0 0 0 0 0 0 0 0 0 0 0 0 0 0 0 0 0 0 0 0 0 0 0 0 0 0 0 0 0 0 0 0 0 0 0 0 0 0 0 0 0 0 0 0 0 0 0 0 0 0 0 0 0 0 0 0 0 0 0 0 0 0 0 0 0 0 0 0 0 0 0 0 0 0 0 0 0 0 0 0 0 0 0 0 0 0 0 0 0 0 0 0 0 0 -193 -193 0 0 0 0 0 0 0 0 0 0 -193 10 11 0 0 0 0 0 0 0 0 0 0 0 0 0 0 0 0 0 0 0 0 0 0 0 0 0 -193 -193 -193 -193 0 -209 0 10 9 9 10 9 10 9 9 11 10 13 13 18 11 11 0 0 0 0 -193 0 0 0 0 11 13 11 11 10 11 10 9 11 11 10 10 10 14 12 14 12 19 14 14 14 15 12 15 10 10 0 0 0 0 0 0 9 11 13 12 13 14 15 15 13 16 17 16 15 17 15 16 15 15 16 15 16 17 16 18 17 19 20 18 19 19 20 19 19 19 20 17 19 19 19 15 21 21 21 20 22 23 22 22 22 22 23 22 23 23 23 23 24 24 24 25 26 25 26 25 27 28 27 27 28 27 27 27 28 28 28 28 28 32 29 30 31 32 34 36 38 39 38 43 46 46 48 48 49 50 49 50 50 49 50 49 49 49 0 0 0 0 0
    0 0 0 0 0 0 0 0 0 0 0 0 0 0 0 0 0 0 0 0 0 0 0 0 0 0 0 0 0 0 0 0 0 0 0 0 0 0 0 0 0 0 0 0 0 0 0 0 0 0 0 0 0 0 0 0 0 0 0 0 0 0 0 0 0 0 0 0 0 0 0 0 0 0 0 0 0 0 0 0 0 0 0 0 0 0 0 0 0 0 0 0 0 0 0 0 9 0 0 0 0 0 0 0 0 0 0 0 0 0 -193 -193 0 0 0 0 0 0 0 0 0 0 -193 10 11 9 0 0 0 0 0 0 0 0 0 0 0 0 0 0 0 0 0 0 0 0 0 9 0 0 -193 -193 -209 0 9 10 9 10 9 10 10 9 10 9 9 11 10 13 13 16 10 10 0 0 0 0 0 0 0 0 0 11 13 11 11 10 11 11 9 11 10 10 9 10 14 12 13 12 18 14 14 14 14 12 14 10 10 0 0 0 0 0 0 9 11 13 13 13 14 15 15 13 15 16 15 15 17 15 15 15 16 16 16 17 17 16 18 17 18 20 19 18 19 21 19 19 18 19 16 18 19 19 15 21 21 21 20 22 22 22 22 22 22 23 22 23 23 23 24 23 24 24 24 26 25 26 25 27 28 27 27 28 28 28 28 28 28 28 28 28 31 29 29 30 30 31 33 36 37 36 43 46 46 49 48 49 49 48 48 48 47 49 47 48 48 0 0 0 0 0
    0 0 0 0 0 0 0 0 0 0 0 0 0 0 0 0 0 0 0 0 0 0 0 0 0 0 0 0 0 0 0 0 0 0 0 0 0 0 0 0 0 0 0 0 0 0 0 0 0 0 0 0 0 0 0 0 0 0 0 0 0 0 0 0 0 0 0 0 0 0 0 0 0 0 0 0 0 0 0 0 0 0 0 0 0 0 0 0 0 0 0 0 0 0 0 0 9 0 0 0 0 0 0 0 0 0 0 0 0 0 -193 -193 0 0 0 0 0 0 0 0 0 0 -193 10 11 9 0 0 0 0 0 0 0 0 0 0 0 0 0 0 0 0 0 0 0 0 0 9 0 0 -193 -193 -209 0 0 -193 0 10 9 9 10 9 10 9 9 11 10 13 13 16 10 10 0 0 0 0 0 0 0 0 0 11 13 11 11 10 11 11 9 10 10 10 9 9 13 12 13 12 18 14 14 14 14 11 14 10 10 0 0 0 0 0 0 9 11 13 12 13 14 14 14 13 15 16 14 16 17 14 15 16 16 16 16 17 16 16 18 18 18 20 18 19 19 21 18 18 18 19 16 18 19 18 14 21 21 21 19 21 22 21 22 22 22 22 22 23 23 24 24 23 24 24 24 26 24 25 25 26 28 28 27 28 28 28 28 29 29 27 27 27 31 28 29 29 29 29 31 34 35 32 42 45 46 48 48 48 48 47 48 46 46 48 47 48 47 0 0 0 0 0
    0 0 0 0 0 0 0 0 0 0 0 0 0 0 0 0 0 0 0 0 0 0 0 0 0 0 0 0 0 0 0 0 0 0 0 0 0 0 0 0 0 0 0 0 0 0 0 0 0 0 0 0 0 0 0 0 0 0 0 0 0 0 0 0 0 0 0 0 0 0 0 0 0 0 0 0 0 0 0 0 0 0 0 0 0 0 0 0 0 0 0 0 0 0 0 0 9 0 0 0 0 0 0 0 0 0 0 0 0 0 -193 -193 0 0 0 0 0 0 0 0 0 0 -177 10 11 9 0 0 0 0 0 0 0 0 0 0 0 0 0 0 0 0 0 0 0 9 0 8 0 -193 -193 -193 -209 0 0 -193 0 9 0 9 10 9 9 9 9 10 10 13 14 16 10 10 0 0 0 0 0 0 0 0 0 11 13 11 11 10 11 11 9 10 10 9 0 8 12 11 13 12 18 14 13 14 13 11 13 10 10 0 0 0 0 0 0 0 11 13 12 12 13 13 13 12 14 14 14 15 16 14 15 17 16 16 16 17 16 16 18 18 17 20 18 19 19 21 18 18 18 19 16 18 18 18 15 20 20 20 19 21 21 21 22 21 22 22 22 23 24 24 24 24 24 24 25 26 25 26 25 26 28 28 28 29 28 28 28 30 29 27 27 27 31 29 29 29 29 29 32 34 34 32 42 45 45 47 47 47 47 47 47 46 46 48 47 48 48 0 0 0 0 0
    0 0 0 0 0 0 0 0 0 0 0 0 0 0 0 0 0 0 0 0 0 0 0 0 0 0 0 0 0 0 0 0 0 0 0 0 0 0 0 0 0 0 0 0 0 0 0 0 0 0 0 0 0 0 0 0 0 0 0 0 0 0 0 0 0 0 0 0 0 0 0 0 0 0 0 0 0 0 0 0 0 0 0 0 0 0 0 0 0 0 0 0 0 0 0 0 9 0 0 0 0 0 0 0 0 0 0 0 0 0 -193 0 0 0 0 0 0 0 0 0 0 0 -177 10 11 9 0 0 0 0 0 0 0 0 0 0 0 0 0 0 0 0 9 0 10 9 0 0 0 -193 0 0 -193 0 0 -193 0 9 0 9 9 0 9 0 0 10 10 12 13 16 10 10 0 0 0 0 0 0 0 0 0 11 12 11 11 10 11 11 9 10 10 9 0 0 12 11 12 13 18 14 14 14 13 11 14 11 10 0 0 0 0 0 0 0 11 12 11 12 12 13 13 14 15 14 15 16 16 15 15 17 16 16 16 17 16 16 18 18 17 19 18 18 18 21 18 19 19 19 17 19 19 19 16 21 21 20 19 21 21 21 22 21 22 22 22 23 24 24 25 24 24 24 25 26 25 26 25 27 28 28 28 29 28 28 28 31 29 27 27 27 30 29 29 30 29 30 35 36 36 34 42 45 45 46 47 47 47 47 47 46 46 49 48 48 48 0 0 0 0 0
    0 0 0 0 0 0 0 0 0 0 0 0 0 0 0 0 0 0 0 0 0 0 0 0 0 0 0 0 0 0 0 0 0 0 0 0 0 0 0 0 0 0 0 0 0 0 0 0 0 0 0 0 0 0 0 0 0 0 0 0 0 0 0 0 0 0 0 0 0 0 0 0 0 0 0 0 0 0 0 0 0 0 0 0 0 0 0 0 0 0 0 0 0 0 0 0 9 0 0 0 0 0 0 0 0 0 0 0 0 0 -177 0 0 0 0 0 0 0 0 0 0 0 -193 10 11 9 0 0 0 0 0 0 0 0 0 0 0 0 0 0 0 9 12 10 12 11 0 0 0 0 0 0 -193 0 0 -193 0 9 0 9 9 0 9 0 0 9 -193 11 13 15 10 10 0 0 0 0 0 0 0 0 0 10 12 11 11 10 11 10 0 9 9 0 0 0 11 10 12 12 18 14 13 13 13 11 14 11 10 9 9 9 0 0 0 0 11 11 10 12 12 12 13 14 15 14 14 16 16 15 15 17 16 16 16 17 16 16 18 18 18 19 18 18 18 21 19 19 19 19 17 19 19 19 16 21 21 20 19 21 21 21 22 21 22 22 23 24 24 25 25 25 25 25 26 26 25 26 26 27 28 28 28 29 28 29 29 31 28 28 27 27 30 29 30 31 30 32 37 38 38 37 43 45 45 46 47 47 47 46 46 46 46 48 47 48 48 0 0 0 0 0
    0 0 0 0 0 0 0 0 0 0 0 0 0 0 0 0 0 0 0 0 0 0 0 0 0 0 0 0 0 0 0 0 0 0 0 0 0 0 0 0 0 0 0 0 0 0 0 0 0 0 0 0 0 0 0 0 0 0 0 0 0 0 0 0 0 0 0 0 0 0 0 0 0 0 0 0 0 0 0 0 0 0 0 0 0 0 0 0 0 0 0 0 0 0 0 0 0 0 0 0 0 0 0 0 0 0 0 0 0 0 -177 -193 0 0 0 0 0 0 0 0 0 0 -193 10 11 9 9 0 0 0 0 0 0 0 0 0 0 0 0 0 0 12 18 16 15 -225 -193 -193 -193 -193 -193 -193 -193 0 0 -193 0 9 0 9 9 0 9 0 0 9 -209 11 12 -193 10 10 0 0 0 0 0 0 0 0 0 10 12 10 11 9 10 10 0 9 0 0 0 0 10 10 11 11 17 13 13 13 13 11 13 11 10 9 9 9 0 0 0 0 10 11 10 12 12 13 13 14 14 14 14 16 16 15 15 17 16 17 16 17 16 16 18 18 17 19 18 17 18 20 18 18 19 19 17 19 19 19 17 21 21 20 20 21 22 22 22 22 22 22 23 24 24 24 25 24 25 25 25 25 24 26 26 27 27 28 28 30 29 29 31 31 29 29 28 28 31 29 31 31 31 34 38 38 39 39 43 45 45 46 47 47 47 46 46 46 45 47 47 48 47 0 0 0 0 0
    0 0 0 0 0 0 0 0 0 0 0 0 0 0 0 0 0 0 0 0 0 0 0 0 0 0 0 0 0 0 0 0 0 0 0 0 0 0 0 0 0 0 0 0 0 0 0 0 0 0 0 0 0 0 0 0 0 0 0 0 0 0 0 0 0 0 0 0 0 0 0 0 0 0 0 0 0 0 0 0 0 0 0 0 0 0 0 0 0 0 0 0 0 0 0 0 0 0 0 0 0 0 0 0 0 0 0 0 0 -193 -177 -193 0 0 0 0 0 0 0 0 0 0 -193 10 12 9 9 0 0 0 0 0 0 0 0 0 0 0 0 8 11 18 21 20 19 -225 12 -193 -209 -193 -193 -193 -193 0 0 -193 0 0 0 0 0 0 0 0 0 0 -209 11 11 -209 10 11 0 0 0 0 0 0 0 0 0 10 12 10 11 9 10 9 0 9 0 0 0 0 10 9 10 11 16 13 12 12 12 11 13 11 10 9 0 9 0 0 0 0 12 12 11 13 13 14 14 14 14 14 15 17 16 15 15 17 16 16 16 16 16 15 18 18 17 19 17 17 18 20 17 18 19 18 17 19 19 19 17 21 21 20 20 21 22 21 22 22 23 23 23 23 24 24 25 24 25 25 25 25 25 26 26 27 27 28 28 31 30 30 31 31 30 29 28 29 31 30 31 32 32 36 40 40 40 41 44 46 46 46 47 48 47 46 46 46 46 47 46 47 46 0 0 0 0 0
    0 0 0 0 0 0 0 0 0 0 0 0 0 0 0 0 0 0 0 0 0 0 0 0 0 0 0 0 0 0 0 0 0 0 0 0 0 0 0 0 0 0 0 0 0 0 0 0 0 0 0 0 0 0 0 0 0 0 0 0 0 0 0 0 0 0 0 0 0 0 0 0 0 0 0 0 0 0 0 0 0 0 0 0 0 0 0 0 0 0 0 0 0 0 0 0 0 0 0 0 0 0 0 0 0 -193 0 0 0 -193 -177 -193 0 0 0 0 0 0 0 0 0 0 -193 11 13 10 10 9 0 0 0 0 0 0 0 0 0 0 9 10 13 20 22 21 19 -225 -225 29 -209 -193 -193 -193 -193 -193 0 -193 0 0 0 0 0 0 0 0 0 0 -193 10 -193 -209 10 11 0 0 0 0 0 0 0 0 0 10 11 10 11 9 9 9 0 0 0 0 0 0 9 9 10 11 14 12 12 12 12 10 13 11 10 9 0 9 0 0 0 0 -177 13 12 15 14 14 14 15 15 14 15 17 16 15 15 17 17 16 16 17 16 15 18 18 18 19 18 17 19 20 17 18 19 18 18 19 19 19 18 22 21 20 20 21 21 21 22 22 22 22 23 23 23 24 24 24 24 24 23 24 24 25 25 26 27 28 28 31 30 30 32 31 30 30 29 30 32 30 33 34 34 38 40 40 41 42 44 45 46 46 47 48 47 46 46 46 46 47 47 48 46 0 0 0 0 0
    0 0 0 0 0 0 0 0 0 0 0 0 0 0 0 0 0 0 0 0 0 0 0 0 0 0 0 0 0 0 0 0 0 0 0 0 0 0 0 0 0 0 0 0 0 0 0 0 0 0 0 0 0 0 0 0 0 0 0 0 0 0 0 0 0 0 0 0 0 0 0 0 0 0 0 0 0 0 0 0 0 0 0 0 0 0 0 0 0 0 0 0 0 0 0 0 0 0 0 0 0 0 0 0 0 -193 0 0 0 -193 -177 -193 0 0 0 0 0 0 0 0 0 0 -193 11 14 10 11 11 10 0 0 0 0 0 0 0 0 0 10 11 16 21 23 22 20 -225 -225 29 -209 -193 -193 -193 -193 -193 0 -193 0 0 0 0 0 0 0 0 0 0 -209 -193 -193 -209 10 12 0 0 0 0 0 0 0 0 0 10 11 10 10 0 9 0 0 0 0 0 0 0 9 9 9 10 13 12 11 11 11 10 12 10 10 9 9 10 9 0 0 0 -177 12 12 15 14 14 14 15 15 14 15 16 16 15 15 17 16 16 16 16 15 14 18 18 18 19 18 17 19 20 17 17 19 17 18 19 19 19 19 22 22 21 21 21 22 21 22 21 21 21 22 22 23 24 24 23 24 24 23 24 25 25 25 26 27 29 28 31 31 30 31 31 30 30 30 31 33 32 36 37 38 40 42 42 42 43 44 44 45 46 46 47 46 46 46 46 47 47 47 48 46 0 0 0 0 0
    0 0 0 0 0 0 0 0 0 0 0 0 0 0 0 0 0 0 0 0 0 0 0 0 0 0 0 0 0 0 0 0 0 0 0 0 0 0 0 0 0 0 0 0 0 0 0 0 0 0 0 0 0 0 0 0 0 0 0 0 0 0 0 0 0 0 0 0 0 0 0 0 0 0 0 0 0 0 0 0 0 0 0 0 0 0 0 0 0 0 0 0 0 0 0 0 0 0 0 0 0 0 0 0 0 -193 0 0 9 0 -193 -193 0 0 0 0 0 0 0 0 0 0 -193 11 14 9 11 11 11 8 0 0 0 0 0 0 0 0 10 10 15 21 23 22 21 -225 -193 29 -209 -193 -193 0 -193 -193 0 -193 0 0 0 0 0 0 0 0 0 0 -209 -193 -193 -193 11 13 0 0 0 0 9 0 0 0 0 10 11 10 10 0 8 0 0 0 0 0 0 0 10 9 9 10 12 11 11 11 10 9 12 10 10 9 10 10 10 0 9 0 16 12 12 14 14 14 15 15 15 14 15 16 16 15 15 16 16 16 16 16 15 14 18 18 18 18 18 17 20 20 17 17 19 17 18 19 19 19 20 23 23 21 22 22 22 21 23 20 20 21 22 21 23 24 24 23 25 25 23 24 25 26 25 26 26 28 28 30 30 29 31 31 30 30 31 33 35 36 38 39 39 41 42 42 42 42 43 43 44 45 45 46 46 46 46 46 47 47 47 48 46 0 0 0 0 0
    0 0 0 0 0 0 0 0 0 0 0 0 0 0 0 0 0 0 0 0 0 0 0 0 0 0 0 0 0 0 0 0 0 0 0 0 0 0 0 0 0 0 0 0 0 0 0 0 0 0 0 0 0 0 0 0 0 0 0 0 0 0 0 0 0 0 0 0 0 0 0 0 0 0 0 0 0 0 0 0 0 0 0 0 0 0 0 0 0 0 0 0 0 0 0 0 0 0 0 0 0 0 0 0 0 -193 0 0 9 0 -193 -193 0 0 0 0 0 0 0 0 0 0 -193 11 13 9 9 9 10 9 0 0 0 0 0 0 0 0 10 10 14 19 21 21 20 -225 26 30 -209 -209 -193 0 -209 -209 0 -193 0 0 0 0 0 0 0 0 0 9 -209 11 9 -209 10 12 0 0 0 0 9 8 0 0 0 10 11 9 10 0 0 0 0 0 0 0 0 0 9 0 9 9 11 11 10 10 10 9 12 10 10 9 11 11 11 9 9 0 14 12 12 13 13 14 15 16 15 14 15 16 17 15 15 16 15 15 16 16 16 13 18 18 18 18 18 17 20 20 16 17 19 17 18 19 19 19 20 23 22 21 22 22 23 22 24 22 21 23 23 22 24 25 25 23 25 25 23 24 26 26 26 26 26 28 28 29 30 29 31 31 30 31 32 35 37 37 40 40 41 41 42 42 42 43 42 42 43 44 45 46 45 45 46 46 47 47 47 47 45 0 0 0 0 0
    0 0 0 0 0 0 0 0 0 0 0 0 0 0 0 0 0 0 0 0 0 0 0 0 0 0 0 0 0 0 0 0 0 0 0 0 0 0 0 0 0 0 0 0 0 0 0 0 0 0 0 0 0 0 0 0 0 0 0 0 0 0 0 0 0 0 0 0 0 0 0 0 0 0 0 0 0 0 0 0 0 0 0 0 0 0 0 0 0 0 0 0 0 0 0 0 0 0 9 0 0 9 9 0 0 -193 9 0 9 0 -193 0 0 0 0 0 0 0 0 0 0 0 -193 11 13 9 9 9 8 8 0 0 0 0 0 0 0 0 10 10 14 18 20 20 19 25 -193 27 -193 -193 -193 0 -193 0 0 0 0 0 0 0 0 0 0 0 0 10 -193 11 9 -209 10 12 0 0 0 0 0 0 0 0 0 10 10 9 9 0 0 0 0 0 0 0 0 0 0 0 0 9 10 10 10 10 10 9 12 10 10 10 11 12 11 10 9 0 14 12 12 13 13 14 16 16 16 15 15 16 17 15 15 15 15 15 16 16 16 13 18 18 19 18 19 17 20 19 16 18 19 17 19 19 19 19 21 23 23 22 23 22 23 23 23 21 21 22 22 22 23 23 23 23 25 26 23 25 27 27 26 26 26 28 27 28 30 29 31 30 30 31 33 37 38 38 41 41 41 42 42 42 42 42 42 41 43 44 45 46 45 45 46 46 47 46 46 47 45 0 0 0 0 0
    0 0 0 0 0 0 0 0 0 0 0 0 0 0 0 0 0 0 0 0 0 0 0 0 0 0 0 0 0 0 0 0 0 0 0 0 0 0 0 0 0 0 0 0 0 0 0 0 0 0 0 0 0 0 0 0 0 0 0 0 0 0 0 0 0 0 0 0 0 0 0 0 0 0 0 0 0 0 0 0 0 0 0 0 0 0 0 0 0 0 0 0 0 0 0 0 0 0 10 0 8 10 9 9 0 9 9 0 9 0 0 0 0 0 0 0 0 0 0 0 0 0 -193 11 12 9 9 9 0 9 0 0 0 0 0 0 0 0 9 10 13 16 18 19 16 22 22 24 24 -193 -193 0 -193 0 0 0 0 0 0 0 0 0 0 0 9 11 10 11 9 -193 10 12 0 0 0 0 0 0 0 0 0 10 10 0 0 0 0 0 0 0 0 0 0 0 0 0 0 9 9 9 9 10 9 0 12 10 10 10 12 12 11 10 10 9 13 12 12 13 13 14 16 16 16 15 15 15 18 15 15 15 15 14 16 17 17 12 19 19 20 19 19 16 20 18 16 17 18 16 18 18 19 18 20 23 22 21 23 22 22 23 23 21 21 22 22 21 22 23 21 22 25 26 23 24 27 27 25 26 26 28 26 27 30 29 31 30 31 32 34 38 38 38 41 41 42 41 42 42 41 42 41 40 42 44 44 46 45 45 45 46 46 46 46 46 45 0 0 0 0 0
    0 0 0 0 0 0 0 0 0 0 0 0 0 0 0 0 0 0 0 0 0 0 0 0 0 0 0 0 0 0 0 0 0 0 0 0 0 0 0 0 0 0 0 0 0 0 0 0 0 0 0 0 0 0 0 0 0 0 0 0 0 0 0 0 0 0 0 0 0 0 0 0 0 0 0 0 0 0 0 0 0 0 0 0 0 0 0 0 0 0 0 0 0 0 0 0 0 9 11 0 9 10 9 9 0 9 0 0 0 0 0 0 0 0 0 0 0 0 0 0 0 0 -193 11 12 9 9 9 0 0 0 0 0 0 0 0 0 0 9 10 13 17 18 17 12 16 15 10 9 -193 -193 0 0 9 0 0 0 0 0 0 0 0 9 9 10 12 11 12 10 -193 10 11 0 0 0 0 0 0 0 0 0 9 10 0 0 0 0 0 0 0 0 0 0 0 0 0 0 9 9 9 9 9 9 0 12 10 10 10 11 12 11 10 10 9 13 12 12 13 13 15 15 16 17 14 14 15 18 15 15 15 15 14 17 17 17 13 19 19 19 19 18 16 20 18 16 17 18 16 18 18 19 18 21 23 23 22 23 22 23 23 23 21 21 23 22 21 22 22 20 21 24 24 19 22 26 27 24 25 26 28 27 28 30 29 30 30 32 33 34 38 38 38 41 42 42 41 41 42 41 41 41 40 41 43 44 45 44 44 45 45 46 45 45 45 44 0 0 0 0 0
    0 0 0 0 0 0 0 0 0 0 0 0 0 0 0 0 0 0 0 0 0 0 0 0 0 0 0 0 0 0 0 0 0 0 0 0 0 0 0 0 0 0 0 0 0 0 0 0 0 0 0 0 0 0 0 0 0 0 0 0 0 0 0 0 0 0 0 0 0 0 0 0 0 0 0 0 0 0 0 0 0 0 0 0 0 0 0 0 0 0 0 0 0 0 0 0 0 9 11 0 9 9 0 0 0 0 0 0 0 0 0 0 0 0 0 0 0 0 0 0 0 0 0 11 12 10 9 9 0 0 0 0 0 0 0 0 0 0 9 10 13 17 16 14 10 10 10 9 0 0 0 0 0 9 0 0 0 0 0 0 0 0 9 9 11 12 12 13 11 -193 10 11 0 0 0 0 0 0 0 0 0 9 9 0 0 0 0 0 0 0 0 0 0 0 0 0 0 9 9 9 9 9 9 0 11 10 9 10 11 12 11 10 10 9 13 13 12 12 12 14 15 16 18 14 14 15 19 15 15 15 15 14 17 17 17 13 19 19 19 19 18 16 21 18 17 17 17 16 17 18 18 16 21 23 23 22 23 22 23 23 23 21 21 23 22 21 22 22 19 21 24 24 17 22 27 27 24 26 27 29 28 28 31 29 30 30 32 31 34 38 38 39 42 42 41 41 41 41 40 41 40 39 41 42 43 44 44 44 44 44 45 45 45 45 44 0 0 0 0 0
    0 0 0 0 0 0 0 0 0 0 0 0 0 0 0 0 0 0 0 0 0 0 0 0 0 0 0 0 0 0 0 0 0 0 0 0 0 0 0 0 0 0 0 0 0 0 0 0 0 0 0 0 0 0 0 0 0 0 0 0 0 0 0 0 0 0 0 0 0 0 0 0 0 0 0 0 0 0 0 0 0 0 0 0 0 0 9 0 0 0 0 0 0 0 0 0 0 8 10 0 8 0 0 0 0 0 0 0 0 0 0 0 0 0 0 0 0 0 0 0 0 0 0 10 11 10 9 9 0 0 0 0 0 0 0 0 0 0 10 11 13 17 14 12 11 9 10 9 -193 -193 9 9 9 9 0 0 0 0 0 0 0 0 9 9 11 13 12 13 12 15 10 10 0 0 0 0 0 0 0 0 0 9 0 0 0 0 0 0 0 0 0 0 0 0 9 9 0 9 9 9 9 9 9 0 11 9 9 10 10 12 11 10 10 9 14 13 12 12 12 14 15 16 17 13 14 15 19 15 15 15 15 14 17 17 17 13 19 19 19 18 17 16 21 18 17 17 17 16 17 17 17 14 20 23 23 22 23 23 23 24 23 22 22 23 22 21 22 22 19 21 24 24 15 23 28 28 25 26 27 29 28 28 31 29 30 30 32 31 33 38 38 39 42 42 41 40 40 41 40 40 40 39 40 42 43 43 43 43 44 44 44 44 44 44 44 0 0 0 0 0
    0 0 0 0 0 0 0 0 0 0 0 0 0 0 0 0 0 0 0 0 0 0 0 0 0 0 0 0 0 0 0 0 0 0 0 0 0 0 0 0 0 0 0 0 0 0 0 0 0 0 0 0 0 0 0 0 0 0 0 0 0 0 0 0 0 0 0 0 0 0 0 0 0 0 0 0 0 0 0 0 0 0 0 0 0 0 9 0 0 0 0 0 0 0 0 0 0 0 9 0 0 0 0 0 0 0 0 0 0 0 0 0 0 0 0 0 0 0 0 0 0 0 0 10 11 10 9 9 0 0 0 0 0 0 0 0 0 0 11 11 13 17 13 11 11 9 10 10 -193 -193 9 10 10 10 9 0 0 0 0 0 0 0 0 9 11 13 12 14 12 15 11 11 0 0 0 0 0 0 0 0 0 0 0 0 0 0 0 9 0 0 0 0 0 0 9 9 0 10 9 9 9 9 9 0 10 0 0 9 10 11 10 10 10 9 14 13 12 12 12 13 14 15 17 13 14 16 19 15 15 15 15 14 17 17 17 14 19 18 18 18 16 15 20 18 17 17 17 17 18 18 17 14 19 21 22 22 22 23 24 24 23 22 22 23 22 21 21 21 19 22 25 25 14 25 30 30 26 26 26 29 28 28 30 29 29 30 31 30 32 37 38 38 42 41 40 40 40 41 39 40 40 39 40 42 43 42 43 43 43 43 44 44 44 44 45 0 0 0 0 0
    0 0 0 0 0 0 0 0 0 0 0 0 0 0 0 0 0 0 0 0 0 0 0 0 0 0 0 0 0 0 0 0 0 0 0 0 0 0 0 0 0 0 0 0 0 0 0 0 0 0 0 0 0 0 0 0 0 0 0 0 0 0 0 0 0 0 0 0 0 0 0 0 0 0 0 0 0 0 0 0 0 0 0 0 0 0 9 0 0 0 0 0 0 0 0 0 0 0 0 0 0 0 0 0 0 0 0 0 0 0 0 0 0 0 0 0 0 0 0 9 9 0 0 10 11 10 9 9 0 0 0 0 0 0 0 0 0 0 11 11 13 17 12 11 11 9 10 10 -193 9 10 11 11 10 10 0 0 0 0 0 0 0 0 9 11 13 12 13 12 14 11 11 0 0 0 0 0 0 0 0 0 0 0 0 0 0 9 9 0 0 0 0 0 0 9 0 0 10 9 9 9 9 10 0 10 0 0 9 9 11 10 10 10 9 14 13 12 12 11 13 14 14 17 13 13 16 19 15 15 15 15 14 17 17 16 14 18 17 17 17 16 16 20 19 18 18 18 18 19 19 18 15 18 19 20 20 21 21 23 24 23 22 22 23 22 21 21 21 19 23 25 26 19 26 32 31 28 27 27 30 28 28 30 29 30 30 31 30 31 36 37 37 41 40 39 38 39 39 38 39 39 38 40 42 43 42 43 42 43 43 44 43 44 44 44 0 0 0 0 0
    0 0 0 0 0 0 0 0 0 0 0 0 0 0 0 0 0 0 0 0 0 0 0 0 0 0 0 0 0 0 0 0 0 0 0 0 0 0 0 0 0 0 0 0 0 0 0 0 0 0 0 0 0 0 0 0 0 0 0 0 0 0 0 0 0 0 0 0 0 0 0 0 0 0 0 0 9 0 0 0 0 0 0 0 0 0 10 0 0 0 0 0 0 0 0 0 0 0 0 0 0 0 0 0 0 0 0 0 0 0 0 0 0 0 0 0 0 0 9 9 9 9 9 10 11 10 10 9 0 0 0 0 0 0 0 0 0 9 11 12 13 17 12 11 11 10 11 10 -193 10 10 11 11 10 10 0 0 0 0 0 0 0 0 9 11 13 13 14 12 14 12 12 9 0 0 0 0 0 0 0 0 0 0 0 0 0 9 9 0 0 0 0 0 0 0 0 0 10 9 9 9 9 10 9 10 0 0 9 9 11 10 10 10 10 13 13 11 12 11 13 13 14 17 12 13 16 19 15 15 16 15 14 17 17 16 14 18 16 17 17 15 16 20 19 19 19 19 19 20 20 18 16 17 18 20 20 21 22 23 24 22 22 22 24 22 21 21 21 20 25 25 26 22 27 35 34 30 28 29 33 29 29 31 30 30 31 31 30 30 34 35 35 39 39 38 37 38 39 38 39 39 38 40 42 44 43 43 43 44 44 44 43 44 44 44 0 0 0 0 0
    0 0 0 0 0 0 0 0 0 0 0 0 0 0 0 0 0 0 0 0 0 0 0 0 0 0 0 0 0 0 0 0 0 0 0 0 0 0 0 0 0 0 0 0 0 0 0 0 0 0 0 0 0 0 0 0 0 0 0 0 0 0 0 0 0 0 0 0 0 0 9 9 -193 0 0 0 0 0 0 0 0 0 0 0 0 0 10 0 0 0 0 0 0 0 0 0 0 0 0 0 0 0 0 0 0 0 0 0 0 0 0 0 0 0 0 0 0 9 9 10 9 9 9 10 11 10 10 9 0 0 0 0 0 0 0 0 0 0 10 10 12 14 11 10 11 10 11 -193 -193 10 11 11 11 10 10 0 0 0 0 0 0 0 0 0 10 12 12 13 12 14 13 14 11 10 9 9 9 0 0 0 0 0 0 0 0 0 9 8 0 0 0 0 0 0 0 0 9 11 9 9 9 9 10 9 10 9 0 9 9 11 10 10 10 10 14 13 11 12 11 12 12 13 17 12 13 16 19 15 16 16 16 14 17 17 16 13 17 16 16 16 15 16 19 20 19 19 20 20 20 20 19 17 18 19 20 21 21 22 23 24 21 21 22 23 22 21 21 20 19 25 25 25 21 27 35 33 29 28 28 33 30 29 31 30 31 31 31 31 30 32 33 32 36 36 35 35 36 36 37 37 38 38 40 42 43 42 43 43 44 43 43 43 43 43 43 0 0 0 0 0
    0 0 0 0 0 0 0 0 0 0 0 0 0 0 0 0 0 0 0 0 0 0 0 0 0 0 0 0 0 0 0 0 0 0 0 0 0 0 0 0 0 0 0 0 0 0 0 0 0 0 0 0 0 0 0 0 0 0 0 0 0 0 0 0 0 0 0 0 0 0 9 -193 -193 0 0 0 0 0 0 0 0 0 0 0 0 0 9 0 0 0 0 0 0 0 0 0 0 0 0 0 0 0 0 0 0 0 0 0 0 0 0 0 0 0 0 0 0 9 9 10 9 9 10 10 11 10 10 9 9 0 0 0 0 0 0 0 0 0 0 0 10 10 10 9 10 9 11 -193 10 10 11 11 11 11 11 9 0 0 0 0 0 0 0 0 9 10 10 11 11 12 11 14 11 11 11 10 11 10 9 9 0 0 0 9 9 0 9 9 0 0 0 0 0 0 0 9 9 12 9 9 9 9 10 9 10 0 0 9 9 11 10 11 10 10 14 14 12 12 12 12 11 12 16 12 12 15 19 15 16 16 16 14 17 17 16 13 17 15 16 16 15 16 20 19 18 18 19 19 19 19 19 15 18 20 21 21 22 23 24 24 22 22 22 24 23 22 21 21 21 25 24 24 19 25 31 30 28 26 27 32 30 30 32 31 31 32 32 31 30 31 32 31 34 35 34 34 34 34 36 36 37 37 38 40 41 41 42 42 43 43 43 43 43 43 43 0 0 0 0 0
    0 0 0 0 0 0 0 0 0 0 0 0 0 0 0 0 0 0 0 0 0 0 0 0 0 0 0 0 0 0 0 0 0 0 0 0 0 0 0 0 0 0 0 0 0 0 0 0 0 0 0 0 0 0 0 0 0 0 0 0 0 0 0 0 0 0 0 0 0 0 9 0 0 0 0 0 0 0 0 0 0 0 0 0 0 0 9 0 0 0 0 0 0 0 0 0 0 0 0 0 0 0 0 0 0 0 0 0 0 0 0 0 0 0 0 0 0 0 9 9 9 9 10 11 12 10 9 9 9 0 0 0 0 0 0 0 0 0 0 0 9 9 9 9 9 9 11 10 11 11 11 11 11 11 11 9 0 0 0 0 0 0 0 0 0 0 9 10 9 10 10 13 12 12 12 11 12 11 10 10 0 0 9 10 10 9 10 9 9 9 8 9 0 0 0 9 9 12 0 0 0 0 9 9 10 0 0 9 9 11 10 10 10 10 13 13 11 11 12 12 11 12 16 12 12 16 19 15 16 16 16 14 17 16 16 14 17 16 17 17 17 18 21 19 19 19 19 19 19 18 19 13 19 21 22 22 22 23 24 23 22 22 23 25 23 22 22 21 23 25 24 24 19 25 27 27 27 25 25 31 30 30 32 31 31 32 32 32 30 30 31 31 32 33 32 32 33 32 35 35 35 35 37 39 39 39 40 40 41 42 42 42 42 42 42 0 0 0 0 0
    0 0 0 0 0 0 0 0 0 0 0 0 0 0 0 0 0 0 0 0 0 0 0 0 0 0 0 0 0 0 0 0 0 0 0 0 0 0 0 0 0 0 0 0 0 0 0 0 0 0 0 0 0 0 0 0 0 0 0 0 0 0 0 0 0 0 0 0 0 0 9 9 9 0 0 9 0 0 0 0 0 0 0 0 0 0 9 0 0 0 0 0 0 0 0 0 0 0 0 0 0 0 0 0 0 0 0 0 0 0 0 0 0 0 0 0 0 0 9 9 9 9 10 11 12 9 9 9 9 0 0 0 0 0 0 0 0 0 0 0 0 0 0 0 8 9 10 10 10 10 11 11 11 11 10 9 0 0 0 0 0 0 0 0 0 0 0 0 0 -193 10 12 11 12 12 12 12 11 10 10 0 9 9 9 10 9 10 10 9 9 9 9 0 0 0 0 9 12 0 0 0 9 9 9 10 0 0 9 10 11 10 11 11 10 13 13 11 11 11 12 11 12 15 12 12 16 18 15 16 16 16 14 16 16 15 14 16 16 16 18 18 19 20 19 18 19 19 19 18 19 19 13 21 22 23 22 23 24 24 23 22 22 23 25 23 23 22 22 25 26 25 25 21 25 26 27 27 25 25 29 30 30 31 31 31 31 32 32 30 30 31 30 30 30 30 30 30 30 32 33 32 34 36 38 37 37 38 38 39 40 40 41 41 42 42 0 0 0 0 0
    0 0 0 0 0 0 0 0 0 0 0 0 0 0 0 0 0 0 0 0 0 0 0 0 0 0 0 0 0 0 0 0 0 0 0 0 0 0 0 0 0 0 0 0 0 0 0 0 0 0 0 0 0 0 0 0 0 0 0 0 0 0 0 0 0 0 0 0 0 9 11 10 10 0 0 10 9 0 0 0 0 0 0 0 0 0 0 0 0 0 0 0 0 0 0 0 0 0 0 0 0 0 0 0 0 0 0 0 0 0 0 0 0 0 0 0 0 0 0 0 9 9 -209 11 11 9 0 0 9 0 9 0 0 0 0 0 0 0 0 0 0 -193 0 0 0 0 10 -209 10 10 10 11 10 10 10 0 0 0 0 0 0 -193 0 0 0 -193 -193 -193 -193 -193 -193 12 -193 12 12 11 12 11 10 10 0 9 9 9 10 0 10 0 0 0 0 0 0 0 0 0 9 12 0 0 0 9 10 9 11 9 0 11 11 13 11 12 11 11 14 13 11 11 11 11 11 11 14 11 12 16 18 14 16 16 16 14 16 16 15 14 16 15 15 19 19 18 20 19 18 18 18 18 17 19 19 13 21 22 23 22 22 23 23 22 21 21 22 24 23 23 23 23 25 26 26 26 22 25 26 27 27 26 25 29 30 29 31 31 31 31 32 32 30 29 30 29 29 29 29 29 30 29 33 32 32 33 34 36 35 34 36 35 37 38 39 40 39 42 42 0 0 0 0 0
    0 0 0 0 0 0 0 0 0 0 0 0 0 0 0 0 0 0 0 0 0 0 0 0 0 0 0 0 0 0 0 0 0 0 0 0 0 0 0 0 0 0 0 0 0 0 0 0 0 0 0 0 0 0 0 0 0 0 0 0 0 0 0 0 0 0 0 0 0 9 11 10 10 9 9 10 9 0 0 0 0 0 0 0 0 0 0 0 0 0 0 0 0 0 0 0 0 0 0 0 9 0 0 0 0 0 0 0 0 0 0 0 0 0 0 0 0 0 0 0 0 0 -209 10 11 9 0 0 9 0 9 0 0 0 -193 0 0 0 0 0 0 -193 0 0 0 -193 10 -209 10 9 10 10 10 10 9 0 0 0 -177 -177 -177 0 -193 -193 -193 -193 133 133 133 133 -209 12 -193 12 12 12 13 11 10 11 0 9 9 9 9 0 9 0 0 0 0 0 0 0 0 0 9 12 0 0 9 10 10 10 11 9 0 12 12 14 12 12 12 12 14 14 11 11 11 11 11 11 13 11 12 15 17 14 16 16 16 14 16 16 15 14 15 14 16 21 19 19 20 19 19 19 19 19 17 19 19 13 20 22 22 22 21 22 22 21 21 20 21 24 23 23 23 23 25 27 26 26 23 25 26 26 27 26 25 29 30 29 30 30 30 31 31 32 30 29 29 29 29 30 29 29 30 30 33 32 31 32 33 35 32 31 33 33 35 37 37 39 39 41 42 0 0 0 0 0
    0 0 0 0 0 0 0 0 0 0 0 0 0 0 0 0 0 0 0 0 0 0 0 0 0 0 0 0 0 0 0 0 0 0 0 0 0 0 0 0 0 0 0 0 0 0 0 0 0 0 0 0 0 0 0 0 0 0 0 0 0 0 0 0 0 0 0 0 0 10 12 10 10 9 9 10 10 9 0 0 0 0 0 0 0 0 0 0 0 0 0 0 0 0 0 0 0 0 0 9 11 9 9 0 0 0 0 0 0 0 0 0 0 0 0 0 0 0 0 0 0 0 -209 10 11 0 0 0 9 0 9 0 0 -193 -193 -193 0 0 0 0 0 -193 -193 -193 0 -209 10 -209 10 -193 10 10 10 -193 -209 -193 0 -177 -177 -177 -177 0 0 -193 -193 133 133 132 133 133 -209 12 11 12 11 -193 12 11 10 11 0 9 9 9 9 0 8 0 0 0 0 0 0 0 0 0 9 12 0 0 9 10 10 10 11 10 9 13 12 14 12 13 13 12 14 14 11 12 11 11 11 12 13 12 12 15 16 14 16 16 15 14 16 16 15 14 15 14 19 23 21 20 22 20 20 20 20 19 17 18 19 14 20 22 22 22 21 22 22 21 20 19 21 24 24 24 24 24 26 28 27 27 24 26 25 26 27 26 26 28 30 29 30 30 30 31 31 31 30 28 29 29 29 30 29 29 30 29 32 31 30 31 31 33 30 29 31 32 33 36 35 38 38 41 41 0 0 0 0 0
    0 0 0 0 0 0 0 0 0 0 0 0 0 0 0 0 0 0 0 0 0 0 0 0 0 0 0 0 0 0 0 0 0 0 0 0 0 0 0 0 0 0 0 0 0 0 0 0 0 0 0 0 0 0 0 0 0 0 0 0 0 0 0 0 0 0 0 0 0 10 12 10 10 9 9 10 10 9 0 0 9 0 0 0 0 0 0 0 0 0 0 0 0 0 0 0 0 0 9 10 12 10 10 0 0 0 0 0 0 0 0 0 0 0 0 0 0 0 0 0 0 0 0 10 10 0 0 0 9 0 9 0 0 -193 -193 -193 0 0 0 0 0 -193 -193 -193 0 -209 -193 -209 10 -209 -193 -193 -193 -209 -209 -209 -193 -177 -193 -193 -177 0 -193 -193 -193 133 133 132 132 133 -209 13 12 12 12 -193 13 11 11 11 9 10 10 10 10 0 9 0 0 0 0 0 0 0 0 0 10 12 0 0 0 10 9 9 10 10 9 13 12 14 12 13 13 13 14 15 11 12 11 12 12 12 13 12 12 15 16 14 15 15 15 14 15 16 15 13 14 16 20 23 22 21 22 20 20 20 19 19 17 18 19 14 20 23 23 22 21 22 22 21 19 18 21 24 24 24 24 25 26 28 28 27 24 25 24 25 26 26 26 28 29 29 29 30 30 30 30 31 30 28 28 29 28 29 28 29 30 29 31 31 29 30 30 31 29 28 30 31 31 34 34 37 38 40 41 0 0 0 0 0
    0 0 0 0 0 0 0 0 0 0 0 0 0 0 0 0 0 0 0 0 0 0 0 0 0 0 0 0 0 0 0 0 0 0 0 0 0 0 0 0 0 0 0 0 0 0 0 0 0 0 0 0 0 0 0 0 0 0 0 0 0 0 0 0 0 0 0 0 0 10 12 10 10 9 9 10 10 9 0 0 9 0 0 0 0 0 0 0 0 0 0 0 0 0 0 0 0 0 10 10 12 10 10 9 0 0 0 0 0 0 0 0 0 0 0 0 0 0 0 0 0 0 0 10 10 0 0 0 8 0 9 0 0 -193 -193 -193 0 0 0 0 0 -193 -193 -193 0 -209 -193 -209 -193 -209 -209 -209 -193 -209 -209 -209 -209 -193 -193 -193 -177 0 -193 -193 -193 133 133 132 132 133 -209 -193 -193 12 12 -193 -193 -193 11 11 9 10 10 10 10 0 10 10 10 10 10 9 10 9 0 9 10 11 0 0 0 9 0 9 10 9 0 13 12 14 12 13 13 13 14 14 11 13 11 12 12 13 13 13 12 15 16 14 15 15 15 14 15 16 15 13 14 18 20 22 21 20 22 20 19 19 19 19 17 18 19 13 19 22 22 22 20 22 21 21 19 18 21 25 25 25 25 25 26 29 28 28 24 25 24 25 26 26 25 27 28 28 28 30 29 29 30 30 29 27 27 28 28 29 28 29 30 29 32 31 29 30 30 31 29 28 30 30 30 33 33 37 38 41 42 0 0 0 0 0
    0 0 0 0 0 0 0 0 0 0 0 0 0 0 0 0 0 0 0 0 0 0 0 0 0 0 0 0 0 0 0 0 0 0 0 0 0 0 0 0 0 0 0 0 0 0 0 0 0 0 0 0 0 0 0 0 0 0 0 0 0 0 0 0 0 0 0 0 0 9 11 10 10 9 9 11 10 9 9 0 9 0 0 0 0 0 0 0 0 0 0 0 0 0 0 0 0 9 10 10 12 10 10 9 9 9 0 0 9 0 0 0 0 0 0 0 0 0 0 0 0 0 0 10 10 0 0 0 0 0 9 0 0 -193 -193 -193 0 0 0 0 0 -193 -193 -193 -193 -209 -193 -209 -193 -209 -209 -209 -209 -209 -209 -209 -193 -193 -193 -177 -177 0 0 -193 -193 133 133 132 132 133 -209 -209 -193 -209 -193 -209 13 11 11 12 9 11 11 11 11 9 10 11 11 10 11 10 11 10 9 9 9 10 0 0 0 0 0 9 9 9 0 13 11 14 12 12 12 12 13 14 11 13 11 12 13 13 13 13 12 16 15 14 15 15 14 15 14 16 14 14 17 20 21 23 21 20 22 20 19 19 19 18 17 18 19 13 19 22 22 21 20 21 21 21 19 18 21 25 25 25 25 25 26 29 29 29 24 25 24 25 26 27 26 27 28 29 28 30 29 29 29 29 29 27 26 28 27 28 28 28 30 30 33 32 30 32 31 32 30 29 30 29 29 31 33 37 38 42 43 0 0 0 0 0
    0 0 0 0 0 0 0 0 0 0 0 0 0 0 0 0 0 0 0 0 0 0 0 0 0 0 0 0 0 0 0 0 0 0 0 0 0 0 0 0 0 0 0 0 0 0 0 0 0 0 0 0 0 0 0 0 0 0 0 0 0 0 0 0 0 0 0 0 0 0 9 9 9 9 9 11 10 9 9 0 9 0 0 0 0 0 0 0 0 0 0 0 0 0 0 0 0 10 11 10 12 11 11 10 9 9 0 0 9 0 0 0 0 0 0 0 0 0 0 0 0 0 0 9 9 0 0 0 0 0 9 0 0 -193 -193 -193 0 0 0 0 0 -193 -193 0 -193 -209 -193 -177 -193 -193 -209 -209 -209 -209 -209 -209 -209 -193 -193 -177 -177 0 0 -193 -193 -193 133 132 132 -193 -193 -209 -209 -193 -193 -193 13 -193 11 12 9 11 11 11 11 9 11 11 11 11 11 10 12 11 0 0 0 9 0 0 0 0 0 0 9 9 0 13 11 13 11 12 12 12 13 13 11 13 11 12 13 14 14 14 13 17 15 15 15 15 14 15 14 16 13 14 18 21 21 22 21 20 22 20 19 19 18 18 17 19 19 13 19 22 22 21 20 21 21 21 19 18 21 25 24 25 25 25 26 29 29 29 24 26 24 26 27 27 27 27 29 29 28 29 28 28 28 27 28 26 25 27 26 27 27 27 30 30 34 34 31 33 32 33 30 29 30 30 30 32 34 38 39 42 44 0 0 0 0 0
    0 0 0 0 0 0 0 0 0 0 0 0 0 0 0 0 0 0 0 0 0 0 0 0 0 0 0 0 0 0 0 0 0 0 0 0 0 0 0 0 0 0 0 0 0 0 0 0 0 0 0 0 0 0 0 0 0 0 0 0 0 0 0 0 0 0 0 0 0 0 9 10 10 10 9 11 10 10 9 0 9 0 0 0 0 0 0 0 0 0 0 0 0 0 0 0 0 10 11 10 13 12 12 11 10 10 9 0 9 0 0 0 0 0 0 0 0 0 0 0 0 0 0 9 0 0 0 0 0 0 9 0 0 -193 -193 -193 0 0 0 0 0 -193 -193 0 0 -209 9 -193 -209 -209 -209 135 -209 -193 -209 -193 -193 -193 -193 0 0 0 0 -193 -193 -193 -209 -193 -193 -209 -193 -193 -209 -193 -193 -193 -193 -193 11 12 9 11 11 11 11 10 11 11 11 11 11 10 12 12 9 9 0 9 0 0 0 0 0 0 0 0 0 12 11 13 11 12 12 12 13 13 11 13 11 12 13 14 14 14 13 17 15 14 15 15 14 15 14 16 13 15 18 21 22 22 20 20 22 19 19 18 18 18 17 19 19 14 19 21 21 21 19 20 20 21 18 18 21 24 24 24 24 25 25 29 29 28 25 26 25 26 27 28 27 27 28 29 28 28 28 27 27 26 27 26 24 26 26 26 27 27 30 31 34 35 32 33 33 33 31 30 30 31 30 33 35 38 39 42 44 0 0 0 0 0
    0 0 0 0 0 0 0 0 0 0 0 0 0 0 0 0 0 0 0 0 0 0 0 0 0 0 0 0 0 0 0 0 0 0 0 0 0 0 0 0 0 0 0 0 0 0 0 0 0 0 0 0 0 0 0 0 0 0 0 0 0 0 0 0 0 0 0 0 0 0 9 9 9 10 10 12 11 10 9 9 10 0 0 0 0 0 0 0 0 0 0 0 0 0 0 0 0 10 12 10 13 12 13 12 11 11 10 9 9 0 0 0 0 0 0 0 -177 -177 0 0 0 0 0 0 0 0 0 0 0 0 0 0 0 0 0 0 0 0 0 0 0 -193 -193 -193 -193 -209 10 -209 9 -209 -209 -209 -209 -209 -209 -193 -193 -193 -193 0 0 0 0 0 0 -193 -209 -209 -209 -209 -209 13 -193 -193 930 931 -193 -193 11 12 9 11 11 12 11 10 11 11 11 11 11 10 12 12 9 0 0 0 0 0 0 0 0 0 0 0 0 11 10 13 11 12 12 12 12 13 11 13 11 12 13 14 14 15 13 17 15 15 15 15 14 15 13 16 12 14 20 22 22 22 20 20 22 19 19 18 18 18 18 19 19 14 19 21 21 20 18 19 20 21 17 17 20 24 23 24 24 24 24 28 28 28 25 26 25 26 27 28 27 27 28 28 27 28 27 27 27 25 26 25 23 25 25 26 26 26 30 31 35 35 32 34 34 34 32 30 31 32 31 34 35 38 40 42 44 0 0 0 0 0
    0 0 0 0 0 0 0 0 0 0 0 0 0 0 0 0 0 0 0 0 0 0 0 0 0 0 0 0 0 0 0 0 0 0 0 0 0 0 0 0 0 0 0 0 0 0 0 0 0 0 0 0 0 0 0 0 0 0 0 0 0 0 0 0 0 0 0 0 0 0 0 8 0 9 9 12 11 10 9 9 10 0 0 0 0 0 0 0 0 0 0 0 0 0 0 0 0 10 11 10 12 12 12 12 11 11 10 9 9 0 0 0 0 0 0 0 -177 -177 -177 -177 0 0 0 0 0 0 0 0 0 0 0 0 0 0 0 0 0 0 0 0 0 -193 -193 -209 -209 -209 11 10 11 -193 -209 -209 10 -193 -193 -209 0 0 0 0 0 0 0 0 0 -193 -209 266 -193 -193 -193 14 11 -193 930 930 930 929 11 12 9 11 11 12 12 11 11 12 12 11 11 11 13 13 0 0 0 0 0 0 0 0 0 0 0 0 0 10 10 12 10 11 11 12 12 13 11 14 12 13 13 15 15 17 14 17 15 15 15 15 14 15 13 17 12 14 20 22 22 21 20 20 22 19 19 18 18 18 18 19 19 14 19 21 21 20 18 19 20 21 17 17 20 23 23 23 23 23 24 27 28 28 24 27 26 27 27 28 27 27 28 28 27 28 27 27 26 25 26 25 23 26 26 26 26 26 30 31 34 35 32 -193 34 34 33 31 32 33 32 35 36 38 40 43 44 0 0 0 0 0
    0 0 0 0 0 0 0 0 0 0 0 0 0 0 0 0 0 0 0 0 0 0 0 0 0 0 0 0 0 0 0 0 0 0 0 0 0 0 0 0 0 0 0 0 0 0 0 0 0 0 0 0 0 0 0 0 0 0 0 0 0 0 0 0 0 0 0 0 0 0 0 0 9 0 9 11 10 9 0 0 9 0 0 0 0 0 0 0 0 0 0 0 0 0 0 0 0 9 10 0 11 11 12 11 11 11 9 9 9 0 0 0 0 0 0 0 -177 -177 -177 -177 0 0 0 9 9 0 0 0 0 0 0 0 0 0 0 0 0 0 0 0 0 -193 -193 -209 -209 -209 -209 -209 12 -193 -193 11 11 -193 -193 -209 -193 -193 0 0 0 0 0 0 0 0 -193 268 -193 -193 0 16 11 12 929 930 930 929 11 12 9 10 10 12 12 11 11 12 12 11 11 11 12 13 0 0 0 0 0 0 0 0 0 0 0 0 0 9 9 11 9 11 10 11 11 12 12 14 13 14 14 17 17 18 14 18 15 15 15 15 14 14 13 16 11 14 21 22 22 20 20 20 22 19 18 18 18 18 19 19 19 14 20 21 21 20 18 20 20 21 17 16 20 23 22 23 23 23 23 27 27 28 23 26 25 26 27 28 27 27 27 28 27 28 27 27 27 25 26 26 24 26 26 26 26 26 29 30 33 35 32 -193 -193 34 32 32 32 33 32 35 36 37 40 42 43 0 0 0 0 0
    0 0 0 0 0 0 0 0 0 0 0 0 0 0 0 0 0 0 0 0 0 0 0 0 0 0 0 0 0 0 0 0 0 0 0 0 0 0 0 0 0 0 0 0 0 0 0 0 0 0 0 0 0 0 0 0 0 0 0 0 0 0 0 0 0 0 0 0 0 0 0 9 10 9 10 11 10 0 0 0 0 0 0 0 0 0 0 0 0 0 0 0 0 0 0 0 0 0 9 0 11 10 11 11 10 10 0 0 0 0 0 0 0 0 0 0 -177 -177 -177 -177 0 0 0 10 10 0 0 0 0 0 0 0 0 0 0 0 0 0 0 0 0 0 -209 0 -209 -209 -209 -209 -193 10 9 -209 -193 -193 -193 -209 -209 -209 9 9 0 9 9 0 0 0 -193 -193 -209 -209 -193 -209 11 12 930 930 930 929 11 12 9 10 10 11 12 11 11 11 11 11 10 10 11 12 0 0 0 0 0 0 0 0 0 0 0 0 0 9 0 9 9 10 9 10 10 11 12 14 14 14 15 17 18 18 15 18 15 15 15 15 15 14 13 17 10 16 23 23 22 20 19 19 22 19 18 18 17 18 19 19 19 14 19 20 20 19 17 19 20 21 17 16 19 -193 22 22 22 22 22 26 27 27 22 26 24 26 26 28 27 28 27 28 27 28 27 27 27 25 26 26 25 27 27 27 27 26 29 29 32 34 31 -193 -193 33 32 31 31 33 31 34 35 37 39 42 42 0 0 0 0 0
    0 0 0 0 0 0 0 0 0 0 0 0 0 0 0 0 0 0 0 0 0 0 0 0 0 0 0 0 0 0 0 0 0 0 0 0 0 0 0 0 0 0 0 0 0 0 0 0 0 0 0 0 0 0 0 0 0 0 0 0 0 0 0 0 0 0 0 0 0 0 0 9 10 10 10 10 10 0 0 0 0 0 0 0 0 0 0 0 0 0 0 0 0 0 0 0 0 0 0 0 10 10 11 10 10 10 0 0 0 0 0 0 0 0 0 0 -177 -177 -177 -177 0 0 0 10 10 0 0 9 0 0 0 0 0 0 0 0 0 0 0 0 0 0 -193 0 -209 -209 -209 -209 -193 9 0 -209 -193 -193 -193 -193 -193 -193 -193 -193 0 9 -193 0 0 0 -193 -209 -209 -193 -193 -209 11 -193 930 930 931 930 11 11 0 9 9 11 11 10 10 10 10 9 9 9 9 11 0 0 0 0 0 0 0 0 0 0 0 0 0 0 0 8 0 9 0 9 9 11 13 13 14 14 14 17 19 18 15 19 15 15 15 15 15 14 14 18 11 23 26 25 23 22 22 22 23 20 19 18 18 18 19 19 19 13 19 19 19 18 15 18 19 20 16 16 19 -193 21 21 21 21 21 25 26 27 21 26 24 26 26 28 28 28 27 28 27 27 27 27 27 26 27 26 26 27 28 28 28 28 29 30 -193 -193 -193 -177 -193 -193 31 30 31 32 31 34 35 36 38 41 41 0 0 0 0 0
    0 0 0 0 0 0 0 0 0 0 0 0 0 0 0 0 0 0 0 0 0 0 0 0 0 0 0 0 0 0 0 0 0 0 0 0 0 0 0 0 0 0 0 0 0 0 0 0 0 0 0 0 0 0 0 0 0 0 0 0 0 0 0 0 0 0 0 0 0 0 0 0 9 9 9 9 9 0 0 0 0 0 0 0 0 0 0 0 0 0 0 0 0 0 0 0 0 0 0 0 10 10 10 10 10 10 0 0 0 0 0 0 0 0 0 0 0 -177 -177 -177 0 0 0 10 10 0 0 10 0 0 0 9 0 9 9 9 0 9 9 0 0 0 0 0 -209 -209 -209 -209 -193 9 0 -193 -193 -193 -193 -193 -193 -193 -193 -193 -193 -193 -193 0 0 0 -193 -209 -209 -193 -193 -193 11 11 -193 931 931 931 10 11 0 9 0 10 11 9 10 9 9 0 0 0 0 10 0 0 0 0 0 0 0 0 0 0 0 0 0 0 0 0 0 9 0 10 10 13 13 13 15 14 14 17 18 18 14 19 15 15 15 15 15 15 15 19 13 26 29 31 27 25 25 25 24 21 20 19 19 19 19 19 19 13 19 19 18 17 14 17 18 20 16 16 18 -193 21 21 20 20 19 23 24 25 16 26 24 27 26 28 28 28 27 28 27 28 27 27 27 27 27 27 26 28 29 28 29 27 29 30 -193 -193 30 -177 -193 31 30 30 31 32 31 34 35 35 38 40 40 0 0 0 0 0
    0 0 0 0 0 0 0 0 0 0 0 0 0 0 0 0 0 0 0 0 0 0 0 0 0 0 0 0 0 0 0 0 0 0 0 0 0 0 0 0 0 0 0 0 0 0 0 0 0 0 0 0 0 0 0 0 0 0 0 0 0 0 0 0 0 0 0 0 0 0 0 9 9 9 9 9 9 0 0 0 9 0 0 0 0 0 0 0 0 0 0 0 0 0 0 0 0 0 0 0 11 10 10 10 10 10 0 0 0 0 0 0 0 0 0 0 0 -177 -177 -177 0 0 0 10 11 0 0 11 0 0 9 9 0 9 9 9 0 9 9 0 0 9 0 0 10 -193 -193 0 0 9 9 17 11 -193 -193 -193 -193 -193 -193 -193 -193 -193 -193 0 9 9 8 0 -193 -209 -193 19 12 12 -193 930 931 931 10 11 0 9 0 10 10 9 9 9 9 0 0 0 0 9 0 0 0 0 0 0 0 0 0 0 0 0 0 0 0 0 0 9 9 10 10 14 13 13 14 14 14 16 18 17 14 19 15 15 15 15 15 15 16 20 15 27 31 32 29 28 27 26 25 22 20 20 19 20 19 19 19 13 19 19 19 17 14 17 17 20 16 16 18 21 20 20 19 19 17 22 22 23 12 26 24 27 26 28 28 28 27 28 27 27 27 27 28 27 27 28 27 28 29 28 29 27 29 30 -193 -193 30 -193 -193 30 30 29 31 32 31 34 34 35 37 40 39 0 0 0 0 0
    0 0 0 0 0 0 0 0 0 0 0 0 0 0 0 0 0 0 0 0 0 0 0 0 0 0 0 0 0 0 0 0 0 0 0 0 0 0 0 0 0 0 0 0 0 0 0 0 0 0 0 0 0 0 0 0 0 0 0 0 0 0 0 0 0 0 0 0 0 0 9 9 9 10 9 9 9 9 9 0 9 0 0 0 0 0 0 0 0 0 0 0 0 0 0 0 0 0 0 0 10 10 9 10 10 10 0 0 0 0 0 0 0 0 0 0 0 -177 -177 0 0 0 0 10 11 9 0 12 0 0 10 10 9 9 9 9 0 9 9 0 0 9 9 0 11 -193 -209 -193 0 9 -193 17 11 -193 -193 -193 -193 -193 -193 389 -193 -193 -193 0 9 9 9 0 -209 -209 -209 19 12 12 -193 930 931 -193 10 11 0 0 0 10 10 9 9 9 9 0 0 0 0 9 0 0 0 0 0 0 0 0 0 9 0 0 0 0 0 9 0 9 9 10 10 14 13 13 14 14 13 16 17 16 13 19 15 15 15 15 15 15 17 20 16 28 32 34 30 31 28 28 27 23 21 21 20 20 18 19 19 13 19 20 19 17 14 17 17 19 15 15 17 21 20 20 19 19 17 21 22 23 11 25 24 26 26 28 28 28 26 28 27 27 27 28 28 27 27 28 27 28 29 29 29 27 29 29 -193 -193 29 -193 -193 29 29 29 30 31 30 33 32 -193 36 39 38 0 0 0 0 0
    0 0 0 0 0 0 0 0 0 0 0 0 0 0 0 0 0 0 0 0 0 0 0 0 0 0 0 0 0 0 0 0 0 0 0 0 0 0 0 0 0 0 0 0 0 0 0 0 0 0 0 0 0 0 0 0 0 0 0 0 0 0 0 0 0 0 0 0 0 0 9 9 9 9 9 9 9 9 9 9 9 9 0 0 0 0 0 0 0 0 0 0 0 0 0 0 0 0 0 0 10 0 0 9 9 9 0 0 0 0 0 0 0 0 0 0 0 -193 0 -193 0 0 0 10 12 9 0 12 0 0 10 10 -177 -177 -177 -177 0 9 9 0 0 9 9 0 -225 0 -193 -193 0 9 11 -193 11 -193 13 390 389 390 389 389 -193 389 -193 0 0 0 0 0 -209 -193 -209 -193 12 12 10 -193 -193 -193 10 11 0 9 0 10 10 0 9 9 9 0 0 0 0 9 0 0 0 0 0 0 0 0 0 0 0 0 0 0 0 9 9 10 9 10 11 15 13 13 14 14 14 16 17 16 13 19 15 15 15 15 15 15 18 20 17 28 32 34 31 32 29 28 28 23 22 21 20 20 18 19 19 14 19 21 21 19 16 19 19 20 16 16 18 21 20 20 19 19 17 22 22 23 11 26 26 27 27 29 28 28 26 28 27 27 27 28 28 27 28 29 27 28 29 29 29 28 29 30 29 31 30 -193 31 29 29 29 30 30 30 32 31 -193 35 38 38 0 0 0 0 0
    0 0 0 0 0 0 0 0 0 0 0 0 0 0 0 0 0 0 0 0 0 0 0 0 0 0 0 0 0 0 0 0 0 0 0 0 0 0 0 0 0 0 0 0 0 0 0 0 0 0 0 0 0 0 0 0 0 0 0 0 0 0 0 0 0 0 0 0 0 0 9 9 9 9 9 10 10 9 9 9 9 9 0 0 0 0 0 0 0 0 0 0 0 0 0 0 0 0 0 0 9 0 0 0 0 0 0 0 0 0 0 0 0 0 0 0 0 -193 -193 -193 0 0 0 10 12 9 0 11 0 0 10 10 9 -177 -177 -177 9 9 10 9 9 10 10 10 -225 -225 10 0 0 9 11 -193 11 10 13 -193 389 389 389 389 -193 389 -193 0 0 0 0 0 -209 -209 -209 -193 13 12 11 -193 -193 -193 10 11 0 9 -193 10 10 9 9 9 9 0 0 9 0 9 0 0 0 8 0 0 0 0 0 0 0 0 0 9 9 10 10 11 10 11 12 16 13 14 13 14 14 16 17 15 12 19 15 15 15 15 15 15 20 21 19 28 33 34 31 32 29 29 28 24 22 22 21 21 18 19 19 14 19 21 21 20 17 20 20 21 17 17 19 21 20 20 20 19 18 22 23 24 14 27 27 28 28 30 29 28 26 28 26 27 27 28 28 27 28 29 27 28 29 29 29 28 29 30 29 30 30 29 31 29 28 28 30 29 29 31 30 -193 34 37 37 0 0 0 0 0
    0 0 0 0 0 0 0 0 0 0 0 0 0 0 0 0 0 0 0 0 0 0 0 0 0 0 0 0 0 0 0 0 0 0 0 0 0 0 0 0 0 0 0 0 0 0 0 0 0 0 0 0 0 0 0 0 0 0 0 0 0 0 0 0 0 0 0 0 0 0 10 9 9 10 9 10 10 9 10 9 10 10 9 0 0 0 0 0 0 0 0 0 0 0 0 0 0 0 0 0 10 0 0 0 0 0 0 0 0 0 0 0 0 0 0 0 0 -193 -193 -193 0 0 0 10 11 9 0 11 0 0 11 11 9 9 -177 -177 9 10 10 9 9 11 11 10 11 9 9 0 0 10 10 -193 11 10 14 -193 -193 389 389 389 -193 -193 -193 0 0 -193 -193 -193 -209 -193 -209 -193 13 12 11 10 -193 10 10 11 0 9 -193 10 11 9 10 10 9 0 0 9 0 9 0 0 0 0 0 0 0 0 0 0 0 0 0 9 9 12 11 12 11 12 13 17 13 14 13 14 14 16 17 14 12 19 15 15 15 16 16 -193 -193 23 22 29 33 34 32 33 30 29 29 25 23 22 21 22 18 19 20 15 19 21 21 20 18 20 21 21 18 18 20 21 21 21 20 20 19 22 23 24 21 28 28 30 29 32 30 29 27 29 27 27 27 27 27 27 27 28 27 28 29 28 28 28 29 30 29 30 29 29 30 29 28 28 29 29 28 30 29 30 33 37 36 0 0 0 0 0
    0 0 0 0 0 0 0 0 0 0 0 0 0 0 0 0 0 0 0 0 0 0 0 0 0 0 0 0 0 0 0 0 0 0 0 0 0 0 0 0 0 0 0 0 0 0 0 0 0 0 0 0 0 0 0 0 0 0 0 0 0 0 0 0 0 0 0 0 0 0 9 9 9 11 10 10 10 10 10 9 10 10 9 0 0 0 0 0 0 0 0 0 0 0 0 0 0 0 0 0 10 9 0 0 0 8 0 0 0 0 0 0 0 0 0 0 0 -193 0 0 0 0 0 10 11 9 0 10 0 0 10 11 9 9 9 9 9 10 10 9 9 11 11 10 10 0 0 0 0 0 0 -193 10 9 13 -193 -193 388 -193 -193 -193 -193 -193 0 0 -193 -193 -193 -209 -193 -209 -193 13 13 11 11 12 10 10 11 0 9 -193 10 11 9 9 9 9 0 0 9 0 9 0 0 0 0 0 0 0 0 0 0 0 0 0 10 10 13 12 12 11 13 14 18 13 14 13 14 14 16 17 14 11 19 15 15 15 16 16 -193 -193 24 24 29 32 33 31 33 30 30 29 25 -193 22 22 22 18 19 20 15 18 21 21 19 17 19 20 21 18 18 20 21 21 21 20 20 19 22 23 23 21 27 28 29 29 32 30 29 27 29 27 27 27 27 26 26 26 28 26 27 27 27 28 28 29 29 28 29 29 29 30 28 28 28 29 29 28 30 30 30 32 37 36 0 0 0 0 0
    0 0 0 0 0 0 0 0 0 0 0 0 0 0 0 0 0 0 0 0 0 0 0 0 0 0 0 0 0 0 0 0 0 0 0 0 0 0 0 0 0 0 0 0 0 0 0 0 0 0 0 0 0 0 0 0 0 0 0 0 0 0 0 0 0 0 0 0 0 0 0 0 0 10 9 10 10 10 10 9 10 10 9 0 0 0 0 0 0 0 0 0 0 0 0 0 0 0 0 0 11 9 0 0 0 9 0 0 0 0 0 0 0 0 0 0 0 0 0 0 0 0 0 10 11 9 0 10 0 0 10 10 0 0 0 0 9 9 9 9 8 11 10 10 9 0 0 0 0 0 0 -193 0 9 11 0 0 -193 0 0 0 0 0 0 0 -193 0 -193 -193 -209 -209 -193 13 13 12 11 12 11 10 11 0 9 -193 10 11 9 10 10 9 9 0 10 9 10 0 0 0 9 0 0 0 0 0 0 0 0 0 11 10 14 12 13 12 13 14 18 13 14 13 15 15 16 17 14 11 19 15 14 15 16 16 -177 -193 24 24 29 33 33 31 33 30 30 29 -193 -193 -193 21 22 18 19 20 15 18 21 21 20 17 18 20 21 19 19 21 21 21 21 21 20 19 21 22 21 20 27 27 29 29 32 30 29 27 29 27 27 26 26 25 25 26 28 26 26 27 27 27 28 28 29 28 29 29 29 30 29 28 28 29 29 28 30 30 29 33 37 37 0 0 0 0 0
    0 0 0 0 0 0 0 0 0 0 0 0 0 0 0 0 0 0 0 0 0 0 0 0 0 0 0 0 0 0 0 0 0 0 0 0 0 0 0 0 0 0 0 0 0 0 0 0 0 0 0 0 0 0 0 0 0 0 0 0 0 0 0 0 0 0 0 0 0 0 0 0 0 10 9 10 10 10 10 9 10 10 9 0 0 0 0 0 0 0 0 0 0 0 0 0 0 0 0 0 11 0 0 0 0 9 0 0 0 0 0 0 0 0 0 0 0 0 0 0 0 0 0 10 11 9 9 10 0 0 10 9 0 0 0 0 0 9 9 0 0 10 10 9 0 0 0 0 0 0 0 0 0 0 10 0 0 0 0 0 0 0 0 0 0 0 0 -193 -193 -209 -193 -193 14 13 12 11 12 11 11 11 0 9 9 10 11 9 10 10 9 9 9 10 9 10 0 0 0 0 0 0 0 0 0 0 0 0 0 12 11 14 12 13 12 14 14 18 13 15 13 16 16 17 17 15 11 20 15 14 15 16 16 -193 23 23 24 29 32 32 31 33 29 29 28 24 22 21 21 21 18 20 20 15 19 22 22 20 18 19 21 21 19 19 21 22 21 21 21 20 19 21 22 20 18 26 27 29 29 32 31 28 27 29 27 27 27 26 25 25 26 27 25 25 26 -193 26 27 28 28 28 28 29 29 30 29 28 28 30 29 28 30 29 29 32 36 37 0 0 0 0 0
    0 0 0 0 0 0 0 0 0 0 0 0 0 0 0 0 0 0 0 0 0 0 0 0 0 0 0 0 0 0 0 0 0 0 0 0 0 0 0 0 0 0 0 0 0 0 0 0 0 0 0 0 0 0 0 0 0 0 0 0 0 0 0 0 0 0 0 0 0 0 9 9 0 10 9 11 10 10 10 9 10 10 9 0 0 0 0 0 0 0 0 0 0 0 0 0 0 0 0 0 10 0 0 0 0 9 0 0 0 0 0 0 0 0 0 0 0 0 0 0 0 0 0 10 12 10 10 10 9 0 9 0 0 0 0 0 0 0 0 0 0 9 9 9 0 0 0 0 0 0 0 0 0 0 9 0 0 0 0 0 0 0 0 0 0 0 0 -193 9 13 10 20 14 13 12 11 12 11 11 11 0 9 9 10 11 9 9 10 9 9 9 10 9 10 0 0 0 0 0 0 0 0 0 0 0 0 0 12 11 14 12 13 12 13 14 18 13 15 13 16 16 17 18 15 12 20 16 15 15 16 17 18 22 23 22 28 32 32 30 32 28 28 28 24 22 21 21 21 18 20 20 15 19 21 22 20 18 18 21 21 20 20 22 22 21 21 22 21 20 22 23 20 22 27 29 30 30 33 32 28 27 29 27 27 27 26 24 24 25 26 25 25 25 -177 -193 27 28 28 27 28 29 29 30 29 28 29 30 29 28 29 29 28 31 35 36 0 0 0 0 0
    0 0 0 0 0 0 0 0 0 0 0 0 0 0 0 0 0 0 0 0 0 0 0 0 0 0 0 0 0 0 0 0 0 0 0 0 0 0 0 0 0 0 0 0 0 0 0 0 0 0 0 0 0 0 0 0 0 0 0 0 0 0 0 0 0 0 0 0 0 10 12 10 9 12 9 11 10 10 10 9 10 11 9 0 0 0 0 0 0 0 0 0 0 0 0 0 0 0 0 0 10 0 0 0 0 8 0 0 0 0 0 0 0 0 0 0 0 0 0 0 0 0 0 9 11 9 9 0 0 0 0 0 0 0 0 0 0 0 0 0 0 9 9 9 0 0 0 0 0 0 0 0 0 0 0 0 0 0 0 0 0 0 0 0 0 0 0 -193 9 11 9 20 13 13 12 11 12 11 11 12 0 9 9 10 11 9 10 9 9 9 9 10 9 10 0 0 0 0 0 0 0 0 0 0 0 0 0 12 11 15 12 13 12 13 14 18 13 15 14 17 17 18 18 16 12 20 16 15 15 16 17 18 22 22 19 27 31 31 29 32 27 27 27 23 22 21 21 21 18 20 20 15 18 21 22 20 18 18 21 21 20 21 22 22 22 22 22 22 21 22 23 21 23 27 28 29 29 32 32 28 28 29 27 27 27 26 24 23 24 26 25 -193 -193 -177 -177 28 28 28 27 28 28 28 30 29 28 29 30 29 29 30 30 28 31 34 35 0 0 0 0 0
    0 0 0 0 0 0 0 0 0 0 0 0 0 0 0 0 0 0 0 0 0 0 0 0 0 0 0 0 0 0 0 0 0 0 0 0 0 0 0 0 0 0 0 0 0 0 0 0 0 0 0 0 0 0 0 0 0 0 0 0 0 0 0 0 0 0 0 0 0 12 13 12 10 13 10 12 10 10 10 10 10 11 9 0 0 0 0 0 0 0 0 0 0 0 0 0 0 0 0 0 10 0 0 0 0 0 0 0 0 0 0 0 0 0 0 0 0 0 0 0 0 0 0 9 10 0 0 0 0 0 0 0 0 0 0 0 0 0 0 0 0 9 9 9 0 0 0 0 0 0 0 0 0 0 0 0 0 0 0 0 0 0 0 0 9 9 0 9 9 10 9 20 13 13 12 11 12 11 11 12 0 9 9 10 11 9 10 9 0 9 0 0 0 0 0 0 0 0 0 0 0 0 0 0 0 0 0 13 11 15 13 13 12 14 14 19 13 15 15 18 18 18 19 16 12 21 16 15 15 17 17 18 22 22 17 27 31 30 29 31 27 26 27 23 22 21 21 21 18 20 20 14 18 20 21 20 18 18 22 21 21 21 22 22 22 22 23 23 23 23 24 23 25 27 29 29 29 32 32 28 27 28 27 26 27 26 24 23 24 26 25 25 25 -177 -193 28 28 28 27 28 28 28 29 28 27 29 30 29 29 30 30 28 31 33 34 0 0 0 0 0
    0 0 0 0 0 0 0 0 0 0 0 0 0 0 0 0 0 0 0 0 0 0 0 0 0 0 0 0 0 0 0 0 0 0 0 0 0 0 0 0 0 0 0 0 0 0 0 0 0 0 0 0 0 0 0 0 0 0 0 0 0 0 0 0 0 0 0 0 0 13 14 13 11 14 10 12 10 10 10 10 10 11 9 0 0 0 0 0 0 0 0 0 0 0 0 0 0 0 0 0 9 0 0 0 0 0 0 0 0 0 0 0 0 0 0 0 0 0 0 0 0 0 0 9 10 0 0 0 0 0 0 0 0 0 0 0 0 0 0 0 0 9 9 9 0 0 0 0 0 0 0 0 0 0 0 0 0 0 0 0 0 0 0 0 9 9 0 9 9 10 9 19 13 13 11 11 12 11 11 12 0 9 9 11 11 9 10 9 0 0 0 0 0 0 0 0 0 0 0 0 0 0 0 9 0 0 0 13 12 16 13 14 13 14 15 19 14 15 15 18 18 19 19 17 13 21 17 15 15 17 17 18 21 21 16 26 30 30 28 31 26 27 27 23 22 21 22 22 19 20 20 14 19 21 21 21 20 20 23 23 -193 23 -193 23 23 23 23 23 23 24 25 24 25 27 28 28 28 32 32 28 27 28 27 26 27 26 24 23 24 26 25 25 26 -193 -193 28 28 28 27 28 28 28 29 28 27 29 31 29 29 30 30 28 31 33 34 0 0 0 0 0
    0 0 0 0 0 0 0 0 0 0 0 0 0 0 0 0 0 0 0 0 0 0 0 0 0 0 0 0 0 0 0 0 0 0 0 0 0 0 0 0 0 0 0 0 0 0 0 0 0 0 0 0 0 0 0 0 0 0 0 0 0 0 0 0 0 0 0 0 0 13 14 13 12 14 11 13 10 10 10 10 10 11 9 0 0 0 0 0 0 0 0 0 0 0 0 0 0 0 0 0 9 0 0 0 0 0 0 0 0 0 0 0 0 0 0 0 0 0 0 0 0 0 0 0 0 0 0 0 0 0 0 0 0 0 0 0 0 0 0 0 0 9 9 0 0 0 0 0 0 0 0 0 0 0 0 0 0 0 0 0 0 0 0 0 0 9 0 0 9 11 9 18 13 13 11 11 12 11 11 12 0 9 9 11 11 9 9 9 0 0 0 0 0 0 0 0 0 0 0 0 0 0 0 10 9 9 0 13 12 16 14 14 13 14 15 19 14 15 16 18 19 19 19 18 13 21 17 15 16 17 17 18 20 20 14 26 29 29 27 33 27 27 27 23 22 22 22 22 19 20 20 15 20 22 22 24 23 23 26 25 25 24 24 25 24 24 24 24 24 25 25 25 25 26 28 28 28 32 32 28 27 28 27 27 28 26 24 23 25 26 25 25 26 26 26 29 28 29 27 28 29 28 29 28 27 29 31 30 30 30 30 28 30 32 33 0 0 0 0 0
    0 0 0 0 0 0 0 0 0 0 0 0 0 0 0 0 0 0 0 0 0 0 0 0 0 0 0 0 0 0 0 0 0 0 0 0 0 0 0 0 0 0 0 0 0 0 0 0 0 0 0 0 0 0 0 0 0 0 0 0 0 0 0 0 0 0 0 0 0 13 14 14 12 13 12 13 11 10 11 10 10 11 9 0 0 0 0 0 0 0 0 0 0 0 0 0 0 0 0 0 9 0 0 0 0 0 0 0 0 0 0 0 0 0 0 0 0 0 0 0 0 0 0 0 0 0 0 0 0 0 0 0 0 0 0 0 0 0 0 0 0 9 0 0 0 0 0 0 0 0 0 0 0 0 0 0 0 0 0 0 0 0 0 0 0 0 0 0 9 12 10 18 13 12 11 10 12 11 11 12 0 0 9 11 11 9 0 0 0 0 0 0 0 0 0 0 0 9 0 0 0 0 0 11 9 9 0 13 13 15 14 13 12 14 14 19 14 15 17 18 19 19 19 18 14 21 18 15 16 16 16 16 19 19 12 25 26 26 -193 -193 27 27 27 23 22 22 -193 22 19 21 21 16 22 24 24 29 26 27 29 29 26 25 25 25 24 24 24 24 25 25 26 25 26 27 29 28 28 33 33 28 28 29 27 27 28 26 25 23 25 26 25 25 26 26 26 29 28 29 27 29 29 29 30 29 28 30 32 30 30 31 30 28 30 31 31 0 0 0 0 0
    0 0 0 0 0 0 0 0 0 0 0 0 0 0 0 0 0 0 0 0 0 0 0 0 0 0 0 0 0 0 0 0 0 0 0 0 0 0 0 0 0 0 0 0 0 0 0 0 0 0 0 0 0 0 0 0 0 0 0 0 0 0 0 0 0 0 0 0 0 14 14 14 13 13 12 13 11 10 10 10 10 11 9 0 0 0 0 0 0 0 0 0 0 0 0 0 0 0 0 0 0 0 0 0 0 0 0 0 0 0 0 0 0 0 0 0 0 0 0 0 0 0 0 0 0 0 0 0 0 0 0 0 0 0 0 0 0 0 0 0 0 9 0 0 0 0 0 0 0 0 0 0 0 0 0 0 0 0 0 0 0 0 0 0 0 0 0 0 0 12 10 17 12 12 10 10 12 11 10 11 0 0 0 11 11 9 0 0 0 0 0 0 0 0 0 0 0 9 0 0 0 0 0 13 11 11 9 13 14 15 14 14 12 14 14 19 15 15 18 18 19 19 20 18 14 22 18 15 16 15 15 14 17 17 11 22 22 22 -193 -193 26 26 27 23 22 21 -193 -193 20 21 21 16 24 26 27 32 28 30 32 32 27 27 26 26 24 24 24 25 25 26 26 26 27 29 33 33 34 38 37 31 30 31 28 28 28 28 25 24 26 28 26 27 28 28 28 31 30 30 29 30 30 30 31 30 28 30 32 30 30 31 29 28 29 30 30 0 0 0 0 0
    0 0 0 0 0 0 0 0 0 0 0 0 0 0 0 0 0 0 0 0 0 0 0 0 0 0 0 0 0 0 0 0 0 0 0 0 0 0 0 0 0 0 0 0 0 0 0 0 0 0 0 0 0 0 0 0 0 0 0 0 0 0 0 0 0 0 0 0 0 15 15 15 14 14 13 14 11 10 11 11 10 10 9 0 0 0 0 0 0 0 0 0 0 0 0 0 0 0 0 0 0 0 0 0 0 0 0 0 0 0 0 0 0 0 0 0 0 0 0 0 0 0 0 0 0 0 0 0 9 0 0 0 0 0 0 0 0 0 0 0 9 9 0 0 0 0 0 0 0 0 0 0 0 0 0 0 0 0 0 0 0 0 0 0 0 0 0 0 0 13 11 16 12 12 10 10 12 11 10 11 0 0 0 11 11 0 0 0 0 0 0 0 0 0 0 0 0 9 0 0 0 0 0 14 12 11 10 13 15 14 14 13 12 12 13 19 15 14 18 17 19 19 19 18 14 21 18 15 16 15 14 14 17 17 11 22 21 21 -193 -193 26 26 27 23 21 21 -193 -193 19 20 21 17 25 27 27 32 29 31 33 33 28 27 27 26 24 24 24 24 25 26 27 27 29 32 37 38 39 40 39 36 34 35 30 29 29 29 27 26 28 30 28 30 30 30 30 33 31 32 30 31 31 31 33 31 29 32 32 31 31 32 29 28 30 29 29 0 0 0 0 0
    0 0 0 0 0 0 0 0 0 0 0 0 0 0 0 0 0 0 0 0 0 0 0 0 0 0 0 0 0 0 0 0 0 0 0 0 0 0 0 0 0 0 0 0 0 0 0 0 0 0 0 0 0 0 0 0 0 0 0 0 0 0 0 0 0 0 0 0 0 16 15 16 14 15 14 14 12 11 11 11 11 11 9 0 0 0 0 0 0 0 0 0 0 0 0 0 0 0 0 0 9 0 0 0 0 0 0 0 0 0 0 0 0 0 0 0 0 0 0 0 0 0 0 0 0 0 0 0 0 0 0 0 0 0 9 0 0 0 0 0 9 9 0 0 0 0 0 0 0 0 0 0 0 0 0 0 0 0 0 0 0 0 0 0 0 0 0 0 0 13 11 16 12 12 10 10 12 11 10 11 0 9 0 11 12 0 0 0 0 0 0 0 0 0 0 0 0 0 0 0 0 0 0 15 13 13 11 13 16 14 15 14 12 13 13 19 15 14 18 17 19 19 19 18 14 21 18 15 16 14 14 15 17 17 12 23 22 22 -193 -193 26 26 27 22 20 21 -193 -193 20 21 21 19 25 29 30 34 30 32 34 35 28 27 27 26 23 23 23 23 25 26 28 28 30 35 38 39 40 42 40 38 36 38 32 31 31 31 29 29 33 34 32 35 35 34 34 35 34 34 33 34 32 33 35 32 32 34 34 33 32 34 30 29 32 31 30 0 0 0 0 0
    0 0 0 0 0 0 0 0 0 0 0 0 0 0 0 0 0 0 0 0 0 0 0 0 0 0 0 0 0 0 0 0 0 0 0 0 0 0 0 0 0 0 0 0 0 0 0 0 0 0 0 0 0 0 0 0 0 0 0 0 0 0 0 0 0 0 0 0 0 15 15 15 14 15 14 15 13 11 12 12 11 12 10 0 0 0 0 0 0 0 0 0 0 0 0 0 0 0 0 0 9 0 0 0 0 0 0 0 0 0 0 0 0 0 0 0 0 0 0 0 0 0 0 0 0 0 0 0 0 0 0 0 0 0 9 0 0 0 0 0 9 9 0 0 0 0 0 0 0 0 0 0 0 0 0 0 0 0 0 0 0 0 0 0 0 0 0 0 0 12 10 15 11 11 10 10 11 11 10 11 0 9 9 12 12 0 0 0 0 0 0 0 0 0 0 0 0 0 0 0 0 0 0 16 13 14 12 13 16 15 15 15 12 14 13 19 15 14 18 17 19 19 19 17 14 21 17 14 16 14 14 15 17 17 12 23 22 22 -193 -193 -193 25 26 23 20 20 -193 -193 21 22 22 -193 26 32 33 36 32 34 36 37 29 28 27 27 23 23 23 23 25 27 28 30 31 35 39 40 41 42 41 40 38 40 35 35 33 32 31 34 36 37 35 38 38 37 38 38 36 36 36 36 34 34 36 34 34 36 35 33 33 36 32 31 34 33 32 0 0 0 0 0
    0 0 0 0 0 0 0 0 0 0 0 0 0 0 0 0 0 0 0 0 0 0 0 0 0 0 0 0 0 0 0 0 0 0 0 0 0 0 0 0 0 0 0 0 0 0 0 0 0 0 0 0 0 0 0 0 0 0 0 0 0 0 0 0 0 0 0 0 0 15 15 15 14 15 14 15 13 12 13 13 12 12 10 0 0 0 0 0 0 0 0 0 0 0 0 0 0 0 0 0 9 0 0 0 0 0 0 0 0 0 0 0 0 0 0 0 0 0 0 0 0 0 0 0 0 0 0 0 0 0 9 0 0 9 9 0 0 0 0 0 9 9 0 0 0 0 0 0 0 0 0 0 0 0 0 0 0 0 0 0 0 0 0 0 0 0 0 0 0 11 9 13 11 11 9 9 11 10 10 11 0 9 8 12 12 0 0 0 0 0 0 0 0 0 0 0 0 0 0 0 0 0 -177 17 14 14 12 14 17 15 16 15 13 14 13 19 15 14 18 16 19 19 18 17 14 21 17 14 16 14 15 15 18 18 13 24 23 23 24 27 26 26 27 24 21 21 -193 -193 22 23 23 -193 -193 34 35 37 34 36 37 38 31 28 28 28 24 24 24 23 26 28 31 33 34 38 40 42 42 43 42 43 40 41 37 37 35 34 34 37 38 38 37 40 40 39 40 39 38 38 38 37 35 36 38 36 36 37 36 35 35 39 37 35 37 36 36 0 0 0 0 0
    0 0 0 0 0 0 0 0 0 0 0 0 0 0 0 0 0 0 0 0 0 0 0 0 0 0 0 0 0 0 0 0 0 0 0 0 0 0 0 0 0 0 0 0 0 0 0 0 0 0 0 0 0 0 0 0 0 0 0 0 0 0 0 0 0 0 0 0 0 14 14 15 14 14 14 15 14 13 13 13 12 13 11 0 0 0 0 0 0 0 0 0 0 0 0 0 0 0 0 0 9 0 0 0 0 0 0 0 0 0 0 0 0 0 0 0 0 0 0 0 0 0 0 0 0 0 0 0 0 0 10 0 0 9 9 0 0 0 -193 0 9 9 0 0 0 9 0 0 0 0 0 0 0 0 0 0 0 0 0 0 0 0 0 0 0 0 0 0 0 10 9 13 11 11 9 9 11 10 9 11 0 0 0 11 11 0 0 0 0 0 0 0 0 0 0 0 0 0 0 0 0 9 9 18 14 15 13 14 17 15 16 15 13 14 13 19 16 14 18 16 19 18 18 17 14 20 17 14 16 14 15 15 18 18 14 25 24 24 25 28 27 27 28 26 22 23 -193 -193 23 24 24 27 29 34 36 37 35 36 38 38 32 29 30 30 25 24 25 24 27 31 34 37 36 40 42 44 43 44 43 44 42 43 39 39 36 36 38 40 40 40 39 42 42 41 42 40 40 39 40 39 37 37 39 38 39 39 38 37 38 41 41 39 41 39 38 0 0 0 0 0
    0 0 0 0 0 0 0 0 0 0 0 0 0 0 0 0 0 0 0 0 0 0 0 0 0 0 0 0 0 0 0 0 0 0 0 0 0 0 0 0 0 0 0 0 0 0 0 0 0 0 0 0 0 0 0 0 0 0 0 0 0 0 0 0 0 0 0 0 0 14 14 14 13 14 14 15 14 13 13 14 13 14 12 10 9 0 0 0 0 0 0 0 0 0 0 0 0 0 0 0 0 0 0 0 0 0 0 0 0 0 0 0 0 0 0 0 0 0 0 0 0 0 0 0 0 0 0 0 0 0 10 0 0 9 10 9 0 9 -193 0 9 10 9 0 9 9 0 0 0 0 0 0 0 0 0 0 0 0 0 0 0 0 0 0 0 0 0 0 0 9 9 13 11 11 9 9 10 10 9 10 0 0 0 10 10 0 0 0 0 0 0 0 0 0 0 0 0 0 0 0 0 9 9 18 15 16 13 15 17 15 16 15 13 14 13 20 16 14 18 16 18 18 17 17 13 20 17 14 15 14 15 15 18 18 14 25 24 24 26 28 28 27 27 26 23 24 -193 24 24 25 26 28 30 34 35 37 35 36 37 38 31 29 31 32 26 26 26 26 29 34 37 40 38 42 43 45 44 45 44 45 43 44 41 41 38 39 41 42 42 42 41 44 43 42 43 -193 41 40 41 40 38 39 40 39 41 41 40 39 40 42 43 42 43 42 41 0 0 0 0 0
    0 0 0 0 0 0 0 0 0 0 0 0 0 0 0 0 0 0 0 0 0 0 0 0 0 0 0 0 0 0 0 0 0 0 0 0 0 0 0 0 0 0 0 0 0 0 0 0 0 0 0 0 0 0 0 0 0 0 0 0 0 0 0 0 0 0 0 0 0 15 14 14 13 14 13 14 14 12 13 13 13 14 13 12 10 9 10 0 0 0 0 0 0 0 0 0 0 0 0 0 0 0 0 0 0 0 0 0 0 0 0 0 0 0 0 0 0 0 0 0 0 0 0 0 0 0 0 0 0 0 10 0 9 10 10 9 0 9 9 0 9 10 9 0 9 9 0 0 0 0 0 0 0 0 0 0 0 0 0 0 0 0 0 0 0 0 0 0 0 0 9 13 11 11 9 9 10 10 10 11 0 0 0 10 10 0 0 0 0 0 0 0 0 0 0 0 0 0 0 0 0 9 9 18 15 17 14 15 17 15 16 15 13 14 12 19 15 14 18 16 18 18 17 16 13 20 16 13 15 14 15 16 18 18 14 24 24 24 27 28 28 28 28 27 25 25 26 25 26 27 27 31 31 34 35 36 35 36 38 38 30 30 33 34 27 28 28 27 32 37 39 42 40 43 44 46 45 45 45 46 44 44 42 42 41 42 44 44 44 43 43 44 44 43 43 42 42 41 43 42 40 40 42 42 43 43 42 41 42 43 45 44 44 44 43 0 0 0 0 0
    0 0 0 0 0 0 0 0 0 0 0 0 0 0 0 0 0 0 0 0 0 0 0 0 0 0 0 0 0 0 0 0 0 0 0 0 0 0 0 0 0 0 0 0 0 0 0 0 0 0 0 0 0 0 0 0 0 0 0 0 0 0 0 0 0 0 0 0 0 15 15 14 13 14 12 13 13 12 13 13 14 14 13 14 12 12 12 0 0 0 0 0 0 0 0 0 0 0 0 0 9 0 0 0 0 0 0 0 0 0 0 0 0 0 0 0 0 0 0 0 0 0 0 0 0 0 0 0 0 0 10 0 0 9 9 9 0 9 9 0 9 10 9 0 0 0 0 0 0 0 0 0 0 0 0 0 0 0 -193 0 0 0 0 0 0 0 0 0 0 0 9 13 11 11 9 9 10 10 10 11 0 0 0 11 11 0 0 0 0 0 0 0 0 0 0 0 0 0 0 0 0 8 9 18 15 17 14 15 17 16 16 16 13 14 12 19 15 14 18 15 18 17 17 16 13 20 16 13 15 13 14 15 18 18 14 24 24 25 28 29 29 29 29 30 27 27 28 27 27 29 29 34 33 34 36 36 36 37 38 38 31 32 35 38 31 40 38 38 38 41 41 44 42 45 45 46 45 45 45 47 44 45 43 43 42 43 45 44 45 43 43 45 44 44 44 43 44 42 44 44 43 43 45 45 45 44 44 43 43 44 46 46 45 45 44 0 0 0 0 0
    0 0 0 0 0 0 0 0 0 0 0 0 0 0 0 0 0 0 0 0 0 0 0 0 0 0 0 0 0 0 0 0 0 0 0 0 0 0 0 0 0 0 0 0 0 0 0 0 0 0 0 0 0 0 0 0 0 0 0 0 0 0 0 0 0 0 0 0 0 15 15 14 13 14 12 13 13 12 13 14 15 17 15 19 15 17 18 13 0 0 0 0 0 0 0 0 0 0 0 0 0 0 0 0 0 0 0 0 0 0 0 0 0 0 0 0 0 0 0 0 0 0 0 0 0 0 0 0 0 0 10 0 0 0 9 9 0 0 0 0 9 9 0 0 0 0 0 0 0 0 0 0 0 0 0 0 0 0 -193 0 0 0 0 0 0 0 0 0 0 0 0 13 11 11 9 9 10 -193 10 11 0 0 -193 13 14 9 9 0 0 0 0 0 0 0 0 0 0 0 0 0 0 0 9 18 14 17 14 15 17 16 16 16 13 14 11 19 15 14 17 15 17 17 16 16 13 19 16 13 16 14 14 16 18 18 14 23 24 26 29 31 32 32 32 34 31 30 31 29 30 31 32 36 34 35 36 36 36 37 38 38 31 32 37 40 38 42 42 42 41 42 43 46 43 46 45 46 45 45 45 47 44 45 44 44 43 44 45 44 45 43 44 44 44 44 45 44 45 43 46 45 44 45 45 46 46 45 45 44 44 45 46 46 45 45 44 0 0 0 0 0
    0 0 0 0 0 0 0 0 0 0 0 0 0 0 0 0 0 0 0 0 0 0 0 0 0 0 0 0 0 0 0 0 0 0 0 0 0 0 0 0 0 0 0 0 0 0 0 0 0 0 0 0 0 0 0 0 0 0 0 0 0 0 0 0 0 0 0 0 0 15 15 14 13 14 11 13 13 13 13 15 17 19 18 22 20 23 23 23 10 0 0 0 0 0 0 0 0 0 0 0 0 0 0 0 0 0 0 0 0 0 0 0 0 0 0 0 0 0 0 0 0 0 0 0 0 0 0 0 0 0 9 0 0 0 9 9 0 0 9 0 9 9 0 0 0 0 0 0 0 0 0 0 0 0 0 0 0 0 387 0 0 0 0 0 0 0 0 0 0 0 0 13 11 11 9 9 10 -193 11 12 9 -193 -209 16 21 13 14 12 11 9 9 9 0 0 0 0 0 0 0 0 9 9 9 18 15 18 15 16 17 16 17 16 13 15 11 19 15 13 17 15 17 16 16 15 12 19 16 13 16 14 14 16 17 18 15 23 24 26 30 32 34 34 34 36 35 33 34 32 33 33 34 37 35 35 37 37 37 38 39 38 33 36 39 42 41 42 43 43 42 43 43 47 43 46 45 46 45 45 45 47 44 45 44 44 44 45 45 45 45 43 44 44 44 44 45 44 46 44 46 45 46 46 45 46 46 45 45 45 45 45 47 48 46 47 46 0 0 0 0 0
    0 0 0 0 0 0 0 0 0 0 0 0 0 0 0 0 0 0 0 0 0 0 0 0 0 0 0 0 0 0 0 0 0 0 0 0 0 0 0 0 0 0 0 0 0 0 0 0 0 0 0 0 0 0 0 0 0 0 0 0 0 0 0 0 0 0 0 0 0 16 15 14 13 13 11 12 12 12 13 14 18 19 19 23 22 25 25 25 16 9 0 0 0 0 0 0 0 0 0 0 0 0 0 0 0 0 0 0 0 0 0 0 0 0 0 0 0 0 0 0 0 0 0 0 0 0 0 0 0 0 9 0 0 0 9 9 9 9 9 0 9 9 0 0 0 0 0 0 0 0 0 0 0 0 0 0 0 0 388 0 0 0 0 0 0 0 0 0 0 0 0 13 11 12 9 9 10 -193 11 12 9 -209 -193 19 24 21 22 18 18 12 11 10 9 9 0 0 9 0 0 0 9 9 10 18 15 18 15 16 17 16 17 16 13 15 11 19 15 13 16 14 16 16 15 15 12 18 16 13 16 14 14 15 17 18 14 23 24 26 30 33 35 35 35 36 36 35 35 34 34 35 36 38 36 35 37 37 37 37 38 38 33 38 40 42 42 43 44 44 44 44 44 47 43 46 45 45 44 44 45 46 44 45 44 45 45 45 45 45 -193 -193 -193 -193 -193 -193 -193 -193 46 43 46 45 46 46 44 45 46 -193 -193 -193 -193 -193 47 49 47 47 46 0 0 0 0 0
    0 0 0 0 0 0 0 0 0 0 0 0 0 0 0 0 0 0 0 0 0 0 0 0 0 0 0 0 0 0 0 0 0 0 0 0 0 0 0 0 0 0 0 0 0 0 0 0 0 0 0 0 0 0 0 0 0 0 0 0 0 0 0 0 0 0 0 0 0 16 15 14 13 13 11 12 12 13 13 15 20 20 21 25 24 26 26 26 -193 9 0 0 0 0 0 0 0 0 0 0 0 0 0 0 0 0 0 0 0 0 0 0 0 9 0 0 0 0 0 0 0 0 0 0 0 0 0 0 0 0 9 0 0 0 9 10 9 9 9 0 0 0 0 0 0 0 0 0 0 0 0 0 0 0 -193 0 -193 -193 389 -193 0 0 0 0 0 0 0 0 0 0 0 14 12 12 10 10 11 -193 11 12 10 -209 -193 -193 26 25 24 21 22 15 12 11 11 10 9 9 9 9 0 0 9 9 10 18 15 18 15 16 17 17 17 16 13 15 11 18 15 13 15 14 16 16 15 15 12 18 15 13 16 14 14 15 16 18 14 22 24 27 30 33 35 35 35 36 36 36 36 34 35 35 36 38 36 36 37 37 37 37 38 38 32 39 40 42 42 44 44 44 44 44 44 47 43 46 44 44 43 44 44 46 44 45 44 45 45 45 45 45 -193 175 -193 -193 -193 -193 -193 -193 -193 43 45 -177 -177 46 45 45 46 -193 160 161 163 -193 46 47 46 46 46 0 0 0 0 0
    0 0 0 0 0 0 0 0 0 0 0 0 0 0 0 0 0 0 0 0 0 0 0 0 0 0 0 0 0 0 0 0 0 0 0 0 0 0 0 0 0 0 0 0 0 0 0 0 0 0 0 0 0 0 0 0 0 0 0 0 0 0 0 0 0 0 0 0 0 16 15 14 13 14 11 12 13 14 15 18 22 22 23 27 28 28 28 28 27 10 0 0 0 0 0 0 0 0 0 9 0 0 0 0 0 0 0 0 0 0 0 0 0 0 0 0 0 0 0 0 0 0 0 0 0 0 0 0 0 0 10 0 0 0 9 10 9 9 9 0 0 0 0 0 0 0 0 0 0 0 0 0 0 0 -193 0 -193 -193 389 -193 0 0 0 0 0 0 0 0 0 9 9 15 13 13 10 10 11 10 11 12 10 -209 -193 -193 27 26 25 23 24 18 13 12 11 10 9 9 10 9 0 9 9 9 10 17 14 18 15 16 17 18 18 17 14 15 11 17 15 13 15 14 16 16 15 15 13 18 15 13 17 14 13 15 16 17 14 22 24 27 31 33 36 35 35 36 37 36 36 35 37 36 37 39 37 36 37 37 37 37 38 37 32 39 40 42 42 44 44 44 44 44 43 46 43 46 44 43 43 43 44 46 44 -177 44 45 45 45 45 -193 -193 175 174 -193 -193 -193 -193 -193 -193 43 45 -177 -177 46 45 45 46 -193 160 161 164 -193 46 46 45 46 45 0 0 0 0 0
    0 0 0 0 0 0 0 0 0 0 0 0 0 0 0 0 0 0 0 0 0 0 0 0 0 0 0 0 0 0 0 0 0 0 0 0 0 0 0 0 0 0 0 0 0 0 0 0 0 0 0 0 0 0 0 0 0 0 0 0 0 0 0 0 0 0 0 0 0 16 16 15 14 14 12 13 14 -193 18 20 24 24 25 28 29 31 31 30 28 20 -193 0 0 0 0 0 0 9 0 9 0 0 0 0 0 0 0 0 0 0 0 0 0 0 0 0 0 0 0 0 0 0 0 0 0 0 0 0 0 0 10 0 0 9 9 -177 9 9 9 0 0 0 0 0 0 0 0 0 0 0 0 0 0 -193 -193 0 0 -193 390 389 -193 0 0 0 0 0 0 0 9 9 10 16 13 13 11 11 12 12 13 14 13 23 -193 25 28 28 27 26 27 22 14 13 12 10 9 9 10 10 0 0 9 0 10 17 14 18 15 15 17 19 18 17 14 15 12 17 16 14 14 14 16 17 15 15 13 18 16 14 17 14 13 14 15 17 13 22 24 28 31 34 36 36 36 36 37 37 37 36 37 36 38 -193 37 37 -193 37 37 36 38 37 31 38 40 42 42 44 44 44 44 44 44 46 42 45 43 43 43 43 43 45 -177 -177 44 45 45 44 -193 -193 178 175 174 -177 -193 -193 -193 -193 44 42 44 44 -177 46 45 45 46 -193 -193 161 164 -193 45 46 45 46 45 0 0 0 0 0
    0 0 0 0 0 0 0 0 0 0 0 0 0 0 0 0 0 0 0 0 0 0 0 0 0 0 0 0 0 0 0 0 0 0 0 0 0 0 0 0 0 0 0 0 0 0 0 0 0 0 0 0 0 0 0 0 0 0 0 0 0 0 0 0 0 0 0 0 0 17 17 16 16 17 14 15 17 -193 21 22 26 26 26 29 30 32 31 29 29 25 -193 10 10 0 0 0 0 11 9 9 0 0 0 0 0 0 0 0 0 0 9 0 0 9 0 0 0 0 0 0 0 0 0 0 0 0 0 0 0 0 11 9 9 9 9 -177 10 9 9 0 0 0 0 0 0 0 0 -193 -193 -193 -193 -193 -193 -193 -193 -193 0 -193 390 389 -193 -193 -193 0 11 12 12 0 10 10 9 15 12 13 11 11 12 13 14 16 16 25 26 27 29 30 28 28 29 24 17 13 12 11 9 9 10 10 0 0 9 0 9 16 14 18 15 15 17 19 18 17 14 15 12 16 16 14 14 15 16 17 16 16 14 18 16 14 18 14 13 15 15 17 13 23 25 28 31 35 37 36 36 36 37 37 37 37 38 37 38 -193 37 37 -193 38 37 37 38 37 31 38 40 42 42 44 45 45 45 44 44 46 43 45 43 43 43 43 43 45 -177 -177 44 44 44 44 -193 -193 177 175 174 -177 -193 -193 -193 -193 44 42 44 44 45 45 45 45 45 43 -193 -193 -193 44 45 46 45 46 46 0 0 0 0 0
    0 0 0 0 0 0 0 0 0 0 0 0 0 0 0 0 0 0 0 0 0 0 0 0 0 0 0 0 0 0 0 0 0 0 0 0 0 0 0 0 0 0 0 0 0 0 0 0 0 0 0 0 0 0 0 0 0 0 0 0 0 0 0 0 0 0 0 0 0 17 18 17 17 19 18 17 21 -193 24 24 27 27 27 28 30 31 31 29 29 26 26 24 20 11 0 11 11 14 13 11 9 0 0 0 0 0 0 0 0 0 9 0 0 9 0 0 0 0 0 0 0 0 0 0 0 0 0 0 9 9 11 10 9 9 10 -177 10 10 10 0 0 0 9 0 0 -193 -193 28 -193 25 -209 -193 -193 -177 -209 -193 -193 -193 390 389 -193 12 -193 11 15 20 17 11 10 10 0 13 11 12 10 10 12 14 17 19 20 27 27 28 30 31 29 30 30 25 19 15 13 11 10 10 11 10 0 0 0 0 9 15 13 18 14 14 16 19 18 17 14 15 12 15 17 15 14 15 17 18 16 16 15 18 16 15 19 15 14 16 17 18 15 24 25 29 32 35 37 37 36 37 37 37 37 37 38 36 38 -193 37 38 -193 38 37 37 38 37 31 38 40 42 41 43 44 44 44 44 44 46 43 45 43 43 43 43 43 45 -177 -177 44 44 44 44 44 -193 177 175 174 -193 -193 -193 43 42 43 42 43 43 43 44 44 45 45 43 45 44 45 45 46 47 45 46 47 0 0 0 0 0
    0 0 0 0 0 0 0 0 0 0 0 0 0 0 0 0 0 0 0 0 0 0 0 0 0 0 0 0 0 0 0 0 0 0 0 0 0 0 0 0 0 0 0 0 0 0 0 0 0 0 0 0 0 0 0 0 0 0 0 0 0 0 0 0 0 0 0 0 0 18 18 18 19 20 20 20 23 -193 27 26 29 28 27 30 32 33 32 31 30 29 32 30 26 25 9 16 18 19 20 14 13 13 12 14 12 9 0 0 9 10 10 0 0 10 0 0 0 0 0 0 0 0 0 0 0 0 0 0 9 10 13 13 12 12 13 -177 14 13 12 10 9 12 17 -193 15 28 27 28 26 26 25 -209 -193 -193 -193 -193 -177 -177 390 389 -193 15 17 14 21 25 -193 20 -193 12 0 13 11 12 11 11 13 16 20 21 22 28 29 29 31 32 30 31 31 27 21 16 15 12 11 10 11 10 9 0 0 0 9 14 13 17 14 13 16 19 18 17 14 15 12 15 17 16 14 16 18 19 17 17 16 19 15 16 19 16 16 18 20 21 20 26 27 30 32 34 37 36 36 37 37 37 37 37 38 36 38 40 -193 -193 -193 38 38 37 38 37 31 38 40 42 41 43 44 44 44 44 43 45 42 45 43 43 42 43 43 45 -177 -177 43 44 44 44 44 -193 177 175 173 -193 -193 42 42 42 43 42 43 43 43 43 44 44 45 43 45 45 45 46 47 47 46 47 47 0 0 0 0 0
    0 0 0 0 0 0 0 0 0 0 0 0 0 0 0 0 0 0 0 0 0 0 0 0 0 0 0 0 0 0 0 0 0 0 0 0 0 0 0 0 0 0 0 0 0 0 0 0 0 0 0 0 0 0 0 0 0 0 0 0 0 0 0 0 0 0 0 0 0 18 18 18 20 22 22 21 25 28 30 29 31 29 28 31 33 34 34 32 32 32 36 33 28 26 21 22 23 23 23 18 18 20 19 21 18 19 14 13 16 13 11 10 8 12 0 0 9 0 0 -193 0 0 0 0 0 0 0 0 9 11 14 17 16 17 18 19 19 19 18 18 22 25 26 -193 25 32 30 30 28 28 27 25 -209 -209 20 -193 -193 -193 -193 -193 15 19 -193 21 25 27 25 25 -193 16 9 15 13 14 12 12 13 18 22 23 24 28 30 30 32 33 31 31 32 28 22 18 17 13 11 11 12 10 9 0 0 0 9 14 12 17 14 13 16 20 18 17 14 15 12 15 18 17 14 17 18 19 18 18 17 19 15 16 -193 17 17 20 21 22 22 26 28 30 32 33 36 36 35 36 36 36 37 37 38 36 38 -193 -177 -177 -193 -193 577 38 39 37 32 39 40 42 41 43 44 44 44 44 43 45 42 45 43 43 43 -193 43 45 43 44 43 43 43 44 43 -193 -193 -177 -193 -193 42 42 43 42 43 42 44 43 43 44 44 45 45 44 46 45 46 47 48 48 46 47 48 0 0 0 0 0
    0 0 0 0 0 0 0 0 0 0 0 0 0 0 0 0 0 0 0 0 0 0 0 0 0 0 0 0 0 0 0 0 0 0 0 0 0 0 0 0 0 0 0 0 0 0 0 0 0 0 0 0 0 0 0 0 0 0 0 0 0 0 0 0 0 0 0 0 0 18 18 19 21 22 23 23 27 31 33 32 32 30 29 32 33 34 33 32 32 33 35 31 29 27 25 24 24 24 24 22 22 23 23 23 22 24 23 22 25 23 14 13 10 17 -209 9 -193 -193 -193 -209 -209 -209 0 0 0 0 0 0 10 14 17 20 21 21 22 22 23 23 23 25 26 27 30 29 29 35 33 32 30 30 28 27 26 26 24 16 13 12 -193 -193 21 23 -193 26 27 29 27 27 -193 19 9 16 14 15 13 14 15 20 25 25 26 28 31 31 32 34 32 32 32 28 23 19 18 13 12 11 12 10 9 0 0 0 9 14 12 17 14 13 16 20 18 17 15 16 13 15 19 18 15 18 19 20 19 19 19 19 15 17 -193 18 -177 21 22 23 24 27 29 30 32 32 36 35 34 36 36 36 37 37 38 37 39 -193 -177 -177 -177 574 575 38 39 38 33 39 40 42 41 43 44 44 44 44 43 45 42 45 43 43 43 -193 -193 45 -193 43 -193 42 43 43 43 43 -193 -193 -193 43 43 43 44 43 44 43 45 45 45 45 45 46 45 45 46 45 46 46 47 47 45 46 47 0 0 0 0 0
    0 0 0 0 0 0 0 0 0 0 0 0 0 0 0 0 0 0 0 0 0 0 0 0 0 0 0 0 0 0 0 0 0 0 0 0 0 0 0 0 0 0 0 0 0 0 0 0 0 0 0 0 0 0 0 0 0 0 0 0 0 0 0 0 0 0 0 0 0 18 18 19 21 -193 24 24 29 34 35 35 34 32 31 34 34 34 34 33 33 35 35 32 29 28 26 25 25 25 25 24 24 26 26 26 25 26 26 26 26 26 20 18 13 22 -209 -209 -209 -193 -193 -193 -209 -209 0 0 0 0 0 0 11 18 20 23 25 24 25 25 25 26 26 27 28 28 32 31 31 35 34 33 31 31 29 28 27 27 25 20 18 19 20 24 25 26 29 28 29 31 29 28 -193 19 0 15 15 15 14 15 16 23 26 27 27 29 32 32 32 34 32 32 32 29 24 20 19 14 12 11 12 10 9 0 0 0 9 14 12 17 14 12 16 21 18 17 15 16 13 15 19 18 15 19 19 20 20 20 20 19 16 18 -193 19 -177 -193 23 23 24 27 29 30 32 32 36 34 34 35 36 36 37 37 38 37 39 41 -193 -193 -177 573 575 -193 40 39 34 40 41 42 41 43 43 43 43 44 43 46 43 45 44 44 44 45 -193 45 -193 43 -193 42 42 43 43 43 -193 42 43 44 45 44 45 44 45 44 46 45 46 46 46 46 45 45 47 46 46 47 47 47 46 46 47 0 0 0 0 0
    0 0 0 0 0 0 0 0 0 0 0 0 0 0 0 0 0 0 0 0 0 0 0 0 0 0 0 0 0 0 0 0 0 0 0 0 0 0 0 0 0 0 0 0 0 0 0 0 0 0 0 0 0 0 0 0 0 0 0 0 0 0 0 0 0 0 0 0 0 18 19 20 22 -193 -193 27 31 35 36 36 35 35 33 35 35 35 34 34 34 36 35 32 29 28 27 26 26 26 26 27 26 30 30 29 28 28 29 27 28 28 25 21 20 -193 -209 -193 -209 -193 -193 -193 -209 -209 0 0 0 0 0 -193 11 20 22 25 27 26 27 27 27 28 27 29 30 29 33 32 33 35 34 33 31 32 29 29 28 28 26 22 22 23 24 25 26 26 30 28 30 31 29 28 22 18 0 15 15 16 15 16 18 25 28 29 29 29 33 33 33 35 32 33 33 30 30 22 21 16 12 12 12 9 9 0 0 0 9 14 12 17 14 13 16 21 18 18 15 16 13 16 19 19 16 20 20 21 21 21 21 20 17 19 -193 -193 -177 -193 -193 24 25 28 29 30 33 32 36 34 33 35 36 36 37 37 37 37 39 41 -193 -193 -193 -193 575 -193 40 39 35 40 41 43 41 43 43 43 43 44 43 46 43 46 45 46 45 46 -193 46 -193 43 41 42 42 43 43 44 43 44 44 46 46 45 46 45 46 45 46 46 46 45 47 47 46 46 47 46 47 48 48 47 47 47 47 0 0 0 0 0
    0 0 0 0 0 0 0 0 0 0 0 0 0 0 0 0 0 0 0 0 0 0 0 0 0 0 0 0 0 0 0 0 0 0 0 0 0 0 0 0 0 0 0 0 0 0 0 0 0 0 0 0 0 0 0 0 0 0 0 0 0 0 0 0 0 0 0 0 0 19 20 21 -193 -193 -193 29 33 36 36 37 36 36 34 36 35 35 34 34 34 35 33 31 29 28 27 27 27 27 29 29 29 34 33 31 30 30 31 28 29 29 26 23 25 29 -193 -193 -193 -193 -193 -209 -209 -209 -193 0 0 0 0 0 11 21 24 26 30 28 29 29 29 30 29 30 31 31 34 33 34 35 35 33 32 33 30 29 29 29 28 25 25 26 26 28 27 27 31 29 31 31 29 28 20 18 0 15 16 16 15 17 20 27 30 31 31 30 34 34 34 35 32 33 33 31 32 25 23 19 13 12 12 9 9 0 0 0 9 15 13 18 14 13 17 21 19 18 15 16 13 16 20 19 16 20 21 21 21 21 21 21 17 19 -193 -193 -177 -193 -193 25 26 29 30 30 33 32 36 34 33 35 35 36 36 37 37 36 39 41 -193 -209 41 41 -177 41 41 40 37 41 42 43 41 43 43 43 43 44 43 46 43 46 45 46 46 46 -193 -193 -193 43 42 42 43 44 44 45 44 46 46 48 48 46 46 45 46 45 46 46 46 45 47 47 46 47 48 46 47 49 48 48 47 48 48 0 0 0 0 0
    0 0 0 0 0 0 0 0 0 0 0 0 0 0 0 0 0 0 0 0 0 0 0 0 0 0 0 0 0 0 0 0 0 0 0 0 0 0 0 0 0 0 0 0 0 0 0 0 0 0 0 0 0 0 0 0 0 0 0 0 0 0 0 0 0 0 0 0 0 19 -193 -193 -193 -193 30 31 34 37 37 37 37 37 34 36 36 35 35 34 34 35 33 30 28 28 27 28 27 28 30 31 32 36 34 33 32 31 32 30 30 30 26 24 27 33 -193 36 37 -193 -193 -193 -209 -209 -193 0 0 0 0 0 -193 -193 25 27 31 30 30 30 31 31 31 32 33 32 35 34 34 35 34 32 32 33 30 30 30 30 29 27 27 28 29 31 30 29 34 31 32 32 29 27 19 18 9 15 -193 16 17 18 21 29 33 33 32 31 35 34 34 35 32 33 34 32 33 28 26 22 15 13 13 10 9 0 0 0 10 17 14 19 15 13 17 22 19 18 16 16 13 16 20 19 17 21 21 22 22 21 22 21 17 20 -193 -193 -193 -209 25 26 26 29 30 30 34 31 35 34 33 35 35 36 36 36 37 36 39 41 -209 -193 41 41 -193 41 41 41 38 42 42 43 41 43 42 42 42 43 43 45 43 45 45 45 45 46 -193 -193 -193 -193 -193 -193 -193 43 44 45 45 49 47 50 49 47 47 46 46 45 46 46 45 45 48 48 47 48 48 47 47 49 48 48 48 48 49 0 0 0 0 0
    0 0 0 0 0 0 0 0 0 0 0 0 0 0 0 0 0 0 0 0 0 0 0 0 0 0 0 0 0 0 0 0 0 0 0 0 0 0 0 0 0 0 0 0 0 0 0 0 0 0 0 0 0 0 0 0 0 0 0 0 0 0 0 0 0 0 0 0 0 20 -193 -193 -193 -193 31 32 34 37 37 38 38 38 36 37 37 36 36 35 34 35 32 29 27 27 27 27 27 29 30 31 33 36 35 33 32 32 33 31 32 32 27 -193 -209 37 -209 38 39 -209 37 -193 -209 -209 -193 -193 -193 0 0 -193 -193 -193 26 27 31 30 30 30 31 32 31 32 33 32 35 34 33 34 34 32 32 33 30 30 31 31 30 28 30 30 30 33 33 31 35 33 33 33 30 27 20 18 11 17 18 18 18 18 22 28 33 33 32 31 35 34 35 35 32 32 33 32 33 29 28 24 17 15 13 10 10 9 9 0 11 18 15 19 16 14 18 22 19 19 16 17 14 17 20 20 17 21 21 22 22 22 22 21 18 20 -193 -193 -193 -209 26 27 27 30 31 31 34 31 35 33 32 35 35 36 36 36 37 36 39 40 39 40 41 41 41 41 42 41 39 42 43 43 41 43 42 42 41 43 43 44 43 44 44 45 45 45 -193 -193 174 -193 -193 -193 -193 -193 43 45 45 51 48 51 50 47 47 46 46 45 45 46 45 45 49 48 47 48 48 47 47 50 48 48 48 48 49 0 0 0 0 0</data></disparity>
</opencv_storage>
