<?xml version="1.0"?>
<opencv_storage>
<gps_time_stamp>21322</gps_time_stamp>
<gps_x>-2.3754582405090332e+000</gps_x>
<gps_y>2.1025022864341736e-001</gps_y>
<gps_z>-7.3061145842075348e-002</gps_z>
<image_time_stamp>9264</image_time_stamp>
<disparity type_id="opencv-matrix">
  <rows>86</rows>
  <cols>320</cols>
  <dt>s</dt>
  <data>
    0 0 0 0 0 0 0 0 0 0 0 0 0 0 0 0 0 0 0 0 0 0 0 0 0 0 0 0 0 0 0 0 0 0 0 0 0 0 0 0 0 0 0 0 0 0 0 0 0 0 0 0 0 0 0 0 0 0 0 0 0 0 0 0 0 0 0 0 0 0 0 0 0 0 0 0 0 0 0 0 0 0 0 0 0 0 0 0 0 0 0 0 0 0 0 0 0 0 0 0 -177 0 0 0 0 9 9 0 0 0 0 0 0 0 0 0 0 0 0 0 0 0 0 0 0 0 0 0 0 10 9 -193 -193 -209 -209 -209 -209 -209 -209 -209 -209 84 72 72 72 70 70 71 71 71 71 12 12 -177 -177 -177 -193 -177 932 933 -177 -177 -177 63 65 63 58 37 35 27 25 25 20 12 11 11 11 11 10 10 10 9 10 10 17 14 12 13 14 14 13 13 15 12 12 13 14 14 14 14 16 13 13 15 15 15 16 16 18 16 21 22 20 22 22 22 22 22 22 23 23 24 24 25 24 25 25 26 26 26 27 28 28 30 30 31 30 31 30 31 30 31 30 33 32 35 39 40 42 42 42 42 43 44 45 41 41 40 41 43 45 46 49 51 52 53 53 55 54 55 56 56 58 59 58 59 59 60 61 60 63 59 61 61 61 62 61 61 61 59 66 62 63 63 64 64 63 67 68 63 72 70 70 67 67 67 66 64 65 61 66 63 68 -193 65 0 0 0 0 0
    0 0 0 0 0 0 0 0 0 0 0 0 0 0 0 0 0 0 0 0 0 0 0 0 0 0 0 0 0 0 0 0 0 0 0 0 0 0 0 0 0 0 0 0 0 0 0 0 0 0 0 0 0 0 0 0 0 0 0 0 0 0 0 0 0 0 0 0 0 0 0 0 0 0 0 0 0 0 0 0 0 0 0 0 0 0 0 0 0 0 0 0 0 0 0 0 0 0 9 0 9 -177 0 0 0 10 10 0 0 0 0 0 0 0 0 0 0 0 0 0 0 0 0 0 0 0 0 -209 0 10 10 13 -193 -209 -209 -209 -193 99 -209 -209 80 78 71 71 71 70 70 70 70 71 -193 13 13 -193 -177 -193 -193 931 931 933 932 -177 -177 63 66 62 59 -193 34 26 25 25 21 12 11 11 11 11 10 10 10 10 11 11 18 14 11 13 14 14 13 13 15 12 12 13 13 13 13 13 15 13 13 14 14 16 16 17 19 17 22 23 21 23 23 22 22 22 23 23 24 25 25 25 25 25 26 26 27 26 27 28 28 29 30 31 30 30 30 30 30 31 30 33 32 35 40 40 42 43 43 43 43 44 45 41 42 41 42 45 46 47 50 51 53 53 54 55 55 55 56 57 59 59 58 58 58 60 61 60 63 59 61 61 62 62 62 62 61 60 67 62 63 64 64 64 63 66 68 61 72 69 69 67 66 66 66 64 65 61 66 64 69 -193 66 0 0 0 0 0
    0 0 0 0 0 0 0 0 0 0 0 0 0 0 0 0 0 0 0 0 0 0 0 0 0 0 0 0 0 0 0 0 0 0 0 0 0 0 0 0 0 0 0 0 0 0 0 0 0 0 0 0 0 0 0 0 0 0 0 0 0 0 0 0 0 0 0 0 0 0 0 0 0 0 0 0 0 0 0 0 0 0 0 0 0 0 0 0 0 0 0 0 0 0 0 0 0 0 9 9 9 -177 0 0 0 10 10 0 0 0 0 0 0 0 0 0 0 0 0 0 0 0 0 0 0 0 0 -193 0 11 12 -193 -177 -209 -209 -209 -209 -209 -209 73 72 73 70 70 70 69 69 69 69 70 -193 13 14 -177 -177 -193 -193 -177 931 932 932 -177 -177 64 66 62 60 -193 34 26 25 25 21 12 12 12 11 11 10 10 10 10 10 10 18 13 11 12 14 14 13 13 14 11 12 13 13 13 13 13 15 13 13 14 15 16 17 18 20 19 24 -193 23 25 24 23 23 23 24 24 24 25 25 25 25 25 25 26 26 26 27 27 27 29 30 30 29 30 30 30 30 31 30 32 32 35 39 41 42 43 43 43 44 45 46 42 43 42 43 46 48 48 50 51 53 53 55 56 55 56 57 57 59 59 58 59 59 60 62 61 63 60 61 62 62 63 62 63 62 61 66 63 63 64 64 65 63 66 68 61 72 69 69 66 65 65 65 64 65 61 66 63 69 -193 66 0 0 0 0 0
    0 0 0 0 0 0 0 0 0 0 0 0 0 0 0 0 0 0 0 0 0 0 0 0 0 0 0 0 0 0 0 0 0 0 0 0 0 0 0 0 0 0 0 0 0 0 0 0 0 0 0 0 0 0 0 0 0 0 0 0 0 0 0 0 0 0 0 0 0 0 0 0 0 0 0 0 0 0 0 0 0 0 0 0 0 0 0 0 0 0 0 0 0 0 0 0 0 0 9 0 -177 0 0 0 0 10 10 0 0 0 0 0 0 0 0 0 0 0 0 0 0 0 0 0 0 0 0 -193 10 13 19 -209 -177 -209 -209 -209 -209 70 70 70 69 71 69 69 70 69 69 70 69 70 69 -193 -193 -177 -177 -177 -177 933 932 934 -177 -177 -193 63 66 62 59 -193 36 27 25 25 22 13 12 12 11 11 11 11 11 9 10 10 18 12 11 11 13 12 12 12 13 11 12 12 13 13 13 13 15 13 14 15 15 16 18 20 22 20 28 41 34 27 25 23 23 23 23 23 24 25 25 25 25 24 25 26 26 25 26 26 26 28 29 29 28 29 29 29 29 30 31 32 32 36 39 41 43 43 43 43 44 45 46 43 44 43 44 48 49 49 51 51 53 54 55 56 55 56 57 57 59 59 58 59 59 61 62 62 64 60 62 62 63 63 63 64 62 61 66 63 63 64 64 65 63 67 68 60 72 69 69 66 65 65 65 64 65 61 67 63 69 65 65 0 0 0 0 0
    0 0 0 0 0 0 0 0 0 0 0 0 0 0 0 0 0 0 0 0 0 0 0 0 0 0 0 0 0 0 0 0 0 0 0 0 0 0 0 0 0 0 0 0 0 0 0 0 0 0 0 0 0 0 0 0 0 0 0 0 0 0 0 0 0 0 0 0 0 0 0 0 0 0 0 0 0 0 0 0 0 0 0 0 0 0 0 0 0 0 0 0 0 0 9 0 0 0 9 0 0 0 0 0 0 9 9 0 0 0 9 10 9 0 0 0 0 0 0 0 0 0 0 0 0 0 0 10 9 14 -193 -209 61 67 66 71 70 69 70 69 69 70 69 69 70 69 70 70 69 70 69 -193 -177 -177 -177 -177 -177 -193 -177 -177 -177 -193 62 63 66 63 60 58 38 28 26 25 23 13 13 12 11 11 11 11 11 9 10 12 18 13 11 13 14 13 13 13 13 11 13 13 13 13 14 13 16 14 14 14 14 16 18 -193 23 -193 32 41 40 29 25 23 23 23 23 23 24 24 25 25 24 24 25 25 26 25 26 27 27 28 29 29 29 29 29 29 29 31 31 32 32 35 39 41 43 43 43 43 43 45 46 43 45 44 45 50 51 51 52 51 53 54 55 56 55 56 56 57 58 59 58 59 59 61 62 62 65 61 62 62 63 63 63 64 62 61 66 63 63 64 65 65 63 66 67 59 71 67 68 65 64 64 64 64 66 62 68 65 69 65 66 0 0 0 0 0
    0 0 0 0 0 0 0 0 0 0 0 0 0 0 0 0 0 0 0 0 0 0 0 0 0 0 0 0 0 0 0 0 0 0 0 0 0 0 0 0 0 0 0 0 0 0 0 0 0 0 0 0 0 0 0 0 0 0 0 0 0 0 0 0 0 0 0 0 0 0 0 0 0 0 0 0 0 0 0 0 0 0 0 0 0 0 0 0 0 0 0 0 0 0 9 0 0 0 9 0 0 0 0 0 0 9 9 0 0 0 9 11 10 10 0 0 0 0 0 0 0 0 0 0 0 0 0 9 9 15 -193 -177 -177 68 69 69 69 68 70 68 68 70 68 69 69 69 69 69 69 69 68 -193 -177 -177 -177 -177 -177 -193 -177 -177 -209 65 63 63 65 63 61 59 44 33 26 26 24 14 13 13 12 12 12 12 12 10 11 15 17 13 12 14 15 14 14 14 13 12 13 13 13 13 13 13 15 13 13 13 12 14 17 -209 -177 -209 39 43 44 37 29 24 24 23 24 24 24 24 25 25 25 24 26 25 26 26 26 27 27 28 30 29 29 29 29 29 29 30 31 32 32 35 39 41 43 43 43 42 43 44 47 44 47 46 47 52 52 52 52 51 53 53 54 55 54 55 56 57 58 59 58 59 59 61 62 63 65 61 62 62 63 62 63 63 62 61 66 63 64 64 65 65 63 66 67 59 70 66 67 64 63 64 64 63 66 62 68 66 69 66 66 0 0 0 0 0
    0 0 0 0 0 0 0 0 0 0 0 0 0 0 0 0 0 0 0 0 0 0 0 0 0 0 0 0 0 0 0 0 0 0 0 0 0 0 0 0 0 0 0 0 0 0 0 0 0 0 0 0 0 0 0 0 0 0 0 0 0 0 0 0 0 0 0 0 0 0 0 0 0 0 0 0 0 0 0 0 0 0 0 0 0 0 0 0 0 0 0 0 0 0 9 0 0 0 0 0 0 0 0 0 0 0 8 0 0 0 9 11 10 10 0 0 0 0 0 0 0 0 0 0 0 0 0 0 -193 -193 -177 -177 71 70 71 69 69 69 70 68 68 69 68 68 69 69 68 69 68 68 67 -193 -177 -177 -177 -177 -177 -193 -177 -193 -209 64 63 62 64 63 61 60 57 49 27 27 24 16 14 15 15 15 14 15 15 12 14 18 15 12 11 12 13 12 12 12 12 11 13 13 13 14 13 13 15 13 13 13 12 14 -193 -209 -193 -209 -193 49 52 42 38 26 25 23 24 24 24 25 25 25 25 25 26 26 26 26 27 27 27 28 29 28 29 29 28 29 29 30 31 31 32 35 39 41 43 43 43 42 43 44 47 44 46 47 48 52 53 53 53 52 53 54 55 55 -193 -193 -193 57 58 59 58 59 59 61 63 65 67 62 63 63 64 63 63 63 61 61 65 63 64 64 65 65 64 66 67 59 69 65 66 64 63 64 64 63 66 62 68 66 69 66 66 0 0 0 0 0
    0 0 0 0 0 0 0 0 0 0 0 0 0 0 0 0 0 0 0 0 0 0 0 0 0 0 0 0 0 0 0 0 0 0 0 0 0 0 0 0 0 0 0 0 0 0 0 0 0 0 0 0 0 0 0 0 0 0 0 0 0 0 0 0 0 0 0 0 0 0 0 0 0 0 0 0 0 0 0 0 0 0 0 0 0 0 0 0 0 0 0 -193 0 0 10 0 0 0 0 0 0 0 0 0 0 0 0 0 0 0 9 11 10 10 0 0 0 0 0 0 0 0 0 0 0 0 0 0 -193 -209 -177 -177 72 71 71 69 69 68 70 68 68 69 68 68 70 69 68 68 67 68 67 68 -193 -193 -177 -177 -177 -177 -177 -193 62 63 63 62 64 63 62 60 58 58 28 27 25 17 15 17 18 19 17 18 18 14 19 20 14 12 11 11 12 12 12 12 11 12 12 13 13 14 13 12 14 13 12 12 11 14 -177 -209 -209 -209 49 51 53 46 42 31 27 24 25 24 25 25 26 25 25 25 26 26 26 27 27 27 28 28 29 29 29 29 28 29 29 29 30 31 31 35 39 42 45 44 44 44 45 47 51 -193 49 50 52 53 53 53 53 52 53 54 54 55 -193 -209 -193 57 59 59 58 59 59 62 64 66 68 63 63 63 64 63 63 63 62 61 65 64 64 65 65 66 64 67 67 59 68 64 65 63 63 63 63 63 65 62 67 66 69 66 66 0 0 0 0 0
    0 0 0 0 0 0 0 0 0 0 0 0 0 0 0 0 0 0 0 0 0 0 0 0 0 0 0 0 0 0 0 0 0 0 0 0 0 0 0 0 0 0 0 0 0 0 0 0 0 0 0 0 0 0 0 0 0 0 0 0 0 0 0 0 0 0 0 0 0 0 0 0 0 0 0 0 0 0 0 0 0 0 0 0 0 0 0 -193 0 0 0 -193 0 0 10 0 0 0 0 0 0 0 0 0 0 0 0 0 0 0 9 11 10 10 9 9 0 0 0 0 0 0 0 0 0 0 0 0 -193 -209 -177 -193 74 72 72 70 68 68 70 68 67 68 67 67 70 69 68 69 67 68 67 68 66 64 -193 -193 -193 -193 -193 -193 62 63 63 62 64 63 63 61 59 59 -209 30 26 19 16 19 21 20 19 19 19 14 19 21 12 12 11 12 12 12 12 12 11 12 11 12 13 14 13 13 15 14 13 12 11 12 -193 -177 -209 -193 -193 54 54 49 44 -193 28 24 25 25 25 25 26 25 25 25 26 26 26 27 27 27 28 28 29 29 29 29 28 28 29 29 30 30 31 35 39 44 48 45 46 -193 -193 -193 109 108 107 -209 55 55 54 53 53 52 53 54 55 56 -193 -193 -193 -193 59 60 60 62 61 64 -193 -193 -193 -193 -193 64 64 64 64 65 62 61 66 66 66 65 66 66 64 67 67 56 63 63 65 63 62 63 63 63 66 62 67 66 68 66 66 0 0 0 0 0
    0 0 0 0 0 0 0 0 0 0 0 0 0 0 0 0 0 0 0 0 0 0 0 0 0 0 0 0 0 0 0 0 0 0 0 0 0 0 0 0 0 0 0 0 0 0 0 0 0 0 0 0 0 0 0 0 0 0 0 0 0 0 0 0 0 0 0 0 0 0 0 0 0 0 0 0 0 0 0 0 0 0 0 0 0 0 0 -193 -193 -193 -193 -193 0 0 11 9 0 0 0 0 0 0 0 0 0 0 0 0 0 0 9 11 11 11 10 10 0 0 0 0 0 0 0 0 0 0 0 0 -209 -209 -177 -209 76 72 72 70 69 69 70 69 67 68 68 68 69 68 68 69 66 68 67 67 65 63 66 63 61 63 63 62 63 64 64 62 64 63 64 61 60 60 59 38 37 20 18 19 21 21 19 20 20 15 20 21 11 12 11 11 11 11 12 11 11 12 11 12 13 14 14 14 16 15 13 12 10 -209 -209 -177 -209 -209 -209 57 55 52 46 -193 31 24 25 25 25 25 25 25 25 25 26 26 26 27 27 28 28 28 28 28 28 29 27 27 28 28 29 29 31 36 39 45 49 47 50 -193 -177 -177 106 106 105 104 -209 -209 -209 55 55 55 -177 58 -193 125 130 134 138 -193 60 61 60 63 62 65 -193 -193 -193 -193 -193 -193 66 66 66 67 64 65 68 67 66 65 65 66 63 65 63 53 59 62 66 63 62 63 64 64 67 62 66 65 68 65 65 0 0 0 0 0
    0 0 0 0 0 0 0 0 0 0 0 0 0 0 0 0 0 0 0 0 0 0 0 0 0 0 0 0 0 0 0 0 0 0 0 0 0 0 0 0 0 0 0 0 0 0 0 0 0 0 0 0 0 0 0 0 0 0 0 0 0 0 0 0 0 0 0 0 0 0 0 0 0 0 0 0 0 0 0 0 0 0 0 0 0 0 0 -193 -193 -193 -193 -193 0 0 10 0 0 0 0 0 0 0 0 0 0 0 0 0 9 0 9 11 11 11 10 10 0 0 0 0 0 0 0 0 0 0 -193 0 -209 61 -193 -193 78 72 72 69 69 68 70 69 67 68 68 68 70 68 69 69 67 68 67 66 64 62 66 63 61 63 63 62 64 64 66 62 64 64 64 62 60 60 60 -209 43 20 19 20 22 22 21 22 22 17 22 23 11 12 11 11 11 11 12 12 11 12 12 13 14 15 15 15 18 18 14 12 -193 -209 -193 603 -209 -209 -209 57 55 52 47 -193 32 24 25 25 25 25 25 25 25 25 26 25 26 28 27 28 29 28 28 28 28 29 27 28 28 28 29 30 33 38 41 48 50 50 -193 -177 -177 106 105 105 105 103 100 98 95 -193 -209 -209 -209 -209 -209 122 127 133 137 138 -193 -193 -209 -209 -209 -209 -193 172 173 170 -193 -193 67 66 66 67 64 64 68 68 67 66 67 67 66 -193 -209 -209 -193 -193 -193 138 -193 64 66 65 68 64 66 65 67 65 65 0 0 0 0 0
    0 0 0 0 0 0 0 0 0 0 0 0 0 0 0 0 0 0 0 0 0 0 0 0 0 0 0 0 0 0 0 0 0 0 0 0 0 0 0 0 0 0 0 0 0 0 0 0 0 0 0 0 0 0 0 0 0 0 0 0 0 0 0 0 0 0 0 0 0 0 0 0 0 0 0 0 0 0 0 0 0 0 0 0 0 0 0 0 0 0 -193 -193 0 0 10 0 0 0 0 0 0 0 0 0 0 0 0 0 9 9 9 11 10 11 10 10 0 0 0 0 0 0 0 0 -177 0 -193 -193 -193 62 -209 108 -209 72 71 69 69 69 69 69 68 68 68 68 70 69 69 70 67 68 68 66 63 61 66 63 61 63 63 62 64 65 66 63 64 65 64 62 61 60 60 48 45 21 20 21 24 -193 23 24 24 22 26 30 11 12 11 12 11 11 12 12 11 12 12 14 14 15 15 16 20 20 16 -193 -209 -209 -209 -193 -193 -193 57 58 57 55 52 -193 -193 23 24 24 24 25 25 25 25 26 27 25 26 28 27 28 29 28 28 28 28 28 26 28 28 28 32 33 36 41 44 51 52 51 -193 -177 -177 108 107 107 106 105 101 100 94 90 90 90 90 -177 105 120 125 130 133 135 133 133 136 -193 -209 -209 163 170 -193 168 -193 169 -209 -209 -209 67 65 65 70 69 70 69 70 70 -209 -193 -177 -177 141 140 140 141 146 -193 67 67 69 66 66 66 67 66 65 0 0 0 0 0
    0 0 0 0 0 0 0 0 0 0 0 0 0 0 0 0 0 0 0 0 0 0 0 0 0 0 0 0 0 0 0 0 0 0 0 0 0 0 0 0 0 0 0 0 0 0 0 0 0 0 0 0 0 0 0 0 0 0 0 0 0 0 0 0 0 0 0 0 0 0 0 0 0 0 0 0 0 0 0 0 0 0 0 0 0 0 0 0 0 0 0 0 0 0 9 0 0 0 0 0 0 0 0 0 0 0 0 0 9 9 9 11 10 10 10 9 0 0 0 0 0 0 0 0 -177 0 0 -193 -193 -193 -209 110 -209 71 71 69 69 70 70 69 68 68 69 69 70 69 69 69 67 68 68 65 63 61 66 63 61 62 63 62 65 65 66 63 64 65 65 62 61 61 60 48 45 -193 21 23 25 -193 26 26 26 26 28 37 16 14 12 13 13 12 14 12 11 13 13 14 15 16 15 16 21 21 -193 -193 -193 -209 -209 -193 -193 59 58 59 58 56 55 -193 -209 23 23 24 24 24 24 25 24 27 27 25 26 29 28 28 29 28 27 27 28 28 26 28 30 29 35 36 39 43 47 53 53 51 -193 -177 110 109 107 107 107 105 102 102 94 91 90 90 90 90 103 119 124 126 131 134 131 131 134 -209 -209 -209 -193 160 -209 -209 -209 162 -209 164 166 172 -209 70 73 -209 -209 -209 -209 -209 138 148 145 145 143 142 144 143 148 150 66 66 70 67 63 66 67 66 66 0 0 0 0 0
    0 0 0 0 0 0 0 0 0 0 0 0 0 0 0 0 0 0 0 0 0 0 0 0 0 0 0 0 0 0 0 0 0 0 0 0 0 0 0 0 0 0 0 0 0 0 0 0 0 0 0 0 0 0 0 0 0 0 0 0 0 0 0 0 0 0 0 0 0 0 0 0 0 0 0 0 0 0 0 0 0 0 0 0 0 0 0 0 0 0 0 0 0 0 0 0 0 0 0 0 0 0 0 0 0 0 0 0 9 10 9 11 11 10 10 9 0 0 0 0 0 0 0 0 -177 0 -193 -193 -209 -209 -193 113 -193 72 72 69 70 70 70 69 69 68 69 68 70 68 69 69 67 68 68 65 64 62 66 63 61 62 62 62 64 64 66 63 63 64 65 61 61 60 60 48 45 -193 22 24 26 -193 28 28 28 28 30 39 -209 16 13 14 13 13 14 12 12 13 13 15 15 16 16 17 22 23 -177 -177 -193 -209 -209 -177 -193 -193 58 59 58 57 56 -193 -209 23 23 24 24 25 25 25 25 28 28 26 27 30 28 27 28 27 27 27 28 28 26 29 31 30 37 38 41 46 50 53 53 51 -177 -177 110 109 107 106 106 104 102 101 96 91 89 89 90 -193 102 116 122 123 127 -209 -209 -209 -209 -209 -209 -209 150 -209 -209 146 147 -193 -209 156 162 165 -209 -209 -209 152 153 153 153 146 141 149 147 146 145 144 146 144 148 150 -193 -193 71 70 60 67 67 67 67 0 0 0 0 0
    0 0 0 0 0 0 0 0 0 0 0 0 0 0 0 0 0 0 0 0 0 0 0 0 0 0 0 0 0 0 0 0 0 0 0 0 0 0 0 0 0 0 0 0 0 0 0 0 0 0 0 0 0 0 0 0 0 0 0 0 0 0 0 0 0 0 0 0 0 0 0 0 0 0 0 0 0 0 0 0 0 0 0 0 0 0 0 0 0 0 0 0 0 0 0 0 0 0 0 0 0 0 0 0 0 0 0 0 9 9 9 10 10 9 9 9 0 0 0 0 0 0 0 0 -177 -193 -193 -193 -209 -209 108 113 -193 -209 72 70 71 70 70 69 69 68 69 68 69 68 69 69 68 68 69 66 66 64 67 63 62 62 62 62 64 64 66 63 63 64 65 61 61 60 60 47 45 -193 22 25 27 -193 29 29 30 29 32 40 -209 18 12 15 14 13 14 12 12 14 13 15 15 16 16 17 23 24 -193 -177 -193 -193 -193 -193 -193 -193 58 60 59 57 57 56 57 23 23 24 24 25 25 25 23 27 27 26 26 29 27 26 27 26 26 26 27 28 26 29 31 31 38 40 43 48 51 53 52 50 -209 -177 111 108 106 106 105 103 101 98 93 90 84 84 83 67 -209 -209 -193 -193 68 69 68 66 69 -209 -209 -209 158 -209 -209 -193 -209 157 -209 -209 -209 -209 156 -209 152 153 153 151 153 149 142 148 147 146 145 145 147 145 148 150 147 -193 -209 -209 59 68 68 68 68 0 0 0 0 0
    0 0 0 0 0 0 0 0 0 0 0 0 0 0 0 0 0 0 0 0 0 0 0 0 0 0 0 0 0 0 0 0 0 0 0 0 0 0 0 0 0 0 0 0 0 0 0 0 0 0 0 0 0 0 0 0 0 0 0 0 0 0 0 0 0 0 0 0 0 0 0 0 0 0 0 0 0 0 0 0 0 0 0 0 0 0 0 0 0 0 0 0 0 0 0 0 0 0 0 0 0 0 0 0 0 0 0 0 9 10 9 10 9 0 0 0 0 0 0 0 0 0 0 -177 -193 -193 -209 -193 -209 -209 106 113 -193 -209 -193 69 71 70 70 69 69 68 69 69 69 68 69 69 68 69 69 67 66 64 67 63 62 62 61 61 64 64 66 63 63 64 65 61 61 59 -193 45 44 -193 23 26 27 -193 30 30 31 30 34 40 40 -209 16 19 18 15 17 13 13 15 14 16 15 15 17 18 25 25 -193 -177 -209 -193 -209 -193 -177 -193 58 60 59 58 57 57 59 -193 24 24 24 25 25 25 23 27 27 26 26 28 26 26 27 26 26 26 26 27 26 29 32 32 38 41 44 50 51 52 52 -193 -209 -177 111 108 105 105 105 -193 -193 95 92 90 80 80 -193 55 55 56 58 60 61 62 62 63 65 -193 -193 -177 -177 -193 157 159 -209 -209 -209 -209 -209 -209 -209 -209 145 149 148 149 152 148 144 148 147 147 147 147 148 148 150 152 150 153 -193 -209 -193 68 69 70 69 0 0 0 0 0
    0 0 0 0 0 0 0 0 0 0 0 0 0 0 0 0 0 0 0 0 0 0 0 0 0 0 0 0 0 0 0 0 0 0 0 0 0 0 0 0 0 0 0 0 0 0 0 0 0 0 0 0 0 0 0 0 0 0 0 0 0 0 0 0 0 0 0 0 0 0 0 0 0 0 0 0 0 0 0 0 0 0 0 0 0 0 0 0 0 0 0 0 0 0 0 0 0 0 0 0 0 0 0 0 0 0 0 0 10 10 9 10 10 0 0 0 0 0 0 0 0 0 9 10 12 17 -209 -209 -209 -193 -209 115 -209 -209 -193 69 70 70 69 69 70 68 69 69 69 69 70 69 68 69 69 67 65 64 65 62 62 62 60 61 63 64 66 63 63 64 64 61 61 59 -193 -193 -193 -193 22 26 26 31 30 30 31 31 34 39 40 40 -209 -209 -209 -193 -193 14 12 14 14 15 14 14 18 18 26 27 -193 -177 -193 -177 -193 -193 -193 -193 59 62 63 61 60 61 62 -193 -209 24 25 24 24 24 22 26 26 25 26 27 26 26 26 25 25 25 26 26 25 29 32 32 39 41 44 50 50 52 51 -209 -209 -193 -193 -193 -193 105 105 -193 -193 94 92 90 78 77 -193 54 55 55 56 59 59 60 59 60 62 63 -193 -193 164 -193 161 -193 -193 171 183 185 187 188 -209 -209 140 145 147 149 152 147 146 150 149 149 149 149 150 150 151 153 151 153 154 154 -193 68 -193 71 70 0 0 0 0 0
    0 0 0 0 0 0 0 0 0 0 0 0 0 0 0 0 0 0 0 0 0 0 0 0 0 0 0 0 0 0 0 0 0 0 0 0 0 0 0 0 0 0 0 0 0 0 0 0 0 0 0 0 0 0 0 0 0 0 0 0 0 0 0 0 0 0 0 0 0 0 0 0 0 0 0 0 0 0 0 0 0 0 0 0 0 0 0 0 0 0 0 0 0 0 0 0 0 0 0 0 0 0 0 0 0 9 9 0 10 10 10 11 10 0 0 0 0 0 0 0 0 0 0 10 11 13 12 -209 -193 -209 -193 -193 -193 -209 -209 67 70 70 69 69 70 68 69 69 68 68 69 68 68 68 68 66 64 64 64 61 61 60 59 60 63 64 66 63 63 64 64 61 61 58 -193 -193 -193 -193 22 27 26 30 29 30 31 31 34 38 39 41 -209 45 -193 -209 -193 -193 12 14 14 15 14 14 18 18 25 26 28 -193 -177 -177 -193 -177 -193 -193 60 63 65 63 62 65 66 68 -209 -209 -193 25 23 24 20 26 24 23 26 26 25 25 25 24 24 24 25 25 24 30 35 35 40 43 45 -193 -193 52 -193 -209 -209 -209 -193 1008 105 105 105 -193 -193 96 -193 -193 76 75 55 54 54 55 56 58 58 59 59 59 60 60 60 -193 -193 -177 -193 60 61 -193 -209 184 186 188 189 -209 -209 -193 -193 150 -193 146 148 151 150 150 150 150 150 151 152 153 153 154 154 154 -209 -193 -193 -209 -209 0 0 0 0 0
    0 0 0 0 0 0 0 0 0 0 0 0 0 0 0 0 0 0 0 0 0 0 0 0 0 0 0 0 0 0 0 0 0 0 0 0 0 0 0 0 0 0 0 0 0 0 0 0 0 0 0 0 0 0 0 0 0 0 0 0 0 0 0 0 0 0 0 0 0 0 0 0 0 0 0 0 0 0 0 0 0 0 0 0 0 0 0 0 0 0 0 0 0 0 0 0 0 0 0 0 0 0 0 0 9 10 10 9 11 11 11 11 10 0 0 0 0 0 0 0 0 0 9 11 11 13 11 -193 -193 -209 -209 -193 -193 -193 -209 62 66 68 68 68 70 68 69 68 68 69 69 68 68 67 67 65 64 64 62 61 61 60 59 59 62 64 65 64 63 64 63 60 61 57 56 -193 -209 -193 21 27 26 31 30 30 31 31 35 38 38 -209 -193 43 46 -209 -209 -193 -193 17 17 17 15 15 19 19 25 26 28 35 -193 -209 -209 -177 -193 -209 61 65 67 65 65 67 67 69 70 74 82 -209 24 25 19 26 23 23 25 26 25 25 24 24 25 25 25 25 24 32 38 38 41 45 47 -193 -193 -193 -193 -193 -193 -209 -209 -209 106 106 106 -193 -193 -193 -209 -193 75 -193 54 52 53 54 55 57 57 58 58 58 59 59 59 -193 -193 60 58 60 60 61 63 63 -193 -193 -193 65 71 -209 -193 -193 -193 -193 149 152 152 151 152 151 152 152 153 154 153 154 155 154 -193 -193 109 -209 -209 0 0 0 0 0
    0 0 0 0 0 0 0 0 0 0 0 0 0 0 0 0 0 0 0 0 0 0 0 0 0 0 0 0 0 0 0 0 0 0 0 0 0 0 0 0 0 0 0 0 0 0 0 0 0 0 0 0 0 0 0 0 0 0 0 0 0 0 0 0 0 0 0 0 0 0 0 0 0 0 0 0 0 0 0 0 0 0 0 0 0 0 0 0 0 0 0 0 0 0 0 0 0 0 0 0 0 9 9 9 10 10 11 10 11 12 11 12 11 0 0 0 0 0 0 0 0 0 9 11 11 11 10 -193 9 0 -193 -209 -193 -177 -209 -193 64 67 68 68 70 68 69 67 68 69 68 67 67 67 67 65 65 64 61 62 61 60 58 59 62 64 64 64 62 64 63 60 60 57 51 -193 -193 -193 21 26 26 30 29 30 30 30 34 37 37 -209 -193 43 45 -193 -193 -193 -193 19 18 17 14 15 19 19 25 25 29 37 -209 -209 -209 -193 -177 -193 64 67 69 68 68 69 68 70 70 72 78 -209 -209 -209 18 26 24 24 26 27 25 25 25 24 25 25 26 25 25 34 39 39 41 44 46 -193 -209 -209 -193 -209 -193 -209 795 -193 -193 106 106 -193 -193 -193 -177 -177 -209 55 54 52 53 53 55 56 56 57 57 57 58 59 59 58 58 60 58 60 60 61 62 63 -193 -193 60 64 69 -193 -177 -177 -177 -209 150 154 153 152 154 152 152 153 154 155 154 155 156 154 -193 107 108 -209 -209 0 0 0 0 0
    0 0 0 0 0 0 0 0 0 0 0 0 0 0 0 0 0 0 0 0 0 0 0 0 0 0 0 0 0 0 0 0 0 0 0 0 0 0 0 0 0 0 0 0 0 0 0 0 0 0 0 0 0 0 0 0 0 0 0 0 0 0 0 0 0 0 0 0 0 0 0 0 0 0 0 0 0 0 0 0 0 0 0 0 0 0 0 0 0 0 0 0 0 0 0 0 0 0 0 0 0 9 0 9 10 10 11 9 11 12 12 13 12 9 0 0 0 0 0 0 0 0 9 10 10 10 9 -193 9 0 0 -193 -209 -177 -209 -209 65 66 69 69 70 68 68 67 68 69 68 67 67 67 67 65 65 64 61 62 61 61 58 59 61 63 64 64 62 63 62 60 60 57 52 44 -177 -193 20 26 25 29 28 29 29 29 33 36 36 39 -193 42 44 -209 -193 -209 -193 20 20 18 14 15 19 20 25 25 31 -193 -193 -177 -209 -177 -177 -177 67 69 70 69 70 70 69 70 69 71 74 72 72 71 75 29 34 27 29 30 27 26 26 25 27 26 26 26 25 34 39 39 40 43 46 -193 -193 -193 -193 -177 -193 -209 796 796 -193 106 106 -193 -177 -193 -177 -177 -209 54 54 51 53 53 55 56 56 57 56 57 57 58 58 58 57 59 58 60 60 61 62 62 63 62 60 63 67 -209 -177 -177 -177 -193 150 156 154 153 156 153 153 154 155 156 155 156 156 154 -193 107 108 -209 -209 0 0 0 0 0
    0 0 0 0 0 0 0 0 0 0 0 0 0 0 0 0 0 0 0 0 0 0 0 0 0 0 0 0 0 0 0 0 0 0 0 0 0 0 0 0 0 0 0 0 0 0 0 0 0 0 0 0 0 0 0 0 0 0 0 0 0 0 0 0 0 0 0 0 0 0 0 0 0 0 0 0 0 0 0 0 0 0 0 0 0 0 0 0 0 0 0 0 0 0 0 0 0 0 0 0 9 0 0 0 10 9 10 9 10 11 12 13 13 9 9 0 0 0 0 0 0 0 9 11 11 10 10 -193 9 0 0 -209 -209 -193 -209 -209 -193 66 69 69 69 68 68 67 68 69 68 67 67 68 67 66 65 64 60 61 61 61 57 58 61 63 64 64 63 64 62 61 61 58 56 47 -193 -209 18 -209 -177 29 28 28 28 29 32 35 34 38 -193 -209 -193 -209 -209 -209 -193 21 21 19 15 17 20 22 27 28 35 41 -193 -193 -209 542 540 541 -193 -193 71 71 72 72 70 71 69 71 73 72 72 71 75 74 71 -193 37 37 28 27 26 26 27 26 25 25 25 34 38 38 39 42 45 -193 -193 -193 -209 -177 -193 -209 796 796 796 106 106 -209 -193 -193 -193 -193 55 53 53 51 52 52 54 55 55 56 56 56 57 57 58 -193 58 60 58 60 60 61 62 62 62 62 60 62 64 68 -177 -177 -177 -177 -193 158 154 154 158 154 154 155 155 156 155 156 156 154 -193 108 109 114 -209 0 0 0 0 0
    0 0 0 0 0 0 0 0 0 0 0 0 0 0 0 0 0 0 0 0 0 0 0 0 0 0 0 0 0 0 0 0 0 0 0 0 0 0 0 0 0 0 0 0 0 0 0 0 0 0 0 0 0 0 0 0 0 0 0 0 0 0 0 0 0 0 0 0 0 0 0 0 0 0 0 0 0 0 0 0 0 0 0 0 9 0 0 0 0 0 0 0 0 0 0 0 0 0 9 9 9 0 0 0 10 9 9 9 10 12 14 15 14 9 9 0 0 0 0 0 0 9 10 13 14 15 -193 -209 -209 -209 -209 -209 -209 -209 -209 -209 -193 64 68 69 68 68 68 67 68 70 68 68 67 68 68 67 66 64 59 62 60 61 58 58 60 63 64 64 63 64 63 61 61 59 57 52 -209 -209 16 -209 -177 -193 -177 -177 28 28 32 35 33 38 -193 -209 -209 -209 -209 -209 -209 22 22 -193 15 17 21 24 32 39 40 43 -193 -193 -193 542 540 542 541 542 542 -177 -177 73 69 69 64 69 71 69 69 69 74 73 73 70 -209 -193 -193 29 28 27 28 26 25 25 25 33 38 37 39 42 45 -193 -193 -193 -209 -177 -193 -209 797 -193 -193 107 107 105 -209 -193 -209 -209 54 53 53 51 52 52 53 54 54 56 55 56 57 -193 58 -193 58 60 58 61 60 62 62 62 63 62 61 62 61 62 -193 -177 -177 -177 -193 -193 -193 156 161 155 155 155 155 156 155 156 155 153 -209 109 110 114 -193 0 0 0 0 0
    0 0 0 0 0 0 0 0 0 0 0 0 0 0 0 0 0 0 0 0 0 0 0 0 0 0 0 0 0 0 0 0 0 0 0 0 0 0 0 0 0 0 0 0 0 0 0 0 0 0 0 0 0 0 0 0 0 0 0 0 0 0 0 0 0 0 0 0 0 0 0 0 0 0 0 0 0 -209 10 0 0 0 0 0 16 -193 -193 0 0 0 0 0 0 0 0 0 0 9 10 10 10 0 0 0 9 9 9 10 13 18 19 20 19 11 10 9 0 0 0 0 0 11 -209 19 -209 -209 -209 -209 -209 -209 -193 -209 -209 -209 -177 -177 -209 61 66 68 67 68 68 68 69 70 69 68 67 69 68 68 67 64 59 62 60 60 58 58 60 63 64 64 63 64 64 62 61 59 58 56 -193 -193 14 -177 -193 -193 -177 -177 -177 29 32 35 34 38 -193 40 -193 -209 -177 -193 -209 -209 -209 -193 16 -193 22 -209 -209 42 42 46 51 -193 -193 541 540 542 542 542 543 543 -177 -177 68 65 59 66 69 66 65 66 72 72 73 71 67 57 73 -193 30 28 29 28 25 25 25 34 38 38 39 42 44 -193 -193 -193 -193 308 -193 -209 799 796 -209 107 107 106 -193 103 -209 -209 54 53 53 51 52 52 53 54 54 56 55 56 -193 -193 -193 -193 57 60 58 61 60 62 62 62 63 62 61 61 60 60 -193 -177 -177 -193 -209 -193 -193 -193 163 157 156 156 155 156 154 155 -193 -193 -209 110 111 115 -177 0 0 0 0 0
    0 0 0 0 0 0 0 0 0 0 0 0 0 0 0 0 0 0 0 0 0 0 0 0 0 0 0 0 0 0 0 0 0 0 0 0 0 0 0 0 0 0 0 0 0 0 0 0 0 0 0 0 0 0 0 0 0 0 0 0 0 0 0 0 0 0 0 0 0 0 0 0 0 0 9 -209 -209 -209 -209 -209 -209 -193 21 -209 25 29 -209 -209 -209 0 0 0 0 0 0 0 10 10 12 11 10 8 0 0 9 0 9 13 -193 -193 -193 -193 25 21 -193 16 0 0 0 0 0 -209 -209 -209 -209 -193 52 -209 -193 -209 -193 -209 -209 -193 -209 360 363 60 64 68 66 68 68 68 69 71 69 69 68 70 69 68 68 65 59 62 60 60 58 58 60 63 64 64 62 63 64 61 60 59 57 55 56 -209 14 -177 -209 -193 -177 -177 -177 29 32 35 35 39 34 40 -209 -177 -177 -177 -193 -209 -209 -193 -209 -209 -209 -209 -209 44 44 50 -193 -193 61 -193 539 542 541 542 542 542 -177 -177 -193 59 56 61 67 63 62 63 70 72 73 72 71 60 74 82 -193 30 31 29 26 25 26 35 39 39 41 42 44 46 -193 -193 -193 306 -193 -209 -193 797 -209 107 107 106 -193 104 -209 98 55 53 54 52 53 53 54 55 54 56 -193 -193 -193 -193 -193 -193 57 60 58 61 60 61 62 62 63 62 60 61 60 60 -193 -177 -177 -209 -193 -193 466 -193 164 -193 156 155 155 155 153 -193 -193 -193 -209 112 114 -193 -177 0 0 0 0 0
    0 0 0 0 0 0 0 0 0 0 0 0 0 0 0 0 0 0 0 0 0 0 0 0 0 0 0 0 0 0 0 0 0 0 0 0 0 0 0 0 0 0 0 0 0 0 0 0 0 0 0 0 0 0 0 0 0 0 0 0 0 0 0 0 0 0 0 0 0 -193 0 0 10 0 11 -209 -209 -209 -209 -209 -193 34 29 28 28 35 39 -209 -209 -209 -209 -209 -209 -209 -209 -209 -209 21 20 15 12 14 -209 0 12 13 18 -209 -209 -193 -209 -193 34 31 35 35 35 -209 -209 -209 44 45 47 45 49 48 50 -193 46 45 -193 -193 -193 -193 -193 -177 -177 59 63 68 66 68 69 68 69 71 69 69 68 70 70 69 70 67 59 64 62 61 59 59 60 63 64 63 62 63 64 61 59 59 57 53 54 -193 -209 -177 -193 -177 29 30 30 30 33 36 37 40 37 41 -209 -193 -193 -177 -193 -209 -193 -209 -209 -209 -209 -193 -193 51 50 53 -193 -193 62 -209 -193 541 -177 -177 -177 -177 -177 -193 61 56 55 57 63 61 62 65 71 73 74 73 74 71 76 83 -209 31 33 31 27 26 28 36 39 40 41 43 44 46 -209 -193 -193 305 -193 -209 -193 798 -209 107 107 107 107 104 -193 99 54 53 54 52 53 54 55 55 55 56 -177 -193 -193 -193 57 -193 58 60 59 61 60 61 61 62 63 62 60 61 59 60 63 -209 -209 -209 -193 -193 466 -193 -193 -193 156 154 154 154 153 -193 878 -193 -193 114 116 -209 -193 0 0 0 0 0
    0 0 0 0 0 0 0 0 0 0 0 0 0 0 0 0 0 0 0 0 0 0 0 0 0 0 0 0 0 0 0 0 0 0 0 0 0 0 0 0 0 0 0 0 0 0 0 0 0 0 0 0 0 0 0 0 0 0 0 0 0 0 0 0 0 0 0 0 0 -209 -193 9 -209 -209 -209 -209 -209 -209 -209 -193 38 39 37 36 33 38 40 -209 -193 39 39 42 42 43 41 41 41 41 37 -193 17 -193 -209 -209 -193 30 32 -209 -193 38 -209 38 38 39 39 40 40 42 42 43 44 45 46 45 48 48 47 47 44 44 44 44 -193 -193 -193 -177 -177 58 62 69 66 68 69 68 68 71 69 69 68 71 71 70 72 69 60 67 65 62 59 61 61 63 64 64 63 63 63 62 59 59 57 53 54 -193 -209 -193 29 34 30 31 32 33 34 37 39 41 -193 42 -209 -193 -193 -193 -193 27 31 -209 -193 -209 -209 -193 -209 -193 55 56 58 56 64 -209 -193 -209 -193 -193 -209 -193 -193 -209 56 54 53 55 59 59 61 64 71 74 74 74 75 74 77 83 -209 -193 35 32 28 26 28 36 39 40 41 42 44 46 -209 -193 701 -193 -209 -209 -209 -193 -193 107 107 107 107 -177 -193 100 54 53 54 52 54 54 55 55 56 57 -193 -193 58 58 58 58 58 60 59 61 60 61 61 62 62 62 60 61 59 61 65 -209 -209 -209 -193 -193 -193 161 -193 156 155 153 154 154 152 875 877 -193 -209 115 117 -209 -193 0 0 0 0 0
    0 0 0 0 0 0 0 0 0 0 0 0 0 0 0 0 0 0 0 0 0 0 0 0 0 0 0 0 0 0 0 0 0 0 0 0 0 0 0 0 0 0 0 0 0 0 0 0 0 0 0 0 0 0 0 0 0 0 0 0 0 0 0 0 0 0 0 0 0 40 -209 -209 -209 -209 -209 -209 -209 -209 -193 -193 40 41 39 38 36 39 41 -209 -209 40 40 43 43 43 42 42 41 42 41 42 -193 -193 -209 -209 -209 -209 -209 -193 -193 -193 42 40 40 40 41 41 42 43 43 43 44 45 46 45 47 47 45 46 44 44 43 43 43 -193 45 -209 -193 57 60 68 64 67 68 67 68 70 69 69 68 71 72 71 74 71 60 68 67 65 60 62 62 63 65 64 63 64 63 63 59 59 57 53 53 -193 -209 -209 32 35 32 32 33 35 36 38 40 42 -193 43 -193 -177 -193 -193 -209 31 36 -193 -193 -193 -193 60 -193 59 57 58 59 56 65 -193 69 72 73 73 -193 -193 -209 -209 56 53 52 53 57 58 60 64 71 75 75 75 76 75 78 83 -193 -193 37 -193 28 26 28 36 39 40 41 42 44 46 -209 -193 -177 -193 -209 -209 -209 -193 -209 107 107 107 107 105 -193 99 54 53 54 52 54 55 55 56 56 57 -193 -193 58 58 58 58 58 60 59 61 60 61 61 62 62 62 60 61 59 63 67 -193 -209 -209 461 468 -193 161 -193 155 155 152 153 -193 152 874 -193 -193 -209 116 118 -209 -209 0 0 0 0 0
    0 0 0 0 0 0 0 0 0 0 0 0 0 0 0 0 0 0 0 0 0 0 0 0 0 0 0 0 0 0 0 0 0 0 0 0 0 0 0 0 0 0 0 0 0 0 0 0 0 0 0 0 0 0 0 0 0 0 0 0 0 0 0 0 0 0 0 0 0 41 -209 -209 -193 43 43 43 43 42 43 42 42 43 41 41 40 41 42 -193 -193 41 41 44 44 44 44 43 42 42 42 43 -209 36 -209 -209 39 -209 -209 -193 -193 42 42 41 40 41 41 42 42 43 43 43 44 45 46 45 48 47 45 45 44 44 44 44 44 42 45 -193 -193 57 58 68 64 66 68 67 67 70 69 69 67 72 72 71 74 72 60 69 69 68 60 63 62 63 65 64 64 64 63 63 59 59 57 53 53 -193 -209 -209 35 37 34 34 36 38 38 40 43 43 42 44 -193 -193 -193 41 42 35 38 -193 -177 -177 -193 -193 -193 60 59 59 60 56 65 65 69 72 73 -193 -193 -193 70 57 56 52 50 52 56 56 60 63 72 77 76 76 77 77 79 83 -193 83 -209 -209 28 25 28 36 39 40 41 43 44 46 38 -193 -209 -209 -193 43 -177 -193 -209 -193 107 107 107 105 -193 99 54 53 54 53 54 54 55 56 56 57 -193 -193 58 58 58 58 58 60 59 61 60 61 61 61 62 62 60 61 60 64 68 -193 -193 -177 463 468 -193 160 -193 -193 154 151 -193 -209 151 -193 -193 -193 -193 116 118 -193 -209 0 0 0 0 0
    0 0 0 0 0 0 0 0 0 0 0 0 0 0 0 0 0 0 0 0 0 0 0 0 0 0 0 0 0 0 0 0 0 0 0 0 0 0 0 0 0 0 0 0 0 0 0 0 0 0 0 0 0 0 0 0 0 0 0 0 0 0 0 0 0 0 0 0 0 42 43 43 44 44 44 45 45 44 45 44 44 44 43 43 42 43 43 43 43 42 43 45 45 45 44 44 43 43 43 43 42 41 42 43 42 43 43 43 43 43 43 42 41 41 42 42 43 43 44 44 44 45 46 45 48 47 45 45 44 44 44 44 44 42 45 -193 -193 -193 -193 68 63 66 68 67 67 69 68 68 67 71 72 71 74 72 60 68 68 68 60 64 62 63 65 64 64 64 63 64 59 59 57 52 52 50 -193 43 40 39 37 37 38 40 41 41 46 44 44 46 46 45 43 43 45 40 40 -193 983 -193 -193 -193 -193 61 60 61 61 57 66 64 67 71 -193 -193 -193 -193 68 57 55 51 47 49 55 55 58 60 -193 -193 77 77 79 -193 80 83 -193 83 80 -209 27 24 29 37 40 41 42 43 44 47 41 40 -209 -193 -193 44 -177 -193 -209 -193 107 107 107 105 -193 100 53 52 54 53 54 54 54 55 56 56 -193 57 58 58 57 57 58 60 59 61 59 60 60 61 62 61 60 60 59 64 68 -177 -177 -177 -177 468 -193 159 -209 -209 152 150 151 -193 150 -193 -193 147 -193 117 119 -193 -177 0 0 0 0 0
    0 0 0 0 0 0 0 0 0 0 0 0 0 0 0 0 0 0 0 0 0 0 0 0 0 0 0 0 0 0 0 0 0 0 0 0 0 0 0 0 0 0 0 0 0 0 0 0 0 0 0 0 0 0 0 0 0 0 0 0 0 0 0 0 0 0 0 0 0 43 44 44 45 45 44 45 46 45 47 46 45 45 44 44 43 43 43 42 43 42 43 45 45 45 45 45 44 44 44 43 43 43 44 44 43 45 44 44 44 44 44 43 42 43 44 44 44 44 44 44 44 45 45 45 48 46 45 45 44 44 44 44 44 42 44 -209 -209 -193 -193 68 63 65 69 67 67 69 68 68 67 71 71 69 74 72 60 65 66 68 61 65 63 64 65 65 65 65 63 65 59 59 56 52 51 49 46 44 42 42 41 40 40 42 42 43 48 45 46 47 47 46 44 45 47 43 49 55 -193 60 62 63 62 62 61 62 62 57 67 65 67 71 -193 67 66 -193 66 56 54 49 44 45 52 53 55 57 70 -193 -193 -193 -193 531 80 82 -193 83 79 89 34 26 32 39 41 43 43 44 45 48 43 42 46 44 -209 -193 -177 110 -193 107 107 107 107 105 -193 100 52 52 53 53 54 54 54 55 56 56 56 57 58 57 57 57 58 59 59 60 59 60 59 60 61 60 59 59 59 64 67 -177 -177 -177 -177 -193 -193 157 -193 151 151 149 150 -193 -193 148 -193 -193 -193 -193 -193 -193 -177 0 0 0 0 0
    0 0 0 0 0 0 0 0 0 0 0 0 0 0 0 0 0 0 0 0 0 0 0 0 0 0 0 0 0 0 0 0 0 0 0 0 0 0 0 0 0 0 0 0 0 0 0 0 0 0 0 0 0 0 0 0 0 0 0 0 0 0 0 0 0 0 0 0 0 45 45 45 45 45 45 46 47 47 49 48 47 47 45 46 44 44 44 42 43 43 44 46 45 45 45 45 44 44 45 44 43 44 45 45 44 45 44 44 44 44 44 44 42 43 44 45 45 45 45 45 44 45 46 45 49 47 46 46 45 45 45 45 44 43 45 50 -209 -193 -193 69 64 66 69 67 67 69 68 68 67 71 70 67 73 72 59 62 64 67 61 66 64 65 65 65 65 65 63 65 59 59 55 51 50 48 46 45 43 44 42 42 42 45 44 44 51 46 47 49 48 47 46 47 49 45 53 55 -193 60 62 63 63 63 62 63 64 57 69 66 67 71 -193 66 66 64 65 56 56 51 44 44 50 52 54 56 71 83 -193 -193 -193 532 -193 81 -193 83 77 88 -209 29 37 42 43 45 44 45 45 49 48 47 -193 -193 -193 -209 -193 109 -193 106 106 107 107 105 106 100 51 51 53 53 54 55 54 55 56 56 56 56 58 57 56 56 58 59 59 60 59 59 59 60 61 60 59 59 58 64 68 -209 -193 -193 -193 -193 -209 155 -193 149 151 149 150 -193 -193 148 -193 -193 -193 -193 -193 -193 -209 0 0 0 0 0
    0 0 0 0 0 0 0 0 0 0 0 0 0 0 0 0 0 0 0 0 0 0 0 0 0 0 0 0 0 0 0 0 0 0 0 0 0 0 0 0 0 0 0 0 0 0 0 0 0 0 0 0 0 0 0 0 0 0 0 0 0 0 0 0 0 0 0 0 0 46 46 46 46 46 46 47 48 49 50 49 48 48 46 47 45 44 45 43 44 43 44 46 46 46 46 45 45 44 45 44 44 45 45 45 45 46 45 44 45 44 43 44 42 43 45 45 45 45 45 44 44 45 45 45 49 48 46 46 46 46 45 45 45 43 45 51 -209 -177 -177 -193 64 65 69 66 67 69 68 68 66 70 70 65 73 72 59 62 63 68 61 66 64 65 65 65 65 65 63 65 59 60 54 51 50 47 45 45 44 44 43 43 43 46 45 46 52 47 48 49 49 48 46 48 50 47 55 56 63 61 62 63 62 62 61 62 62 57 69 66 67 -209 -193 67 -193 66 66 56 56 51 45 47 51 54 58 72 74 86 -193 -193 -193 -193 81 81 -193 -193 76 86 -193 40 42 44 44 47 45 46 46 52 54 -209 -209 -209 -209 105 -193 -193 -193 106 106 107 107 106 106 101 49 50 53 53 54 55 54 55 55 56 56 56 57 57 56 56 58 59 59 60 59 59 59 60 60 59 58 58 57 64 70 -209 -209 -209 -209 -209 -209 152 -193 148 150 149 -193 -193 869 -193 -209 -193 -193 117 124 149 -209 0 0 0 0 0
    0 0 0 0 0 0 0 0 0 0 0 0 0 0 0 0 0 0 0 0 0 0 0 0 0 0 0 0 0 0 0 0 0 0 0 0 0 0 0 0 0 0 0 0 0 0 0 0 0 0 0 0 0 0 0 0 0 0 0 0 0 0 0 0 0 0 0 0 0 46 47 46 47 47 48 49 49 50 51 49 49 49 47 47 45 45 45 42 44 43 44 46 45 45 46 45 45 44 46 44 45 46 46 46 46 46 45 45 45 44 44 44 43 44 46 45 45 45 45 45 44 45 46 45 49 48 46 46 46 46 45 45 45 44 45 52 -193 -177 -177 -193 64 65 69 66 67 68 68 67 66 70 69 64 73 72 58 60 61 68 61 67 64 66 65 65 65 65 63 65 60 60 54 51 50 47 45 46 44 45 43 44 43 47 46 47 52 48 48 49 49 49 47 48 51 48 56 56 63 61 62 63 62 62 60 61 61 56 68 67 68 -193 -193 68 68 67 66 57 57 52 46 49 52 56 67 76 78 87 81 81 -193 -193 82 81 81 82 76 84 -193 42 44 45 45 47 46 46 46 52 -193 -209 -209 -209 -209 104 115 -193 -193 107 106 107 -177 107 107 101 47 50 52 53 54 55 54 55 55 55 56 56 57 56 55 55 57 59 59 60 59 59 59 60 60 59 58 58 57 65 72 -209 -209 -209 -177 149 150 152 148 148 150 149 -193 867 868 -193 -209 -193 -193 116 125 -193 -209 0 0 0 0 0
    0 0 0 0 0 0 0 0 0 0 0 0 0 0 0 0 0 0 0 0 0 0 0 0 0 0 0 0 0 0 0 0 0 0 0 0 0 0 0 0 0 0 0 0 0 0 0 0 0 0 0 0 0 0 0 0 0 0 0 0 0 0 0 0 0 0 0 0 0 47 47 47 48 48 49 50 50 51 51 50 50 49 47 48 46 46 46 43 46 44 46 46 46 46 46 45 45 44 46 45 46 47 47 47 47 47 46 45 46 44 44 44 44 44 46 46 46 46 46 45 45 45 46 45 49 48 46 46 46 46 45 45 45 44 45 53 -209 -177 -177 -193 65 65 69 66 67 68 67 67 65 69 68 63 70 69 57 58 58 68 61 67 64 66 65 65 65 66 63 66 60 61 54 52 51 48 46 46 45 46 44 46 43 48 47 47 52 48 48 50 49 49 48 49 51 50 56 56 63 61 62 63 62 62 60 61 61 56 66 65 67 71 -193 66 67 66 65 57 57 50 45 49 52 55 63 75 77 87 81 81 -193 82 82 81 81 81 75 83 -193 45 46 48 48 49 48 50 48 53 59 62 -209 -209 -209 105 117 110 -193 108 107 107 108 -177 108 -193 45 48 51 53 53 54 53 55 55 55 55 55 56 55 54 55 57 58 59 60 59 59 59 60 60 59 58 58 58 65 73 -209 -209 -209 -177 148 148 151 148 148 150 149 -193 -177 868 869 -209 -209 -193 116 125 149 -209 0 0 0 0 0
    0 0 0 0 0 0 0 0 0 0 0 0 0 0 0 0 0 0 0 0 0 0 0 0 0 0 0 0 0 0 0 0 0 0 0 0 0 0 0 0 0 0 0 0 0 0 0 0 0 0 0 0 0 0 0 0 0 0 0 0 0 0 0 0 0 0 0 0 0 47 47 46 49 48 49 50 50 51 51 49 50 48 48 49 47 48 49 45 50 46 48 47 46 47 46 45 46 45 48 46 49 49 48 48 48 47 47 46 46 45 44 45 46 45 48 47 48 47 47 47 46 46 47 46 49 49 46 46 46 46 46 46 46 45 45 54 -209 -193 -193 -193 66 66 69 66 67 68 67 67 65 69 67 62 68 65 57 58 58 67 61 67 64 66 65 65 65 66 63 66 60 60 54 53 51 49 47 47 46 47 45 47 44 48 47 48 52 48 48 50 49 49 48 49 51 50 56 56 63 61 62 63 62 62 60 60 60 55 64 62 -193 69 -193 -193 65 65 63 57 57 49 45 49 52 55 61 75 77 87 81 81 -193 82 82 81 81 81 75 84 -193 47 48 50 50 50 50 52 50 54 58 -193 -209 -209 -209 107 -193 -193 -193 109 107 108 108 -177 108 -193 45 48 51 52 52 53 52 54 54 54 55 54 55 55 55 55 57 58 59 59 59 59 59 59 59 58 58 57 57 64 74 -209 -209 -193 -177 146 147 150 148 149 150 150 -193 -177 867 868 -209 -193 111 117 126 -177 -209 0 0 0 0 0
    0 0 0 0 0 0 0 0 0 0 0 0 0 0 0 0 0 0 0 0 0 0 0 0 0 0 0 0 0 0 0 0 0 0 0 0 0 0 0 0 0 0 0 0 0 0 0 0 0 0 0 0 0 0 0 0 0 0 0 0 0 0 0 0 0 0 0 0 0 47 47 46 49 48 49 50 50 50 51 49 50 48 48 49 48 50 51 47 51 47 50 47 47 48 47 46 47 45 49 48 51 50 49 49 49 48 47 46 46 45 45 46 48 47 50 48 49 48 48 48 47 47 48 47 50 51 47 47 47 47 46 47 47 46 45 54 -209 -193 -193 -193 66 67 70 67 68 68 67 67 65 68 67 62 67 63 57 57 57 66 61 66 64 66 64 65 65 66 63 65 60 60 54 53 51 50 48 48 47 48 46 48 46 49 48 48 52 49 49 50 50 50 49 50 52 52 57 57 64 61 62 63 62 62 60 60 59 55 62 -193 -193 -193 -177 -193 -193 64 63 57 57 47 45 50 53 56 69 76 79 87 81 81 -193 82 83 81 81 81 75 84 -193 48 47 49 48 48 49 50 49 54 60 -209 -193 -209 108 108 -193 -193 -193 109 107 107 108 108 108 102 47 49 51 52 52 53 52 53 53 53 54 54 54 54 55 56 57 58 59 59 59 59 60 59 59 58 57 56 56 63 74 -209 -209 -177 -177 145 147 150 148 149 151 150 -177 863 865 866 -193 155 112 117 127 -193 -193 0 0 0 0 0
    0 0 0 0 0 0 0 0 0 0 0 0 0 0 0 0 0 0 0 0 0 0 0 0 0 0 0 0 0 0 0 0 0 0 0 0 0 0 0 0 0 0 0 0 0 0 0 0 0 0 0 0 0 0 0 0 0 0 0 0 0 0 0 0 0 0 0 0 0 48 49 47 50 50 51 51 50 51 50 49 50 48 48 49 48 50 52 49 52 49 51 49 49 49 48 47 49 47 51 51 51 50 50 50 49 48 48 47 47 46 46 48 50 48 51 49 50 49 49 49 48 48 49 47 50 52 49 49 48 48 47 48 48 47 45 53 -209 -209 -193 -193 66 67 70 67 68 68 68 68 65 69 67 62 66 62 57 57 57 65 61 66 64 66 64 65 66 66 63 66 60 60 53 53 51 50 49 49 48 49 46 49 47 51 49 48 52 50 50 52 52 51 51 52 53 55 57 58 65 61 62 63 63 62 61 60 59 55 61 -193 -193 -193 -177 -193 -193 65 64 57 58 48 45 51 53 57 -193 76 80 87 81 81 -193 83 83 81 81 81 75 84 -193 48 48 49 47 48 48 49 50 55 61 -209 -193 -209 107 107 116 109 110 -193 107 107 107 -177 107 101 48 50 51 53 52 53 53 53 53 54 54 54 54 55 55 56 57 59 59 59 59 59 60 59 58 58 57 55 56 63 75 -209 -209 -193 -177 144 147 150 148 149 151 151 -177 862 863 864 -209 155 112 118 129 -193 -193 0 0 0 0 0
    0 0 0 0 0 0 0 0 0 0 0 0 0 0 0 0 0 0 0 0 0 0 0 0 0 0 0 0 0 0 0 0 0 0 0 0 0 0 0 0 0 0 0 0 0 0 0 0 0 0 0 0 0 0 0 0 0 0 0 0 0 0 0 0 0 0 0 0 0 51 51 50 53 52 52 52 51 51 50 49 50 48 49 50 49 53 54 52 54 51 52 52 53 53 53 52 53 52 54 53 52 51 50 50 50 49 49 49 48 48 48 51 52 50 52 50 51 50 50 50 49 49 50 48 51 53 49 50 50 50 48 49 49 48 46 55 -209 -209 -193 -193 67 68 70 68 68 69 69 69 66 70 68 63 67 62 58 57 56 64 60 65 64 65 64 65 66 66 63 65 60 60 54 54 51 51 50 49 48 50 47 50 47 51 50 48 52 51 51 52 53 53 53 54 55 57 58 59 65 61 62 62 62 62 61 60 60 55 63 61 -193 -193 -177 -193 -193 64 64 58 58 50 46 52 54 59 75 77 80 87 81 81 -193 82 83 81 81 81 74 83 -193 51 50 51 49 49 49 50 51 55 63 -209 -209 -209 107 107 115 109 109 -193 107 106 107 107 107 100 -193 50 51 53 52 53 54 54 53 54 54 54 54 55 55 56 57 59 59 60 59 60 60 59 58 58 57 57 56 64 75 -209 -177 -193 -177 143 146 150 149 150 -193 -193 -177 -177 -193 -193 -193 156 -193 -193 131 150 -209 0 0 0 0 0
    0 0 0 0 0 0 0 0 0 0 0 0 0 0 0 0 0 0 0 0 0 0 0 0 0 0 0 0 0 0 0 0 0 0 0 0 0 0 0 0 0 0 0 0 0 0 0 0 0 0 0 0 0 0 0 0 0 0 0 0 0 0 0 0 0 0 0 0 0 53 54 53 55 54 55 54 52 53 52 50 52 51 52 52 52 55 56 56 56 53 54 55 55 -193 -193 -209 -193 57 58 56 54 53 51 51 51 51 51 51 51 51 52 54 54 52 53 51 51 51 51 51 50 50 52 51 53 54 51 52 52 52 51 51 51 51 48 57 -209 -193 67 71 67 68 70 68 69 68 69 69 67 70 68 65 68 64 59 58 57 64 60 65 64 65 64 65 66 66 63 65 61 61 -193 54 51 51 50 50 49 50 48 50 48 52 50 48 52 52 53 54 54 54 55 56 56 59 59 60 65 61 62 62 63 62 61 61 60 56 65 62 65 65 -193 -193 64 64 64 58 59 52 47 54 55 62 76 78 80 86 81 81 83 82 83 81 81 81 74 80 -193 54 53 55 52 52 51 52 53 56 65 -209 -209 -209 108 107 114 108 108 108 107 106 106 107 106 101 101 52 52 54 53 54 55 54 54 55 55 55 55 55 56 57 57 59 59 60 59 60 60 59 58 58 57 57 57 64 75 -209 -193 -209 -177 143 147 151 150 151 -193 -193 -193 -177 -193 -193 155 157 158 -209 -193 -193 -209 0 0 0 0 0
    0 0 0 0 0 0 0 0 0 0 0 0 0 0 0 0 0 0 0 0 0 0 0 0 0 0 0 0 0 0 0 0 0 0 0 0 0 0 0 0 0 0 0 0 0 0 0 0 0 0 0 0 0 0 0 0 0 0 0 0 0 0 0 0 0 0 0 0 0 56 60 59 60 59 58 57 55 55 54 52 54 52 54 54 55 57 59 59 59 56 57 58 58 60 61 60 61 60 60 58 55 54 53 52 53 52 53 54 54 55 56 57 -193 54 55 52 52 52 52 51 51 51 54 53 55 56 53 54 54 54 53 54 54 53 53 60 -193 66 69 71 68 69 70 68 69 69 69 69 68 70 69 66 68 65 61 59 58 65 61 65 64 65 64 66 67 66 64 65 62 62 -193 -193 52 52 52 51 51 51 50 53 51 55 54 52 54 54 55 56 57 57 58 59 60 63 61 62 67 62 63 63 63 63 62 61 61 57 66 62 65 64 -193 61 63 64 63 58 59 54 49 56 56 64 76 78 79 86 81 81 83 82 82 81 81 81 74 80 79 56 56 58 55 55 53 54 55 58 68 -209 -209 -193 108 108 113 108 108 108 107 -193 -193 -193 106 102 102 54 54 55 54 54 55 55 55 55 55 55 55 56 57 57 57 59 59 60 59 60 60 59 58 58 58 57 58 65 75 -209 -209 -209 -193 144 148 152 151 152 155 154 -193 861 157 159 155 158 159 -193 -193 -209 -209 0 0 0 0 0
    0 0 0 0 0 0 0 0 0 0 0 0 0 0 0 0 0 0 0 0 0 0 0 0 0 0 0 0 0 0 0 0 0 0 0 0 0 0 0 0 0 0 0 0 0 0 0 0 0 0 0 0 0 0 0 0 0 0 0 0 0 0 0 0 0 0 0 0 0 60 67 66 67 66 62 62 59 58 -193 54 56 55 57 57 58 60 62 61 63 60 62 63 62 63 65 64 65 62 63 61 56 56 55 53 54 53 55 56 56 59 60 61 63 -193 58 -209 -193 -193 -193 52 52 53 55 55 58 59 55 56 57 57 56 57 57 56 57 62 -193 69 70 71 69 70 71 69 70 69 69 70 68 70 69 66 67 64 61 59 59 64 62 64 64 65 65 66 67 66 64 66 64 63 -193 -193 53 53 54 53 53 53 52 54 54 57 57 54 55 57 57 60 61 60 63 65 65 67 65 65 67 64 64 63 63 63 62 63 62 58 67 63 65 64 -193 61 63 63 63 58 59 56 51 58 60 67 77 79 79 86 81 81 83 82 82 81 80 80 74 80 79 58 56 59 58 55 53 54 55 60 69 -193 -209 -177 109 109 111 107 107 108 107 -193 -193 -193 -193 102 102 -193 55 56 54 55 56 56 55 56 55 55 55 56 57 57 58 59 59 59 60 60 60 59 58 58 57 57 59 65 74 -209 -209 -209 -193 145 149 153 153 153 156 155 155 -193 158 160 156 158 159 -193 -209 -177 -193 0 0 0 0 0
    0 0 0 0 0 0 0 0 0 0 0 0 0 0 0 0 0 0 0 0 0 0 0 0 0 0 0 0 0 0 0 0 0 0 0 0 0 0 0 0 0 0 0 0 0 0 0 0 0 0 0 0 0 0 0 0 0 0 0 0 0 0 0 0 0 0 0 0 0 64 70 68 68 68 65 65 61 60 -193 -193 58 -209 60 65 63 65 67 63 66 63 65 65 65 66 67 66 67 64 66 63 58 58 56 54 55 54 57 58 58 62 63 64 66 63 63 59 58 -193 -193 -193 -193 56 57 63 63 65 59 61 60 61 59 60 59 58 59 65 68 70 70 71 70 70 72 70 70 70 70 70 69 70 69 66 67 65 63 61 60 64 63 64 64 64 65 66 68 66 65 66 65 65 66 61 -209 -193 -209 55 56 55 55 56 56 59 59 56 57 59 60 65 64 64 66 68 68 69 67 67 68 66 66 65 64 64 63 64 62 59 68 63 64 63 -193 61 62 63 63 59 61 58 54 60 66 70 78 79 80 86 81 81 83 82 82 81 80 80 74 79 78 67 61 64 63 62 -193 58 56 69 71 85 -209 111 108 109 108 106 106 107 -193 -193 -193 -193 -209 102 101 -209 57 56 54 55 56 56 55 57 56 56 56 57 58 58 58 60 60 60 60 60 61 59 58 58 57 58 60 66 73 -209 -209 -209 -193 146 149 154 154 154 156 155 156 156 158 160 156 159 159 154 -209 -209 -209 0 0 0 0 0
    0 0 0 0 0 0 0 0 0 0 0 0 0 0 0 0 0 0 0 0 0 0 0 0 0 0 0 0 0 0 0 0 0 0 0 0 0 0 0 0 0 0 0 0 0 0 0 0 0 0 0 0 0 0 0 0 0 0 0 0 0 0 0 0 0 0 0 0 0 67 71 69 69 69 67 67 64 -193 -193 -193 60 -193 62 69 66 68 69 66 69 66 68 68 67 68 69 68 69 66 68 66 61 61 59 55 57 55 60 61 61 65 65 66 68 66 66 63 62 63 -193 60 -193 62 67 70 69 68 65 65 64 64 62 63 61 60 62 67 68 71 70 71 70 71 72 71 71 71 70 71 70 71 70 67 68 67 64 62 62 65 63 64 64 64 65 67 68 66 66 66 67 66 68 66 -209 -209 -193 -209 59 -193 58 59 59 60 61 58 59 61 62 68 65 65 67 69 69 70 69 69 69 68 68 67 67 65 65 66 64 60 69 64 65 64 -193 63 65 65 66 60 67 63 60 66 71 72 79 80 80 86 81 81 83 82 82 81 81 80 75 82 80 73 70 72 -193 -193 -193 70 60 70 72 85 -209 -193 108 108 104 104 105 105 -193 -193 102 102 91 100 100 -193 63 60 56 56 57 57 56 57 57 57 57 58 60 60 59 61 60 61 61 61 62 60 59 59 59 61 64 69 75 -209 -209 -209 -193 147 150 155 154 154 156 155 156 156 158 160 156 159 159 154 -193 -209 165 0 0 0 0 0
    0 0 0 0 0 0 0 0 0 0 0 0 0 0 0 0 0 0 0 0 0 0 0 0 0 0 0 0 0 0 0 0 0 0 0 0 0 0 0 0 0 0 0 0 0 0 0 0 0 0 0 0 0 0 0 0 0 0 0 0 0 0 0 0 0 0 0 0 0 69 71 70 70 70 69 69 68 68 69 64 66 67 66 70 68 70 70 69 70 69 70 69 69 69 70 69 69 68 69 68 67 68 67 58 61 58 67 66 65 67 67 67 68 67 67 65 65 67 64 67 65 68 72 72 72 71 69 69 68 68 66 67 64 62 65 68 69 71 70 71 71 72 73 73 73 72 72 73 72 72 72 69 69 68 65 62 62 64 64 64 64 65 66 68 69 67 67 67 69 69 69 68 -193 -193 66 -193 63 62 61 61 62 63 65 61 64 65 65 69 67 66 68 69 69 70 70 69 70 70 70 69 69 68 67 68 67 63 70 67 68 68 70 69 69 70 71 67 73 72 73 71 74 74 80 82 82 86 82 82 83 83 83 82 82 81 75 84 82 75 74 76 75 75 76 -193 60 71 74 86 -209 -209 108 108 103 103 103 104 104 -193 101 101 90 102 102 78 70 69 62 60 60 59 58 58 58 58 58 59 60 60 60 62 62 63 62 63 64 62 61 62 63 68 69 71 77 -209 -209 -177 -193 149 150 155 154 -193 156 155 156 156 158 159 156 160 160 155 -193 -209 165 0 0 0 0 0
    0 0 0 0 0 0 0 0 0 0 0 0 0 0 0 0 0 0 0 0 0 0 0 0 0 0 0 0 0 0 0 0 0 0 0 0 0 0 0 0 0 0 0 0 0 0 0 0 0 0 0 0 0 0 0 0 0 0 0 0 0 0 0 0 0 0 0 0 0 70 72 71 71 71 70 70 69 69 71 69 69 70 69 71 70 70 71 70 71 70 71 70 69 70 70 70 70 69 71 70 71 72 72 68 69 66 71 69 68 69 68 69 69 68 68 66 67 69 69 71 71 72 74 74 74 72 71 71 70 70 69 69 67 66 69 69 69 71 71 71 72 72 74 74 73 74 74 74 74 73 73 71 70 70 67 64 65 66 66 65 66 67 67 69 70 68 69 68 70 70 70 69 -193 64 69 -193 66 66 65 65 66 65 67 64 66 67 66 69 67 66 68 69 69 70 70 70 70 71 71 71 71 70 69 70 70 67 72 70 70 70 72 72 71 72 73 71 74 73 76 76 78 78 82 84 85 87 83 83 84 84 84 84 83 82 76 85 83 76 76 78 78 76 78 -193 62 73 -209 -209 -209 -193 108 108 102 102 103 104 103 103 101 101 91 105 106 -209 -209 74 -209 69 69 64 61 60 60 60 60 60 60 61 60 63 64 65 63 65 66 65 64 64 67 71 71 72 -209 -209 -209 -177 -193 149 151 155 -193 -193 -193 155 156 156 158 159 156 160 160 156 -193 -209 -193 0 0 0 0 0
    0 0 0 0 0 0 0 0 0 0 0 0 0 0 0 0 0 0 0 0 0 0 0 0 0 0 0 0 0 0 0 0 0 0 0 0 0 0 0 0 0 0 0 0 0 0 0 0 0 0 0 0 0 0 0 0 0 0 0 0 0 0 0 0 0 0 0 0 0 69 71 70 70 71 70 70 70 70 71 69 70 71 70 71 70 70 71 70 72 71 71 71 70 70 71 71 71 70 71 -209 -193 -193 -193 -209 -193 73 74 72 70 70 69 69 69 69 69 68 69 72 72 74 76 75 -193 -193 -193 -193 73 72 71 71 71 70 69 68 71 71 70 72 71 71 -193 73 75 74 74 74 75 75 75 74 73 71 71 71 70 67 68 67 68 68 68 68 68 69 69 68 69 67 70 70 70 69 -193 68 70 -193 69 69 68 -193 -193 67 67 65 66 67 67 69 67 66 68 69 69 69 70 70 70 72 72 72 72 72 72 72 72 70 73 71 72 72 73 73 73 73 74 73 75 74 81 83 85 84 86 -193 88 -193 85 85 85 85 85 85 84 83 77 85 83 77 77 79 81 77 83 -209 -209 -193 -193 -193 -193 111 108 108 102 102 102 103 103 103 101 102 93 106 109 -193 -209 -209 -209 -193 -209 -193 65 -193 66 67 63 61 62 62 61 64 65 67 66 68 69 68 69 67 69 72 72 -209 -209 -209 -209 152 152 150 151 155 154 -193 156 155 156 156 158 158 156 160 160 155 -193 -209 -193 0 0 0 0 0
    0 0 0 0 0 0 0 0 0 0 0 0 0 0 0 0 0 0 0 0 0 0 0 0 0 0 0 0 0 0 0 0 0 0 0 0 0 0 0 0 0 0 0 0 0 0 0 0 0 0 0 0 0 0 0 0 0 0 0 0 0 0 0 0 0 0 0 0 0 68 71 69 70 70 69 69 68 68 71 68 70 71 70 71 71 70 72 70 -193 72 72 -209 -193 70 -193 -209 -209 69 -209 -209 -209 -193 77 -209 -193 76 76 73 71 71 69 69 69 68 69 68 70 72 -193 -193 -193 -209 381 -193 388 -209 -209 -209 -193 70 70 70 69 69 72 72 71 72 72 72 -193 73 75 75 74 75 76 75 76 74 -193 -209 72 72 71 69 70 68 70 69 69 69 69 69 70 68 69 68 70 -209 -209 -193 -193 71 72 -209 -209 -209 -209 -209 -209 69 69 68 67 68 67 69 66 66 69 69 69 70 70 70 70 73 73 73 73 75 74 75 75 73 75 73 74 74 75 74 75 75 76 75 78 77 88 92 91 -193 -193 106 105 107 86 86 87 87 86 86 85 84 79 87 86 80 80 84 85 86 -193 109 110 112 111 112 113 111 108 109 102 101 102 103 103 103 102 103 94 107 111 108 -209 -209 -209 -209 -209 -209 -209 -209 -209 -209 -209 -193 66 67 65 67 68 70 70 72 74 74 74 -193 72 77 84 -209 -209 -209 -209 151 151 151 152 -193 153 153 155 155 155 155 157 157 155 160 159 -209 -209 -209 -209 0 0 0 0 0
    0 0 0 0 0 0 0 0 0 0 0 0 0 0 0 0 0 0 0 0 0 0 0 0 0 0 0 0 0 0 0 0 0 0 0 0 0 0 0 0 0 0 0 0 0 0 0 0 0 0 0 0 0 0 0 0 0 0 0 0 0 0 0 0 0 0 0 0 0 -193 -193 -193 -193 -193 -193 68 66 66 70 -193 69 72 -193 -193 -209 -209 -209 -209 -209 -209 -209 -209 -209 -209 -209 -209 -209 -209 -209 -209 -209 -209 82 -193 -193 83 80 76 72 71 70 69 68 68 69 67 69 -209 -209 547 -209 -209 382 383 -193 -209 -209 -193 -193 -209 -209 -193 -193 -193 71 72 72 72 -193 -193 -177 -193 78 78 76 78 78 78 79 -193 -193 -177 -209 -193 -209 -193 -193 -193 69 68 70 70 69 69 70 68 70 -193 -209 -209 -209 -209 -209 72 73 -209 -193 -209 -193 -193 -209 -209 -209 -209 -193 -193 67 69 67 66 69 69 70 70 71 71 71 74 74 74 74 76 76 77 78 76 80 77 80 80 81 77 77 81 82 81 87 -193 93 102 105 -193 107 107 108 109 108 -193 -193 88 88 88 87 85 83 90 93 87 -193 -193 -193 104 107 113 112 113 112 113 113 112 109 109 102 102 102 103 103 104 103 103 96 107 112 110 107 -209 -193 108 107 107 109 109 115 116 118 118 -193 -193 -209 -193 74 78 78 79 83 83 83 79 -193 -193 -193 109 -209 -209 -209 151 151 151 151 -193 152 152 154 154 154 155 155 156 155 158 -209 -209 -209 -209 -209 0 0 0 0 0
    0 0 0 0 0 0 0 0 0 0 0 0 0 0 0 0 0 0 0 0 0 0 0 0 0 0 0 0 0 0 0 0 0 0 0 0 0 0 0 0 0 0 0 0 0 0 0 0 0 0 0 0 0 0 0 0 0 0 0 0 0 0 0 0 0 0 0 0 0 109 -193 -209 -209 -209 -209 66 63 63 69 -209 -209 79 -209 -209 104 112 114 118 -193 116 -193 -193 -193 -209 -209 -193 -209 -209 -209 108 -209 -209 -193 84 86 88 85 82 73 72 70 69 68 68 69 67 70 -209 -209 -209 -209 -209 -209 -193 -209 -209 -209 -209 -209 -209 -209 -193 -209 639 -209 -209 -193 -193 -193 -209 -177 -209 -193 -209 -209 -193 83 -193 83 -209 -209 -209 -209 110 117 116 115 114 -193 112 -193 -193 69 -193 -193 -209 -209 -209 -209 -193 -209 -193 114 -209 -209 -209 -193 -193 -193 -193 -209 -209 -209 -209 -209 -193 -209 69 68 66 69 69 70 70 71 71 71 74 75 75 74 78 79 82 83 -193 -193 107 -193 108 -209 -209 84 87 88 87 97 -193 100 105 107 106 108 108 110 111 110 106 -193 -193 105 105 -193 88 88 99 105 106 108 108 107 107 109 115 113 114 113 113 114 113 110 111 103 102 103 104 104 105 104 105 -209 108 113 111 108 109 108 110 109 109 111 111 116 116 118 117 115 115 118 -209 -193 79 -193 77 -193 -193 -193 -209 -193 -193 107 112 -193 -209 150 151 149 149 151 151 151 151 153 153 153 154 154 154 154 -193 -209 -209 -209 -209 -209 0 0 0 0 0
    0 0 0 0 0 0 0 0 0 0 0 0 0 0 0 0 0 0 0 0 0 0 0 0 0 0 0 0 0 0 0 0 0 0 0 0 0 0 0 0 0 0 0 0 0 0 0 0 0 0 0 0 0 0 0 0 0 0 0 0 0 0 0 0 0 0 0 0 0 110 -193 -209 -209 -209 -209 -193 -209 60 69 -209 -209 93 -193 104 107 112 114 117 115 116 118 117 119 117 113 114 112 112 111 110 110 108 -193 -193 97 99 -193 -209 -193 75 71 69 69 69 -193 -193 -209 -209 -209 -209 -193 -193 -209 -193 114 112 112 109 110 -209 -209 -209 -193 639 -193 105 -209 107 -193 115 112 -209 -209 -209 -209 -209 -209 -209 -209 -209 -209 112 112 110 116 115 114 113 111 110 115 111 -209 -209 -209 -209 -209 -193 -209 112 115 114 114 113 110 112 -193 -193 -193 -193 -193 -193 -193 -209 115 -193 -193 114 68 67 69 69 70 70 70 70 71 74 75 75 75 81 83 -193 -193 107 109 109 108 109 108 108 -209 102 104 98 103 106 103 108 109 108 110 109 112 112 111 109 107 107 107 107 108 105 101 105 107 109 110 110 108 108 110 115 113 114 114 114 115 115 111 114 106 104 105 106 106 106 106 107 106 109 114 111 109 110 109 111 109 109 111 113 116 116 118 117 115 115 117 117 -209 -209 -209 -209 -209 -209 -193 -193 -193 110 108 113 118 -193 -177 151 148 148 150 149 149 150 152 152 152 153 153 153 155 -193 -209 -193 487 -193 -209 0 0 0 0 0
    0 0 0 0 0 0 0 0 0 0 0 0 0 0 0 0 0 0 0 0 0 0 0 0 0 0 0 0 0 0 0 0 0 0 0 0 0 0 0 0 0 0 0 0 0 0 0 0 0 0 0 0 0 0 0 0 0 0 0 0 0 0 0 0 0 0 0 0 0 110 112 113 -209 -209 -209 428 -209 -209 -209 -209 -209 105 107 106 108 112 114 116 114 115 116 116 118 117 113 113 112 113 113 111 111 109 107 108 105 -193 -209 -209 -193 -209 78 -209 -209 -193 947 -209 -209 -193 -209 -193 112 116 113 112 115 112 113 110 111 110 108 108 109 -193 107 106 109 110 111 115 113 113 108 110 114 -193 108 109 -209 111 115 113 113 111 116 115 114 113 111 109 113 109 111 109 110 -193 112 111 112 111 114 114 114 113 110 112 115 114 113 114 -193 -193 -193 116 116 114 -193 116 -193 -193 70 69 70 70 70 70 71 73 74 74 75 82 86 -209 106 108 110 109 108 109 109 109 106 105 106 105 105 108 105 110 110 109 111 110 113 113 112 110 109 109 109 109 110 107 105 108 109 110 111 112 110 111 112 115 113 115 114 115 116 116 114 116 111 107 109 109 109 110 109 110 108 111 115 113 111 112 111 113 111 111 112 114 116 116 118 116 114 114 116 116 116 114 116 114 110 115 115 114 109 110 108 112 116 -209 -177 150 147 146 150 148 148 149 151 151 151 152 151 151 154 -193 -209 -193 -193 -177 -209 0 0 0 0 0
    0 0 0 0 0 0 0 0 0 0 0 0 0 0 0 0 0 0 0 0 0 0 0 0 0 0 0 0 0 0 0 0 0 0 0 0 0 0 0 0 0 0 0 0 0 0 0 0 0 0 0 0 0 0 0 0 0 0 0 0 0 0 0 0 0 0 0 0 0 111 113 113 -209 -209 -209 -193 -209 -209 -209 -209 108 107 109 108 109 112 114 116 113 114 115 114 116 116 113 113 112 113 113 112 112 110 108 109 107 107 -209 -209 -193 -209 -209 -209 -193 -193 -193 114 117 -193 -193 114 113 116 114 113 115 112 113 110 112 111 109 109 110 108 109 106 110 111 112 115 114 113 110 111 114 110 109 111 109 111 115 113 114 111 115 115 114 113 111 109 111 109 110 108 109 112 110 110 111 111 113 114 113 113 111 113 115 114 113 114 114 114 115 115 115 114 113 116 114 110 -193 -209 70 70 69 69 70 72 73 74 74 84 -209 110 108 109 111 110 109 110 110 110 106 107 107 106 107 109 107 112 111 110 112 111 115 114 112 112 111 111 111 111 112 108 108 113 111 113 114 114 113 114 115 116 113 115 114 115 115 116 115 116 115 112 114 114 114 114 113 114 112 112 115 114 114 114 114 116 114 113 114 116 117 117 118 115 114 114 116 116 115 114 115 114 111 114 114 113 109 109 108 111 115 -209 -177 150 145 144 149 146 147 148 150 150 149 151 150 148 154 -209 -209 -193 -209 -209 -177 0 0 0 0 0
    0 0 0 0 0 0 0 0 0 0 0 0 0 0 0 0 0 0 0 0 0 0 0 0 0 0 0 0 0 0 0 0 0 0 0 0 0 0 0 0 0 0 0 0 0 0 0 0 0 0 0 0 0 0 0 0 0 0 0 0 0 0 0 0 0 0 0 0 0 112 114 114 114 -193 -193 -193 -193 115 -193 -193 109 109 109 109 110 113 113 116 113 114 115 114 116 116 113 113 113 113 113 112 112 110 108 110 108 107 107 106 -193 -193 -193 -193 110 116 114 114 115 117 116 114 112 116 113 112 115 112 114 111 112 112 110 110 111 108 110 107 112 112 113 116 114 114 111 112 114 111 110 111 109 111 115 112 113 111 114 114 113 112 111 109 111 109 110 109 109 112 110 111 111 112 113 114 113 113 111 113 115 114 113 114 113 113 114 113 113 112 111 114 111 109 111 109 110 110 -193 67 69 71 71 72 72 86 -193 -177 110 111 112 111 110 110 111 110 107 108 108 107 108 110 108 112 111 111 113 112 116 114 113 113 113 113 114 113 114 110 112 116 115 115 116 116 116 117 117 117 115 115 115 115 115 116 115 116 117 116 117 117 117 117 116 115 114 112 115 114 115 115 115 118 117 117 117 118 118 118 118 115 114 114 116 116 115 115 116 116 114 116 116 114 111 111 109 113 116 -209 -177 150 143 143 149 145 146 147 149 149 148 150 149 144 154 -209 -209 -193 -209 -177 -177 0 0 0 0 0
    0 0 0 0 0 0 0 0 0 0 0 0 0 0 0 0 0 0 0 0 0 0 0 0 0 0 0 0 0 0 0 0 0 0 0 0 0 0 0 0 0 0 0 0 0 0 0 0 0 0 0 0 0 0 0 0 0 0 0 0 0 0 0 0 0 0 0 0 0 114 115 115 114 -193 -193 -193 -193 115 113 111 110 111 110 110 111 113 114 116 113 115 115 114 116 116 112 112 112 113 112 112 113 111 108 111 110 109 109 110 109 107 -193 -193 113 116 115 114 114 117 -193 113 111 116 113 112 115 112 114 111 113 112 111 111 111 109 111 108 114 113 115 117 115 114 112 113 114 111 111 112 109 112 115 112 113 111 113 113 113 112 111 109 111 110 110 110 109 112 111 111 111 112 112 114 113 113 111 113 115 114 112 113 113 112 113 113 112 111 110 113 110 109 111 109 110 111 111 111 -193 109 -193 112 -193 -193 -193 115 112 112 113 111 111 111 111 111 108 108 109 108 108 109 108 111 111 111 113 113 116 114 113 114 114 114 115 114 114 110 114 117 116 116 117 116 117 119 119 119 117 117 117 117 118 119 118 118 119 119 119 119 119 119 118 117 117 115 117 117 118 118 119 122 122 120 120 121 119 119 118 114 113 113 115 116 116 117 117 118 117 119 118 117 115 113 112 115 119 -209 -177 150 143 143 148 144 145 147 147 148 146 149 148 142 153 -209 -209 -193 -209 -177 -177 0 0 0 0 0
    0 0 0 0 0 0 0 0 0 0 0 0 0 0 0 0 0 0 0 0 0 0 0 0 0 0 0 0 0 0 0 0 0 0 0 0 0 0 0 0 0 0 0 0 0 0 0 0 0 0 0 0 0 0 0 0 0 0 0 0 0 0 0 0 0 0 0 0 0 115 116 115 115 -193 -193 -193 -193 116 114 112 112 111 111 111 114 115 116 118 116 117 117 115 116 116 112 112 112 112 112 111 113 111 108 113 112 111 112 114 111 109 -193 596 -209 -193 114 113 114 116 116 112 110 115 112 111 115 112 114 111 113 113 111 111 112 109 112 109 115 114 115 117 115 114 113 113 114 111 111 112 109 112 115 112 113 112 113 113 113 112 112 110 112 111 111 111 110 113 112 112 112 112 112 114 112 113 111 113 114 114 112 113 112 112 112 112 111 111 109 112 109 109 111 110 110 111 110 110 110 111 113 114 113 111 111 117 113 112 113 111 111 111 111 111 108 109 109 108 109 109 108 111 111 112 113 112 117 113 113 113 113 113 114 114 114 110 115 117 116 117 117 117 118 120 120 121 120 121 120 121 120 121 120 120 121 120 120 121 120 120 119 118 118 117 119 120 120 120 122 123 123 122 121 121 119 119 118 114 113 115 117 117 117 119 118 120 119 120 120 118 116 114 113 116 121 -193 140 149 142 142 148 144 144 146 147 147 145 148 148 141 153 -209 -209 -193 -209 -209 -177 0 0 0 0 0
    0 0 0 0 0 0 0 0 0 0 0 0 0 0 0 0 0 0 0 0 0 0 0 0 0 0 0 0 0 0 0 0 0 0 0 0 0 0 0 0 0 0 0 0 0 0 0 0 0 0 0 0 0 0 0 0 0 0 0 0 0 0 0 0 0 0 0 0 0 115 116 116 116 117 -193 -193 -193 -193 115 112 -177 111 112 112 116 117 118 120 -193 -193 -193 117 118 117 114 113 113 113 113 112 114 112 110 115 115 115 116 119 114 112 589 596 -209 -193 115 114 114 117 -193 113 111 116 113 112 115 112 114 112 113 113 111 112 113 110 113 110 116 115 116 117 116 115 113 113 114 112 112 113 109 112 115 113 113 112 113 114 113 113 112 110 112 112 111 111 110 114 112 112 112 113 113 114 113 113 111 114 115 115 112 113 112 111 112 111 111 110 109 112 109 109 111 110 110 111 109 109 109 111 113 114 114 113 112 117 114 112 113 111 110 110 110 110 108 109 109 109 110 111 109 112 112 113 114 113 117 113 112 113 113 113 114 114 114 110 116 118 117 117 118 117 119 121 122 122 122 124 125 125 123 124 123 122 122 121 121 121 120 121 120 119 119 119 121 122 122 123 124 125 125 124 123 124 122 122 121 117 116 118 119 119 119 121 120 122 121 122 121 121 118 116 115 118 127 138 140 149 142 142 148 144 144 146 146 147 145 148 148 141 153 153 -209 -209 -193 -177 -193 0 0 0 0 0
    0 0 0 0 0 0 0 0 0 0 0 0 0 0 0 0 0 0 0 0 0 0 0 0 0 0 0 0 0 0 0 0 0 0 0 0 0 0 0 0 0 0 0 0 0 0 0 0 0 0 0 0 0 0 0 0 0 0 0 0 0 0 0 0 0 0 0 0 0 115 117 115 117 -209 -209 -193 -209 116 117 -193 114 115 117 117 -193 121 121 123 -193 -193 124 121 121 120 116 116 115 115 115 115 116 115 114 119 119 119 121 123 119 118 -209 -193 -209 -209 -209 -193 -193 118 -193 -193 114 117 115 114 117 114 115 113 114 113 112 113 114 111 114 111 117 116 117 118 117 116 114 114 115 113 113 114 110 112 116 113 113 113 114 114 114 113 113 111 114 114 112 113 113 115 114 114 114 114 114 116 114 114 112 115 115 115 113 113 112 111 112 111 111 111 109 113 110 111 113 112 112 113 111 110 110 111 113 114 114 113 113 117 113 112 113 111 110 110 110 110 108 110 110 111 113 114 113 116 115 116 116 115 118 114 112 113 113 113 115 115 114 111 116 118 118 118 118 118 119 123 124 124 124 127 129 128 127 127 125 124 124 121 121 121 121 121 120 120 120 121 123 124 125 126 127 126 127 128 127 127 125 124 123 120 118 120 120 120 120 122 121 123 122 123 123 123 122 121 121 124 133 139 140 149 142 142 148 144 144 146 146 147 144 148 147 141 153 152 -209 -209 -209 -177 162 0 0 0 0 0
    0 0 0 0 0 0 0 0 0 0 0 0 0 0 0 0 0 0 0 0 0 0 0 0 0 0 0 0 0 0 0 0 0 0 0 0 0 0 0 0 0 0 0 0 0 0 0 0 0 0 0 0 0 0 0 0 0 0 0 0 0 0 0 0 0 0 0 0 0 117 -209 -193 -209 -193 -209 123 124 119 122 120 123 119 123 121 127 126 124 128 127 127 129 124 123 122 118 118 117 116 117 117 118 118 118 121 123 122 124 126 125 124 127 125 -193 -193 -209 -209 -193 -193 -209 -193 -193 120 117 116 118 116 117 115 115 114 113 114 114 111 115 112 118 117 119 119 118 118 116 116 116 114 115 116 113 115 117 115 114 115 116 116 116 116 115 114 117 117 115 116 116 118 117 117 117 117 116 118 116 115 113 116 116 116 113 114 112 112 113 112 112 113 110 117 115 116 118 116 117 116 114 114 113 113 115 116 115 115 114 117 113 112 112 111 110 110 110 111 108 111 112 114 118 118 118 119 119 119 119 118 119 115 113 114 114 114 115 115 114 111 116 118 118 118 118 118 121 124 126 126 126 129 130 130 129 128 126 125 124 121 121 121 121 121 121 121 121 122 126 126 128 128 129 128 128 129 129 128 127 126 125 122 123 123 122 122 121 123 121 124 124 124 125 125 125 126 126 130 134 138 139 147 142 142 147 143 144 146 145 146 144 147 147 141 151 151 -209 142 -209 -209 162 0 0 0 0 0
    0 0 0 0 0 0 0 0 0 0 0 0 0 0 0 0 0 0 0 0 0 0 0 0 0 0 0 0 0 0 0 0 0 0 0 0 0 0 0 0 0 0 0 0 0 0 0 0 0 0 0 0 0 0 0 0 0 0 0 0 0 0 0 0 0 0 0 0 0 -209 -193 -209 -209 -193 127 127 130 128 127 130 131 127 133 130 134 132 129 132 130 130 131 127 125 124 119 119 119 118 119 120 121 120 121 124 126 125 127 128 129 128 130 127 -193 -193 -193 -209 -193 128 -209 -209 -193 125 121 119 120 118 118 116 117 115 114 115 115 112 116 114 119 118 121 120 119 119 118 118 117 117 117 118 117 118 118 117 116 118 119 119 118 118 118 118 120 121 119 119 120 121 120 120 120 120 119 120 118 117 116 117 117 117 114 115 113 113 114 114 114 116 115 121 121 121 123 121 122 120 119 118 117 117 118 118 117 117 116 117 114 112 112 111 111 110 110 111 109 114 115 117 121 122 122 123 122 122 121 121 122 116 114 115 115 115 116 115 114 111 117 119 119 119 119 119 122 126 126 126 127 129 130 130 129 127 125 126 126 122 123 123 122 122 122 123 123 123 127 126 128 128 129 128 128 129 129 128 128 127 127 124 126 125 125 123 122 124 122 125 126 125 126 126 127 130 131 132 135 138 139 147 142 142 147 143 144 146 145 146 144 147 147 142 150 150 -193 143 -209 -209 162 0 0 0 0 0
    0 0 0 0 0 0 0 0 0 0 0 0 0 0 0 0 0 0 0 0 0 0 0 0 0 0 0 0 0 0 0 0 0 0 0 0 0 0 0 0 0 0 0 0 0 0 0 0 0 0 0 0 0 0 0 0 0 0 0 0 0 0 0 0 0 0 0 0 0 -193 -193 -209 125 127 130 130 132 133 133 135 135 135 136 134 136 134 133 134 131 132 132 130 128 127 122 122 120 119 120 122 123 123 124 127 129 127 130 130 130 128 130 128 128 128 132 -193 132 130 135 129 132 129 126 122 123 120 120 118 118 116 115 116 116 113 117 116 -193 -209 122 122 121 120 119 119 119 118 119 120 -193 120 119 119 118 119 121 121 120 121 121 122 123 125 123 123 125 124 124 123 122 123 122 123 120 119 118 119 118 118 115 116 115 116 117 116 117 -193 121 124 125 124 125 124 125 125 123 122 122 120 121 121 121 119 119 119 116 114 113 111 111 110 111 111 111 116 117 119 125 124 126 125 125 124 123 123 124 117 116 116 117 117 117 116 116 114 119 120 120 120 120 121 123 127 127 127 128 130 130 130 130 127 126 129 128 125 128 127 125 125 127 127 125 126 128 126 127 128 129 127 127 128 129 127 129 128 129 127 131 129 127 124 124 125 125 128 128 127 130 131 132 133 134 134 136 139 139 147 142 142 147 143 144 146 146 147 144 147 147 142 149 149 142 143 -193 -209 162 0 0 0 0 0
    0 0 0 0 0 0 0 0 0 0 0 0 0 0 0 0 0 0 0 0 0 0 0 0 0 0 0 0 0 0 0 0 0 0 0 0 0 0 0 0 0 0 0 0 0 0 0 0 0 0 0 0 0 0 0 0 0 0 0 0 0 0 0 0 0 0 0 0 0 130 126 125 128 130 131 131 132 133 134 136 136 136 137 135 137 135 134 134 132 132 133 132 130 129 126 126 123 123 125 126 126 127 128 130 131 130 132 131 131 129 130 129 129 129 132 133 133 131 135 132 134 131 129 126 125 123 122 120 120 118 117 117 117 114 117 -193 -209 -209 122 122 122 122 121 121 122 122 122 123 122 122 121 121 121 121 124 123 123 124 125 125 125 128 126 125 128 127 126 125 125 125 124 125 123 120 120 120 119 119 117 118 -193 -193 -193 -193 121 125 124 127 128 127 127 126 127 127 125 125 125 123 124 123 123 122 121 121 118 116 115 112 112 111 112 113 114 119 120 121 129 126 128 127 127 126 125 125 126 119 118 117 119 119 119 118 117 116 120 121 121 120 121 121 125 128 128 128 129 130 131 131 131 128 129 132 132 131 134 134 132 132 133 133 131 131 131 126 128 128 129 127 127 128 129 128 131 130 132 131 133 131 129 127 127 127 128 131 131 131 133 134 134 135 135 135 136 140 140 148 143 143 147 144 144 147 146 146 144 147 147 142 148 148 141 143 -193 -209 161 0 0 0 0 0
    0 0 0 0 0 0 0 0 0 0 0 0 0 0 0 0 0 0 0 0 0 0 0 0 0 0 0 0 0 0 0 0 0 0 0 0 0 0 0 0 0 0 0 0 0 0 0 0 0 0 0 0 0 0 0 0 0 0 0 0 0 0 0 0 0 0 0 0 0 132 130 129 131 131 132 131 132 133 134 136 137 137 137 135 137 135 134 135 133 132 133 132 132 131 129 130 127 128 131 132 131 132 132 133 133 132 133 132 132 130 131 130 130 131 133 133 133 132 134 132 134 132 131 129 128 125 125 123 123 120 119 119 119 117 119 -193 -193 -193 123 122 125 125 124 124 126 126 127 127 126 125 125 125 123 124 128 125 126 128 128 128 128 130 128 127 130 129 128 128 127 127 126 127 125 122 122 121 120 121 120 -193 -193 -193 -193 124 126 130 127 129 130 129 128 128 129 128 126 127 126 125 126 125 125 124 123 122 121 119 119 117 117 115 115 117 119 122 123 123 131 127 128 128 128 127 126 126 126 122 121 120 121 121 121 120 119 119 121 122 122 121 121 122 126 127 127 127 129 130 130 131 130 128 130 133 132 132 135 136 135 135 136 137 136 136 135 128 129 129 131 129 128 129 131 130 133 133 136 135 135 135 133 133 133 132 132 133 133 133 134 136 135 136 136 136 136 140 141 148 143 143 148 144 145 147 146 146 144 146 146 141 147 147 141 143 -193 -209 160 0 0 0 0 0
    0 0 0 0 0 0 0 0 0 0 0 0 0 0 0 0 0 0 0 0 0 0 0 0 0 0 0 0 0 0 0 0 0 0 0 0 0 0 0 0 0 0 0 0 0 0 0 0 0 0 0 0 0 0 0 0 0 0 0 0 0 0 0 0 0 0 0 0 0 133 131 131 132 132 132 132 132 133 134 136 136 137 137 135 136 135 135 135 133 133 133 133 133 132 132 133 132 133 135 134 134 134 134 134 133 132 134 132 132 130 131 131 130 131 133 133 133 132 134 133 134 133 132 131 130 128 128 126 127 123 122 123 122 121 122 -193 123 123 125 124 128 127 130 128 131 131 131 130 130 129 129 129 127 128 131 128 128 131 130 130 130 131 130 128 132 130 130 130 129 129 128 129 127 124 126 123 122 124 124 126 -193 130 131 128 130 132 129 131 130 130 129 128 129 128 126 128 127 125 126 126 126 126 125 124 124 123 125 123 123 122 121 122 124 125 125 124 131 127 128 128 127 127 126 126 126 123 123 122 123 123 122 122 122 122 122 123 123 121 122 122 127 126 127 126 129 129 130 130 130 127 131 133 133 133 136 137 136 136 137 138 138 138 137 128 129 129 131 130 130 130 132 132 135 136 139 138 138 138 137 137 137 136 136 135 135 136 136 138 136 138 138 138 137 141 141 148 143 144 148 144 145 147 146 146 144 146 146 141 146 146 140 142 -193 -209 158 0 0 0 0 0
    0 0 0 0 0 0 0 0 0 0 0 0 0 0 0 0 0 0 0 0 0 0 0 0 0 0 0 0 0 0 0 0 0 0 0 0 0 0 0 0 0 0 0 0 0 0 0 0 0 0 0 0 0 0 0 0 0 0 0 0 0 0 0 0 0 0 0 0 0 133 130 131 132 132 132 132 132 133 134 136 137 137 137 135 136 135 135 135 134 133 133 133 133 133 133 134 133 134 135 135 134 135 135 134 133 133 133 131 131 129 130 130 130 130 132 132 132 132 134 132 134 133 132 132 131 130 130 129 130 126 125 126 124 123 124 124 124 125 127 126 131 130 132 132 133 133 132 132 131 130 130 131 129 130 132 129 130 132 131 131 131 132 130 128 132 130 130 130 130 130 129 130 128 124 129 124 124 127 126 129 128 132 132 130 131 133 130 131 131 130 129 128 129 128 127 128 127 126 127 127 127 127 127 126 127 126 128 127 126 125 124 125 126 126 125 125 131 127 128 128 127 127 127 127 127 124 125 123 126 124 124 124 125 124 124 124 125 123 123 124 129 127 127 127 129 129 130 130 130 127 132 134 134 134 137 138 138 137 138 138 138 140 139 128 130 129 132 131 130 131 132 133 136 137 141 140 140 141 140 140 140 139 139 137 137 137 136 139 138 138 139 139 138 142 142 147 143 144 148 145 145 147 146 147 145 147 146 142 146 145 141 143 148 -209 156 0 0 0 0 0
    0 0 0 0 0 0 0 0 0 0 0 0 0 0 0 0 0 0 0 0 0 0 0 0 0 0 0 0 0 0 0 0 0 0 0 0 0 0 0 0 0 0 0 0 0 0 0 0 0 0 0 0 0 0 0 0 0 0 0 0 0 0 0 0 0 0 0 0 0 132 129 130 131 131 131 131 131 132 133 136 136 136 136 135 136 135 136 135 134 133 134 134 133 133 133 133 133 134 135 135 134 134 134 134 133 133 133 131 131 129 130 130 130 130 132 132 132 132 133 132 134 133 132 131 131 130 130 130 131 127 127 128 126 124 125 124 123 124 127 127 131 130 133 132 133 133 132 131 130 130 130 131 129 130 133 130 130 132 131 131 131 132 130 128 132 130 129 130 130 129 128 129 128 124 131 -193 125 128 128 130 129 132 132 130 131 133 130 131 131 130 129 128 129 128 127 129 127 126 127 126 127 128 127 126 128 128 129 128 127 127 125 127 128 127 126 125 130 127 128 127 127 126 126 127 127 124 126 125 128 126 126 127 128 127 126 126 125 124 124 125 131 128 127 127 129 129 130 130 130 127 133 135 134 135 138 138 138 138 138 139 139 141 141 130 131 131 132 131 130 131 132 133 136 137 141 140 140 142 141 141 141 140 141 139 138 138 137 139 139 139 140 140 141 145 144 148 144 146 148 145 146 148 147 147 146 147 146 142 146 145 141 143 -193 -193 155 0 0 0 0 0
    0 0 0 0 0 0 0 0 0 0 0 0 0 0 0 0 0 0 0 0 0 0 0 0 0 0 0 0 0 0 0 0 0 0 0 0 0 0 0 0 0 0 0 0 0 0 0 0 0 0 0 0 0 0 0 0 0 0 0 0 0 0 0 0 0 0 0 0 0 132 129 130 131 131 130 131 131 132 133 135 135 136 136 135 136 135 136 136 134 133 134 134 133 133 133 133 133 133 135 135 134 135 134 134 134 133 133 131 131 129 130 130 130 130 132 132 132 132 133 132 133 133 132 131 131 130 131 131 132 129 128 130 127 124 126 124 123 123 125 126 130 129 131 132 133 133 132 131 130 129 130 130 128 129 132 129 130 132 131 131 130 132 130 127 132 129 129 129 129 129 128 128 128 -193 130 -193 125 129 128 130 129 132 131 129 131 132 129 130 130 129 129 128 129 128 127 129 127 126 127 127 128 128 127 126 127 127 129 129 127 127 125 126 128 127 126 126 130 127 128 127 127 126 127 127 127 125 128 126 130 128 128 129 130 128 128 126 126 124 125 125 132 128 127 127 129 129 130 129 130 126 133 134 134 135 138 138 139 139 139 140 140 142 143 136 135 135 135 136 135 133 134 136 142 141 144 142 141 143 142 143 143 142 143 141 141 140 139 141 142 142 143 143 145 147 146 148 146 147 148 146 146 148 147 147 146 147 146 143 146 146 141 144 -193 -193 155 0 0 0 0 0
    0 0 0 0 0 0 0 0 0 0 0 0 0 0 0 0 0 0 0 0 0 0 0 0 0 0 0 0 0 0 0 0 0 0 0 0 0 0 0 0 0 0 0 0 0 0 0 0 0 0 0 0 0 0 0 0 0 0 0 0 0 0 0 0 0 0 0 0 0 133 130 131 131 131 131 132 132 133 133 136 136 136 -193 135 136 135 136 136 134 133 134 134 133 133 133 133 133 133 135 135 134 135 135 134 134 133 133 132 131 130 130 130 130 130 131 132 132 132 133 131 133 133 131 131 131 131 131 131 132 130 128 131 128 124 127 124 122 123 124 124 128 127 131 132 133 133 132 131 130 130 130 131 128 130 132 129 130 132 131 131 130 132 130 127 132 129 129 129 128 128 127 128 127 -193 -193 -193 126 130 129 131 129 132 131 129 130 132 129 130 130 129 128 128 129 128 126 129 128 126 127 127 128 129 128 127 128 128 130 129 127 127 125 127 128 127 126 126 130 127 128 128 127 127 127 127 127 125 128 127 130 129 128 129 130 128 128 126 126 124 125 126 133 127 127 127 129 128 130 129 130 126 133 134 134 135 138 138 139 140 140 141 142 144 144 139 140 141 143 148 145 -193 143 150 150 148 148 145 143 146 145 146 146 145 146 144 145 146 145 147 148 147 148 148 149 149 148 149 148 147 148 146 147 148 147 147 147 147 146 143 147 146 141 145 -193 -209 156 0 0 0 0 0
    0 0 0 0 0 0 0 0 0 0 0 0 0 0 0 0 0 0 0 0 0 0 0 0 0 0 0 0 0 0 0 0 0 0 0 0 0 0 0 0 0 0 0 0 0 0 0 0 0 0 0 0 0 0 0 0 0 0 0 0 0 0 0 0 0 0 0 0 0 133 131 132 132 132 133 133 134 134 134 -193 -193 -193 -209 136 136 135 136 136 134 134 134 134 133 133 133 133 133 133 135 135 134 135 135 135 134 134 134 133 132 131 131 131 130 131 131 132 131 132 133 131 133 133 131 131 131 131 131 131 132 130 129 132 129 124 128 125 123 124 124 124 128 126 131 133 133 133 132 132 131 130 131 131 129 131 133 130 130 132 131 131 130 132 130 127 132 129 129 129 128 128 127 128 127 -193 -193 -209 128 132 130 131 130 132 131 129 130 132 129 130 130 129 128 128 128 128 126 129 127 126 127 127 129 130 129 129 129 130 130 130 128 128 125 127 128 126 125 126 129 127 128 127 127 126 127 127 127 125 128 128 131 129 129 130 130 128 128 126 125 123 124 124 133 127 127 127 128 128 130 129 130 126 134 134 134 135 137 138 140 140 141 141 143 145 145 142 145 146 149 150 151 152 153 153 152 150 150 147 144 147 146 147 148 147 148 146 148 149 149 150 151 150 151 150 151 150 150 150 149 148 149 147 147 148 148 148 148 147 147 144 147 146 142 147 151 -209 157 0 0 0 0 0
    0 0 0 0 0 0 0 0 0 0 0 0 0 0 0 0 0 0 0 0 0 0 0 0 0 0 0 0 0 0 0 0 0 0 0 0 0 0 0 0 0 0 0 0 0 0 0 0 0 0 0 0 0 0 0 0 0 0 0 0 0 0 0 0 0 0 0 0 0 134 132 133 134 134 135 135 135 135 135 -193 -193 -193 -209 -209 -209 -209 -193 137 -193 134 134 134 133 133 133 133 132 132 135 135 134 136 135 136 135 136 136 135 133 132 132 132 131 132 131 132 130 131 132 130 132 133 131 132 132 131 131 131 133 130 129 132 130 125 130 128 128 129 127 125 129 125 131 133 133 132 131 131 131 130 131 132 130 132 133 130 130 132 131 131 130 131 129 126 132 129 129 129 128 128 127 128 128 -193 -193 -209 -193 134 131 133 131 132 131 129 129 131 128 130 130 129 128 128 128 128 126 128 127 125 126 126 128 131 129 129 129 130 130 129 127 128 125 127 127 125 124 126 128 127 127 126 126 125 126 127 127 126 129 129 132 131 131 131 131 129 128 125 125 123 123 123 133 126 126 126 128 128 130 129 130 126 134 134 134 135 137 137 139 140 141 142 144 146 145 144 147 148 151 151 152 152 153 153 153 150 150 146 144 147 146 147 148 147 149 147 149 151 150 151 152 151 152 151 152 151 151 150 150 148 149 147 148 149 148 148 148 147 147 145 147 147 143 148 152 155 157 0 0 0 0 0
    0 0 0 0 0 0 0 0 0 0 0 0 0 0 0 0 0 0 0 0 0 0 0 0 0 0 0 0 0 0 0 0 0 0 0 0 0 0 0 0 0 0 0 0 0 0 0 0 0 0 0 0 0 0 0 0 0 0 0 0 0 0 0 0 0 0 0 0 0 135 133 134 135 135 136 136 137 137 -209 -193 -193 -193 -193 -193 -209 -209 -209 139 -209 -193 -193 135 133 134 134 133 133 132 135 134 134 136 136 136 136 136 136 135 134 133 132 133 131 132 132 133 130 131 132 130 133 134 132 132 132 132 132 132 133 132 130 133 132 128 134 135 135 -193 -209 -209 -193 125 -193 -209 -193 133 -193 -193 132 131 133 133 131 133 134 130 130 132 131 130 130 131 129 126 132 129 129 130 128 128 128 128 129 -193 -193 -209 -177 -209 133 134 131 133 131 129 129 131 128 130 130 128 128 128 128 128 126 129 128 125 127 127 130 133 131 131 131 130 131 130 128 128 125 127 127 125 124 126 127 126 126 126 126 125 126 127 127 127 130 130 133 132 133 133 132 129 128 126 125 123 122 121 134 126 126 126 127 128 129 129 130 125 134 134 134 134 137 138 140 141 142 142 144 147 146 145 148 148 150 150 151 151 152 153 152 150 150 147 145 148 147 147 149 148 149 149 150 151 151 152 153 152 153 152 153 152 152 151 150 148 149 148 148 149 149 149 149 147 148 147 148 147 144 149 153 155 157 0 0 0 0 0
    0 0 0 0 0 0 0 0 0 0 0 0 0 0 0 0 0 0 0 0 0 0 0 0 0 0 0 0 0 0 0 0 0 0 0 0 0 0 0 0 0 0 0 0 0 0 0 0 0 0 0 0 0 0 0 0 0 0 0 0 0 0 0 0 0 0 0 0 0 -209 134 135 137 138 140 141 140 141 140 143 146 147 -209 -193 -209 -209 -209 142 -209 -193 -209 -209 -193 134 134 133 132 131 134 134 133 136 135 136 136 138 137 136 134 135 134 134 133 134 133 -193 132 134 133 133 134 135 133 134 134 133 133 133 134 133 131 134 133 129 136 137 139 147 -209 -209 149 -209 151 156 149 -209 -209 -193 -193 132 134 -209 131 133 134 130 131 132 131 131 130 132 131 127 134 131 130 131 130 129 129 -193 130 -193 -209 -193 -193 -209 -193 -193 132 132 130 129 129 131 128 130 130 129 129 129 129 129 127 130 129 126 -193 -193 137 137 135 135 135 132 132 130 128 128 125 127 127 125 124 126 126 127 126 126 126 125 126 127 128 129 131 132 133 134 134 134 134 131 130 129 128 127 123 121 135 128 127 128 128 128 130 130 130 126 135 135 135 135 137 138 140 141 142 142 145 147 146 146 148 149 151 150 151 151 153 153 153 151 151 148 147 149 148 148 150 148 150 149 151 151 151 152 154 152 153 152 153 152 152 151 151 148 149 148 149 149 149 149 150 148 149 148 149 148 146 150 154 156 157 0 0 0 0 0
    0 0 0 0 0 0 0 0 0 0 0 0 0 0 0 0 0 0 0 0 0 0 0 0 0 0 0 0 0 0 0 0 0 0 0 0 0 0 0 0 0 0 0 0 0 0 0 0 0 0 0 0 0 0 0 0 0 0 0 0 0 0 0 0 0 0 0 0 0 -193 -209 -209 144 147 147 151 149 150 150 150 152 152 152 152 152 153 -193 149 -209 -193 -209 -209 -209 -193 -193 134 -193 132 134 -193 133 136 -193 138 138 140 141 137 136 139 136 137 -193 -193 -209 -209 -209 -209 135 135 135 136 135 135 135 134 134 134 134 134 131 134 133 130 137 141 151 154 153 -193 154 -193 154 156 154 -209 -209 -209 -209 -209 -209 -209 -193 133 134 130 131 132 132 131 131 133 133 130 135 133 133 133 132 131 -193 -193 -193 -193 -193 -209 -193 153 158 -193 -193 -193 131 130 130 132 130 132 132 131 131 131 130 131 129 132 133 -209 -193 -193 144 146 143 140 141 135 135 131 129 128 125 126 127 126 124 127 127 128 127 127 127 126 127 129 130 132 134 134 136 136 137 136 136 135 134 137 140 142 141 140 141 131 131 131 130 130 131 131 131 127 136 136 136 136 137 138 140 142 144 144 146 148 148 148 149 150 152 151 152 152 153 153 154 153 152 149 149 151 150 150 151 149 150 150 151 152 152 153 154 152 153 153 153 152 152 151 151 148 148 148 148 149 149 149 150 147 150 150 151 151 150 152 158 158 161 0 0 0 0 0
    0 0 0 0 0 0 0 0 0 0 0 0 0 0 0 0 0 0 0 0 0 0 0 0 0 0 0 0 0 0 0 0 0 0 0 0 0 0 0 0 0 0 0 0 0 0 0 0 0 0 0 0 0 0 0 0 0 0 0 0 0 0 0 0 0 0 0 0 0 158 -193 154 -193 152 151 153 152 153 153 153 155 154 155 154 154 155 154 153 155 -193 -193 -193 -209 -209 -209 -193 -209 133 -193 -209 -209 -193 -209 143 -193 147 151 -209 139 150 145 145 -209 -193 -209 -193 -193 -209 -209 147 146 148 138 137 137 136 136 136 135 135 132 134 134 130 144 -193 155 158 158 159 156 157 156 157 156 156 156 -193 -193 -193 -209 -209 -209 134 135 131 131 132 133 132 132 134 -209 -209 -193 -193 -209 -209 -209 -209 -209 -209 -209 -177 -193 -209 -209 153 157 156 -193 -193 132 132 132 134 133 135 134 134 134 134 133 133 -193 134 -209 -209 -193 -209 151 152 151 150 -193 143 144 134 131 131 126 129 129 128 126 130 130 131 130 130 130 129 131 133 134 135 137 137 139 140 142 140 139 139 138 149 147 149 147 147 147 135 135 135 133 133 133 132 132 128 137 137 137 137 137 138 141 143 146 145 147 149 149 149 150 151 152 152 153 153 153 153 154 154 153 153 153 154 154 154 156 152 152 152 152 153 152 153 154 153 153 153 154 153 153 153 152 149 149 148 149 149 149 149 149 146 151 151 153 154 154 155 161 161 164 0 0 0 0 0
    0 0 0 0 0 0 0 0 0 0 0 0 0 0 0 0 0 0 0 0 0 0 0 0 0 0 0 0 0 0 0 0 0 0 0 0 0 0 0 0 0 0 0 0 0 0 0 0 0 0 0 0 0 0 0 0 0 0 0 0 0 0 0 0 0 0 0 0 0 158 156 155 153 153 152 153 153 154 154 155 156 156 157 156 156 157 156 155 156 -209 -209 -209 -209 -209 -209 -209 -193 -209 -209 -209 -193 -193 -209 151 153 153 154 154 151 154 154 153 154 153 -209 -193 -193 158 157 154 156 154 150 145 143 140 139 139 136 137 134 135 -209 -209 154 155 157 159 159 160 157 159 157 158 157 157 157 157 -193 -193 154 -193 -209 136 136 132 132 132 134 134 135 -209 -209 -209 154 157 -193 -209 -209 -193 -209 -209 -209 -209 -193 -193 -209 153 157 155 156 157 -193 -193 134 135 136 138 137 136 137 138 137 -193 -209 136 143 -209 -193 -193 152 153 -193 -193 -193 153 151 -209 -193 -193 -209 -209 -209 -209 -193 133 133 134 132 132 133 132 135 136 137 139 141 141 142 145 148 143 142 141 142 151 150 151 150 149 149 142 139 139 136 136 135 134 134 130 138 138 138 138 138 140 142 146 148 147 148 149 150 150 151 151 152 151 153 153 153 153 154 153 153 155 155 157 159 162 165 158 155 155 153 155 154 155 155 153 154 154 154 154 154 153 152 148 149 149 149 149 150 150 150 147 154 154 156 158 156 159 163 164 165 0 0 0 0 0
    0 0 0 0 0 0 0 0 0 0 0 0 0 0 0 0 0 0 0 0 0 0 0 0 0 0 0 0 0 0 0 0 0 0 0 0 0 0 0 0 0 0 0 0 0 0 0 0 0 0 0 0 0 0 0 0 0 0 0 0 0 0 0 0 0 0 0 0 0 159 158 157 155 155 154 154 154 156 156 157 158 157 158 158 158 159 157 157 157 155 155 154 155 -193 153 -209 -209 -209 155 158 -193 -193 155 154 154 155 155 156 154 155 155 155 155 155 155 155 155 160 157 156 158 155 153 151 151 150 148 148 -193 142 139 -209 -193 -193 156 156 157 159 157 159 158 160 158 159 158 158 157 158 156 156 154 154 151 150 146 135 135 134 136 -209 -209 -193 -209 154 155 157 156 155 154 -193 154 154 154 -209 -209 154 154 154 156 155 156 157 158 157 -193 140 147 144 141 141 140 142 142 141 143 140 148 -193 152 154 153 153 153 152 153 153 152 -209 -193 84 -209 -193 -193 -193 -209 -193 -193 -209 135 135 136 135 140 142 144 144 148 149 149 150 151 149 148 147 -193 152 151 152 151 151 151 150 145 145 140 140 139 137 137 135 140 141 142 141 141 143 145 147 149 148 149 150 151 150 151 151 152 151 152 152 153 152 154 154 153 155 156 159 162 164 167 164 160 160 158 158 157 157 157 154 154 154 155 155 154 154 153 149 150 150 151 151 152 152 152 152 155 157 159 161 158 161 164 165 165 0 0 0 0 0
    0 0 0 0 0 0 0 0 0 0 0 0 0 0 0 0 0 0 0 0 0 0 0 0 0 0 0 0 0 0 0 0 0 0 0 0 0 0 0 0 0 0 0 0 0 0 0 0 0 0 0 0 0 0 0 0 0 0 0 0 0 0 0 0 0 0 0 0 0 160 160 159 158 157 156 156 156 158 157 159 159 158 159 159 159 160 158 158 157 156 157 156 157 158 157 159 158 159 158 160 158 157 156 156 156 157 157 157 155 157 156 156 156 156 155 156 156 160 156 156 159 156 155 153 153 153 152 153 153 150 150 153 155 156 157 157 158 159 157 159 158 160 159 160 158 159 158 159 157 157 155 155 153 154 153 -209 141 -209 -193 -209 154 155 155 155 156 158 157 156 155 155 156 156 155 155 154 154 155 154 157 155 156 157 158 158 157 151 152 149 146 147 146 148 148 148 150 149 151 156 154 155 154 154 154 153 154 154 153 153 -193 -193 -193 157 159 -193 156 154 155 153 -193 140 144 141 148 150 151 150 153 152 153 153 153 152 152 150 -193 153 151 152 152 151 152 151 150 149 145 147 146 145 143 142 145 148 148 147 147 147 147 148 150 149 150 151 152 150 151 151 152 151 152 152 152 151 154 154 153 155 156 160 163 166 168 167 165 165 165 162 158 158 158 154 154 155 155 155 155 155 154 151 152 152 153 153 153 153 154 154 156 157 161 163 159 162 164 164 165 0 0 0 0 0
    0 0 0 0 0 0 0 0 0 0 0 0 0 0 0 0 0 0 0 0 0 0 0 0 0 0 0 0 0 0 0 0 0 0 0 0 0 0 0 0 0 0 0 0 0 0 0 0 0 0 0 0 0 0 0 0 0 0 0 0 0 0 0 0 0 0 0 0 0 161 161 161 159 158 158 158 157 159 158 160 159 159 160 159 159 160 159 159 157 157 158 157 159 160 159 160 159 160 159 161 159 159 158 157 157 158 158 158 156 157 156 156 157 156 156 156 156 160 156 156 160 156 156 155 155 155 154 154 154 153 154 155 157 157 158 158 159 160 157 159 158 160 159 159 158 159 158 159 157 158 156 156 155 155 155 -193 -209 154 154 158 155 157 157 157 156 159 158 157 156 156 156 156 156 156 154 155 155 155 157 155 156 157 159 158 157 153 153 151 150 150 149 150 151 151 152 152 152 157 154 155 155 154 154 155 155 155 153 155 -193 -193 -193 158 159 157 157 156 157 155 154 151 153 151 153 152 153 152 154 154 154 154 154 153 153 152 -193 153 152 152 151 151 152 152 151 151 149 150 150 151 150 150 150 151 151 150 151 150 149 150 151 151 151 151 152 151 152 152 152 151 152 152 152 150 154 154 153 155 157 161 165 168 169 169 167 169 169 165 162 160 158 155 154 155 155 156 156 156 154 152 154 154 154 155 154 155 155 156 157 158 162 163 159 162 162 164 164 0 0 0 0 0
    0 0 0 0 0 0 0 0 0 0 0 0 0 0 0 0 0 0 0 0 0 0 0 0 0 0 0 0 0 0 0 0 0 0 0 0 0 0 0 0 0 0 0 0 0 0 0 0 0 0 0 0 0 0 0 0 0 0 0 0 0 0 0 0 0 0 0 0 0 160 160 160 159 158 158 158 158 159 158 161 159 159 160 160 159 160 159 159 158 158 160 158 160 160 159 160 159 159 159 160 159 159 158 157 157 159 158 159 156 158 156 157 157 156 155 156 155 159 156 156 161 156 157 156 156 156 155 156 156 154 156 157 157 158 158 158 158 159 157 158 158 160 159 159 158 159 158 159 157 158 156 157 156 157 156 157 155 157 156 160 157 158 157 157 157 159 158 157 156 157 157 156 157 156 155 155 156 155 156 156 156 156 158 156 156 153 153 151 151 151 150 151 151 151 152 152 152 157 154 155 155 155 155 155 155 155 153 155 154 157 159 158 159 157 157 157 158 156 155 153 154 153 154 153 153 153 155 155 155 154 155 154 154 154 154 153 152 152 152 151 152 152 152 152 150 151 152 152 152 153 153 153 152 152 152 151 151 151 151 151 151 152 153 152 152 152 152 152 152 152 152 151 154 155 154 158 160 162 166 168 170 171 169 170 170 168 166 163 160 156 155 156 156 156 156 156 154 153 156 155 155 156 155 156 158 158 161 160 164 164 160 162 162 164 164 0 0 0 0 0
    0 0 0 0 0 0 0 0 0 0 0 0 0 0 0 0 0 0 0 0 0 0 0 0 0 0 0 0 0 0 0 0 0 0 0 0 0 0 0 0 0 0 0 0 0 0 0 0 0 0 0 0 0 0 0 0 0 0 0 0 0 0 0 0 0 0 0 0 0 159 159 160 159 158 158 158 158 160 158 161 160 159 160 160 160 160 159 160 158 158 160 158 160 161 159 160 159 159 158 159 158 158 157 157 156 158 158 158 156 157 155 156 157 157 155 156 156 160 156 156 162 157 157 157 157 157 156 157 157 155 158 158 158 158 158 157 158 158 156 157 157 159 158 158 158 159 158 159 158 159 157 158 157 158 157 158 156 158 157 160 157 158 158 157 157 158 157 157 156 157 156 156 157 156 155 155 155 155 156 155 156 156 157 155 154 153 153 151 151 151 150 150 151 151 152 152 153 158 154 155 155 155 155 155 155 156 153 155 154 157 158 157 158 156 157 157 158 156 155 153 154 153 154 153 153 153 155 155 156 155 156 155 155 155 154 154 153 152 152 152 152 152 152 152 151 152 153 153 153 154 154 153 153 153 153 152 152 152 152 152 152 152 154 152 152 153 152 152 152 153 153 151 154 157 155 161 163 164 167 169 171 172 170 171 171 169 169 166 162 157 156 158 157 157 158 158 156 155 159 156 157 158 157 159 161 162 164 163 165 165 162 163 163 165 165 0 0 0 0 0
    0 0 0 0 0 0 0 0 0 0 0 0 0 0 0 0 0 0 0 0 0 0 0 0 0 0 0 0 0 0 0 0 0 0 0 0 0 0 0 0 0 0 0 0 0 0 0 0 0 0 0 0 0 0 0 0 0 0 0 0 0 0 0 0 0 0 0 0 0 159 160 160 159 158 158 158 158 160 158 161 160 160 161 160 160 161 159 160 158 158 160 159 161 161 159 160 159 159 158 159 158 158 157 157 156 158 157 158 155 156 155 156 157 157 156 156 156 160 157 157 162 157 158 157 157 157 156 157 157 155 158 158 158 158 158 157 158 157 157 156 157 159 158 158 158 159 158 159 158 160 158 159 158 158 157 158 156 157 156 159 156 158 158 157 156 158 157 157 156 157 156 156 157 156 155 155 155 155 156 155 156 155 156 154 154 153 153 151 151 151 150 150 151 151 152 152 154 160 155 156 156 155 155 156 156 156 153 155 154 156 157 156 158 156 157 156 157 156 155 154 154 153 153 153 153 153 155 155 155 155 155 155 155 155 154 153 152 152 152 152 152 152 153 153 152 152 153 153 153 154 154 153 153 153 153 152 153 152 153 152 152 152 154 152 152 152 152 152 152 153 153 151 154 158 156 161 163 164 166 169 171 172 170 171 171 169 170 167 164 160 158 160 160 160 160 160 159 158 163 159 159 161 159 161 164 164 165 165 167 166 164 165 165 166 166 0 0 0 0 0
    0 0 0 0 0 0 0 0 0 0 0 0 0 0 0 0 0 0 0 0 0 0 0 0 0 0 0 0 0 0 0 0 0 0 0 0 0 0 0 0 0 0 0 0 0 0 0 0 0 0 0 0 0 0 0 0 0 0 0 0 0 0 0 0 0 0 0 0 0 158 159 159 159 158 157 158 158 159 158 161 161 160 161 161 161 161 159 160 158 158 160 159 161 161 159 161 159 159 158 159 157 158 156 157 156 158 157 158 156 157 155 157 157 157 156 157 157 161 157 157 163 157 158 158 157 157 156 157 157 154 157 157 157 157 158 157 158 158 157 156 157 159 159 158 158 159 158 160 159 160 158 159 159 158 157 158 156 157 155 158 155 157 157 156 156 158 157 157 156 157 156 156 157 156 155 155 155 155 155 155 155 154 156 154 154 153 153 151 151 151 151 150 152 151 152 153 154 161 155 156 156 155 155 156 155 156 153 155 154 156 157 156 158 156 156 156 157 156 154 154 154 153 153 153 153 153 155 155 155 155 155 155 155 155 154 153 153 152 152 152 152 152 153 152 151 152 152 152 152 153 153 153 153 153 154 153 153 152 153 152 152 152 153 151 152 152 152 151 151 152 152 150 154 158 157 162 164 164 166 168 171 172 171 171 171 170 170 168 165 163 159 162 163 163 164 164 164 164 166 163 163 163 160 163 165 166 166 166 168 167 165 166 166 166 166 0 0 0 0 0
    0 0 0 0 0 0 0 0 0 0 0 0 0 0 0 0 0 0 0 0 0 0 0 0 0 0 0 0 0 0 0 0 0 0 0 0 0 0 0 0 0 0 0 0 0 0 0 0 0 0 0 0 0 0 0 0 0 0 0 0 0 0 0 0 0 0 0 0 0 157 158 159 158 157 156 157 157 158 157 161 160 160 161 161 161 162 160 161 158 158 160 159 160 161 159 161 159 159 159 159 157 158 156 157 156 157 157 157 155 157 155 157 158 157 157 158 158 161 157 158 163 158 158 158 157 157 156 157 157 154 157 157 156 156 157 157 157 157 157 156 157 158 158 158 158 159 158 160 159 161 159 160 159 159 157 158 155 156 154 157 155 156 156 156 156 157 157 157 155 157 156 156 157 157 155 155 155 155 155 154 155 154 155 153 153 153 153 151 151 151 150 150 152 151 152 153 155 161 155 156 155 155 155 155 155 155 153 154 153 156 156 156 158 156 156 156 156 156 154 154 154 153 153 153 153 154 155 155 156 155 155 155 155 154 154 153 153 152 152 152 152 152 153 152 151 151 152 152 152 153 153 153 153 153 154 153 153 152 153 152 152 152 153 151 151 151 151 150 151 152 152 151 154 159 159 162 164 164 166 167 169 171 170 171 170 170 170 168 167 166 162 164 164 165 167 166 166 166 167 165 164 164 162 164 166 167 167 167 168 169 168 169 168 168 165 0 0 0 0 0
    0 0 0 0 0 0 0 0 0 0 0 0 0 0 0 0 0 0 0 0 0 0 0 0 0 0 0 0 0 0 0 0 0 0 0 0 0 0 0 0 0 0 0 0 0 0 0 0 0 0 0 0 0 0 0 0 0 0 0 0 0 0 0 0 0 0 0 0 0 156 157 158 158 157 157 158 158 158 158 161 160 160 161 161 161 161 160 161 158 158 160 160 160 161 159 161 159 159 159 159 157 159 157 157 156 157 157 157 155 157 156 157 158 157 157 158 157 161 157 157 162 157 158 158 157 157 156 157 157 154 157 157 156 156 156 156 157 156 156 155 156 158 158 158 158 159 158 161 160 162 160 161 160 159 157 158 155 156 154 157 154 155 156 155 155 157 156 157 155 157 157 156 158 157 156 156 156 156 156 155 155 154 155 153 153 153 152 151 151 151 150 149 152 151 152 154 156 161 156 156 155 155 155 155 154 154 153 153 152 155 155 155 156 155 155 155 155 156 154 154 154 153 153 153 153 154 155 155 156 155 155 154 154 154 153 153 153 152 152 152 152 152 152 152 151 151 152 152 152 153 154 154 154 154 154 154 153 153 153 153 152 152 152 151 151 151 151 151 151 152 153 153 155 161 161 164 165 165 166 166 169 171 170 171 170 170 170 169 169 169 163 165 165 166 167 166 167 166 166 166 165 165 163 165 167 168 168 168 169 171 170 171 170 170 167 0 0 0 0 0
    0 0 0 0 0 0 0 0 0 0 0 0 0 0 0 0 0 0 0 0 0 0 0 0 0 0 0 0 0 0 0 0 0 0 0 0 0 0 0 0 0 0 0 0 0 0 0 0 0 0 0 0 0 0 0 0 0 0 0 0 0 0 0 0 0 0 0 0 0 155 156 157 158 157 157 158 158 158 158 161 160 159 161 160 160 160 159 160 157 158 160 160 160 161 159 161 159 159 159 159 157 159 157 158 157 157 157 157 156 157 156 158 158 158 157 158 158 160 157 157 162 157 158 158 158 157 156 157 157 154 157 157 156 156 156 156 157 156 156 154 155 158 158 158 158 160 159 163 161 163 161 162 161 160 158 158 155 156 153 156 154 155 155 155 155 156 156 157 155 157 157 157 158 158 156 156 156 156 156 155 155 155 155 153 153 153 152 151 151 151 150 149 152 151 152 154 156 159 155 155 155 155 155 155 154 154 153 153 153 154 154 154 155 155 155 155 155 156 155 155 155 154 153 153 153 154 154 155 155 154 155 154 154 154 153 153 153 152 152 152 152 152 152 152 151 151 152 153 153 153 154 154 154 154 154 154 154 153 154 153 152 152 152 152 152 152 152 151 151 153 154 154 155 162 163 165 165 165 166 166 169 171 170 171 171 171 171 171 171 171 169 168 168 169 170 171 169 172 174 179 182 169 168 167 170 171 169 170 171 171 171 172 172 171 171 0 0 0 0 0
    0 0 0 0 0 0 0 0 0 0 0 0 0 0 0 0 0 0 0 0 0 0 0 0 0 0 0 0 0 0 0 0 0 0 0 0 0 0 0 0 0 0 0 0 0 0 0 0 0 0 0 0 0 0 0 0 0 0 0 0 0 0 0 0 0 0 0 0 0 155 155 155 157 157 156 158 158 158 157 160 160 159 160 160 160 160 159 160 157 158 160 160 159 161 159 161 159 160 160 159 157 159 157 158 157 158 157 157 156 158 156 158 158 158 158 159 158 160 157 157 162 158 158 158 158 157 156 158 157 154 157 157 156 155 155 155 155 155 155 154 155 158 158 158 159 161 160 163 162 163 161 162 161 160 158 158 156 156 -193 -193 154 155 155 155 155 156 155 156 155 157 157 157 158 158 157 157 157 157 156 155 156 155 155 154 154 153 152 151 151 151 150 149 152 151 152 153 155 157 155 155 155 155 154 154 154 154 153 153 153 154 154 154 155 155 155 155 155 157 155 155 155 154 153 153 152 153 153 154 154 154 154 153 153 154 153 153 153 152 151 152 152 152 152 152 151 151 151 152 -193 153 154 154 154 154 154 155 155 154 154 154 152 152 152 -193 152 152 152 152 152 153 154 154 155 163 164 165 165 165 165 166 169 170 170 171 171 172 172 173 173 172 172 173 174 178 181 186 185 186 186 186 186 184 183 174 178 174 171 171 173 172 171 172 172 172 173 0 0 0 0 0</data></disparity>
</opencv_storage>
