<?xml version="1.0"?>
<opencv_storage>
<gps_time_stamp>24705</gps_time_stamp>
<gps_x>-4.6011538505554199e+000</gps_x>
<gps_y>5.6365758180618286e-001</gps_y>
<gps_z>-8.5555416345596313e-001</gps_z>
<image_time_stamp>12667</image_time_stamp>
<disparity type_id="opencv-matrix">
  <rows>79</rows>
  <cols>320</cols>
  <dt>s</dt>
  <data>
    0 0 0 0 0 0 0 0 0 0 0 0 0 0 0 0 0 0 0 0 0 0 0 0 0 0 0 0 0 0 0 0 0 0 0 0 0 0 0 0 0 0 0 0 0 0 0 0 0 0 0 0 0 0 0 0 0 0 0 0 0 0 0 0 0 0 0 0 0 241 241 241 242 242 241 242 244 243 244 245 245 243 242 244 243 242 243 242 242 241 242 242 238 238 239 237 239 239 239 239 239 240 240 240 242 242 242 243 244 245 247 249 248 246 245 243 242 238 239 238 235 236 237 239 238 237 239 237 236 240 242 243 242 242 242 240 239 239 238 238 237 236 239 239 243 243 243 243 243 245 244 242 243 240 241 241 240 240 239 238 238 238 238 239 240 242 242 242 245 246 246 246 246 245 244 243 242 240 240 238 237 238 238 241 241 242 245 244 243 244 243 243 241 243 242 241 241 242 240 242 243 242 239 242 245 243 242 243 241 239 241 242 240 239 240 239 240 240 240 240 239 241 239 239 242 239 241 241 242 241 243 240 241 239 240 240 242 240 241 242 244 244 245 245 244 244 245 244 242 243 241 241 241 240 238 237 237 237 238 239 241 242 244 245 246 247 247 248 247 248 248 248 249 249 250 249 248 250 249 247 247 247 243 239 235 236 236 237 239 239 238 -193 241 244 243 244 243 242 241 242 243 243 241 243 243 242 244 246 246 247 247 246 246 246 246 0 0 0 0 0
    0 0 0 0 0 0 0 0 0 0 0 0 0 0 0 0 0 0 0 0 0 0 0 0 0 0 0 0 0 0 0 0 0 0 0 0 0 0 0 0 0 0 0 0 0 0 0 0 0 0 0 0 0 0 0 0 0 0 0 0 0 0 0 0 0 0 0 0 0 241 241 241 243 242 241 241 244 242 243 244 244 242 242 244 243 242 242 241 241 239 240 241 237 237 237 236 238 237 238 238 238 240 240 241 242 242 242 243 244 245 247 248 248 246 244 -193 -193 237 238 237 235 236 237 238 237 236 238 237 236 239 241 241 241 241 241 239 238 238 237 237 236 236 239 239 243 243 243 243 243 245 244 241 242 240 240 240 239 238 238 237 236 236 237 238 239 241 242 242 245 247 247 248 247 246 244 244 243 242 241 239 237 238 238 242 243 244 246 244 243 245 244 245 242 244 243 241 242 242 241 243 -193 242 238 242 246 243 242 243 241 239 241 242 240 238 240 239 240 239 240 240 239 241 240 240 243 240 242 242 243 241 242 239 240 238 239 240 242 240 241 242 244 244 245 245 244 244 245 244 242 242 240 241 240 240 239 239 239 239 240 241 244 245 245 246 246 247 248 249 248 248 249 249 249 249 251 250 249 251 250 249 249 249 247 242 235 237 236 239 240 241 240 -193 -193 -209 -209 244 243 241 241 242 242 242 239 241 242 -193 -209 -209 245 246 246 245 246 246 246 0 0 0 0 0
    0 0 0 0 0 0 0 0 0 0 0 0 0 0 0 0 0 0 0 0 0 0 0 0 0 0 0 0 0 0 0 0 0 0 0 0 0 0 0 0 0 0 0 0 0 0 0 0 0 0 0 0 0 0 0 0 0 0 0 0 0 0 0 0 0 0 0 0 0 240 241 240 242 242 241 241 244 242 243 244 245 242 242 244 243 242 242 241 240 238 239 240 236 236 235 235 236 236 236 237 236 239 239 241 241 241 241 242 244 245 246 247 247 245 244 242 -193 237 238 237 235 235 236 236 236 235 236 235 234 237 240 240 240 241 241 239 238 238 237 236 235 236 239 239 243 244 244 243 245 246 245 241 242 240 239 238 237 237 236 235 234 235 236 237 238 241 241 242 245 247 248 249 249 -193 246 246 245 244 243 241 238 238 239 243 246 247 248 245 245 246 245 246 243 244 243 241 242 242 242 243 -193 242 236 242 245 243 243 242 241 239 241 242 240 238 240 238 240 239 240 240 239 241 240 240 244 241 243 243 244 242 242 238 239 237 238 239 241 238 239 241 244 245 245 245 245 244 245 244 243 242 240 241 240 241 240 239 240 240 241 242 244 245 245 246 246 247 248 249 248 248 249 248 249 249 251 252 250 253 253 253 253 253 253 250 243 246 241 245 243 244 243 244 245 -209 -209 -209 -193 -193 -193 -193 -193 241 239 241 -209 12 -209 -209 -209 -209 -209 245 246 247 248 0 0 0 0 0
    0 0 0 0 0 0 0 0 0 0 0 0 0 0 0 0 0 0 0 0 0 0 0 0 0 0 0 0 0 0 0 0 0 0 0 0 0 0 0 0 0 0 0 0 0 0 0 0 0 0 0 0 0 0 0 0 0 0 0 0 0 0 0 0 0 0 0 0 0 239 240 240 242 242 241 241 244 243 243 245 245 243 243 244 244 242 241 240 240 238 239 240 236 236 234 235 236 236 236 236 235 238 238 241 240 241 240 241 243 244 246 248 247 245 245 -193 -209 237 239 238 236 235 236 236 236 234 236 235 234 237 239 240 240 241 241 240 239 238 237 236 236 236 240 242 243 245 245 245 246 247 246 242 243 241 238 236 235 233 -193 -209 231 233 235 236 237 241 242 243 247 249 251 250 252 -209 -209 247 245 245 243 241 237 238 237 243 246 247 249 245 245 246 246 246 243 245 243 241 242 241 242 -193 -193 240 232 242 246 244 243 241 241 238 240 242 239 238 239 238 240 239 240 240 239 241 239 240 244 241 -193 243 244 242 242 238 238 236 236 237 239 236 238 240 244 246 245 246 246 246 247 245 243 241 239 239 239 239 239 238 239 239 241 242 245 247 246 246 246 248 248 249 248 248 249 248 249 249 253 255 252 256 255 256 259 257 257 253 250 251 248 251 249 247 -193 246 247 -209 -209 -209 -209 -193 -193 -193 -209 -209 -209 -209 0 14 19 -209 -209 -209 -209 -209 -209 -209 -209 0 0 0 0 0
    0 0 0 0 0 0 0 0 0 0 0 0 0 0 0 0 0 0 0 0 0 0 0 0 0 0 0 0 0 0 0 0 0 0 0 0 0 0 0 0 0 0 0 0 0 0 0 0 0 0 0 0 0 0 0 0 0 0 0 0 0 0 0 0 0 0 0 0 0 -177 -177 -193 240 241 241 242 245 243 244 245 246 244 244 245 245 244 241 241 241 239 239 241 236 236 234 235 235 235 236 236 234 237 236 238 236 240 239 242 244 245 246 249 247 247 246 -209 -209 -193 238 237 234 234 -225 -225 -225 -225 -225 -225 -225 -225 -225 -225 -225 -225 241 240 239 239 237 236 235 238 243 244 244 246 247 247 249 248 247 244 245 240 237 234 233 -193 -193 230 230 -209 -193 -193 238 244 245 -193 251 254 -225 -225 -225 -193 -209 -209 244 244 241 240 236 237 237 242 -193 -209 -209 -193 245 247 -193 247 244 245 243 242 243 243 245 -209 -177 -193 231 249 249 249 247 243 241 238 240 242 239 238 238 236 239 238 240 240 239 240 238 240 244 -193 -193 243 243 242 242 240 240 237 235 237 240 236 238 -193 244 246 -225 -225 -225 -225 -225 -225 -225 243 239 239 239 239 238 237 238 238 242 244 246 248 247 247 247 248 248 249 249 249 249 248 248 249 254 259 254 260 258 259 261 261 261 259 252 254 251 256 258 258 -209 -209 -209 -209 -209 -209 -209 -209 -209 -209 -209 -209 -209 -193 0 10 15 -209 -177 -193 -209 -209 68 -209 -209 0 0 0 0 0
    0 0 0 0 0 0 0 0 0 0 0 0 0 0 0 0 0 0 0 0 0 0 0 0 0 0 0 0 0 0 0 0 0 0 0 0 0 0 0 0 0 0 0 0 0 0 0 0 0 0 0 0 0 0 0 0 0 0 0 0 0 0 0 0 0 0 0 0 0 -225 -225 -225 -225 -225 -225 -225 -225 246 247 247 -225 -225 245 247 247 246 244 244 245 243 242 244 236 235 231 231 230 230 -193 -193 231 -225 -225 -225 -225 -225 -225 -225 -225 -225 -225 -225 -225 -193 -209 -209 -225 -225 -225 -225 -225 -225 -225 -225 -225 -225 -225 -225 -225 -225 -225 -225 -225 -225 -225 -225 -225 -225 -225 231 233 237 246 242 242 244 245 246 248 -193 -193 239 242 -209 -209 -209 -209 955 -193 -193 -225 -225 -225 -225 -225 -225 -225 -225 -225 -225 -225 -225 -225 -225 -225 -225 -225 -225 -225 -225 -225 -225 -225 -225 -225 -225 -193 -193 -177 -209 -193 -209 245 246 244 243 244 -225 -225 -225 -225 -193 827 -193 -225 -193 -193 -209 -209 237 239 -193 -193 236 236 235 237 237 239 239 239 241 -225 242 -225 -225 -225 245 245 244 243 242 242 238 236 238 -225 -225 -225 -225 -225 -225 -225 -225 -225 -225 -225 -225 -225 -225 -225 -225 -225 -225 -193 -193 236 237 242 245 248 249 248 247 248 249 249 249 249 250 250 248 249 249 256 261 258 262 260 260 262 262 262 260 254 256 254 259 261 264 270 -209 -209 -209 -209 -209 -209 -209 -209 -209 -209 -209 -209 0 0 0 12 14 0 -209 -209 -209 -193 -209 -209 0 0 0 0 0
    0 0 0 0 0 0 0 0 0 0 0 0 0 0 0 0 0 0 0 0 0 0 0 0 0 0 0 0 0 0 0 0 0 0 0 0 0 0 0 0 0 0 0 0 0 0 0 0 0 0 0 0 0 0 0 0 0 0 0 0 0 0 0 0 0 0 0 0 0 -225 -225 -225 -225 -225 -225 -225 -225 -225 -225 -225 -225 -225 -225 -225 -225 -225 -225 -225 -193 -193 -193 -209 -193 -225 -225 -225 -225 -225 -225 -225 -225 -225 -225 -225 -225 -225 -225 -225 -225 -225 -225 -225 -225 -225 -225 -225 -225 -225 -225 -225 -225 -225 -225 -225 -225 -225 -225 -225 -225 -225 -225 -225 -225 -225 -225 -225 -225 -225 -225 -225 -225 -225 -225 239 242 244 244 246 -209 -209 -225 -193 -225 -225 -225 -225 -225 -225 -225 -225 -225 -225 -225 -225 -225 -225 -225 -225 -225 -225 -225 -225 -225 -225 -225 -225 -225 -225 -225 -225 -225 -225 -225 -225 -225 -225 -225 -225 -225 -225 -225 -225 -225 -225 -225 -225 -225 -225 -225 -225 -225 -225 -225 -225 -225 -225 -225 -225 -225 -225 -225 -225 -225 -225 -225 -225 -225 -225 -225 -225 -225 -225 -225 -225 -225 -225 -225 -225 -225 -225 -225 -225 -225 -225 -225 -225 -225 -225 -225 -225 -225 -225 -225 -225 -225 -225 -225 -225 -225 -225 -225 -225 -225 -225 -225 -225 -225 -225 -225 246 249 249 248 248 249 249 250 251 251 252 251 248 248 249 256 262 261 264 262 262 263 263 263 262 257 258 256 260 263 264 271 -193 -193 -209 -209 -209 -209 -209 -209 -209 -209 -209 -209 0 0 0 13 -209 -209 -209 -209 -209 -209 -209 -209 0 0 0 0 0
    0 0 0 0 0 0 0 0 0 0 0 0 0 0 0 0 0 0 0 0 0 0 0 0 0 0 0 0 0 0 0 0 0 0 0 0 0 0 0 0 0 0 0 0 0 0 0 0 0 0 0 0 0 0 0 0 0 0 0 0 0 0 0 0 0 0 0 0 0 -225 -225 -225 -225 -225 -225 -225 -225 -225 -225 -225 -225 -225 -225 -225 -225 -225 -225 -225 -225 -225 -225 -225 -225 -225 -225 -225 -225 -225 -225 -225 -225 -225 -225 -225 -225 -225 -225 -225 -225 -225 -225 -225 -225 -225 -225 -225 -225 -225 -225 -225 -225 -225 -225 -225 -225 -225 -225 -225 -225 -225 -225 -225 -225 -225 -225 -225 -225 -225 -225 -225 -225 -225 -225 -225 -225 -225 -225 -225 -225 -225 -225 -225 -225 -225 -225 -225 -225 -225 -225 -225 -225 -225 -225 -225 -225 -225 -225 -225 -225 -225 -225 -225 -225 -225 -225 -225 -225 -225 -225 -225 -225 -225 -225 -225 -225 -225 -225 -225 -225 -225 -225 -225 -225 -225 -225 -225 -225 -225 -225 -225 -225 -225 -225 -225 -225 -225 -225 -225 -225 -225 -225 -225 -225 -225 -225 -225 -225 -225 -225 -225 -225 -225 -225 -225 -225 -225 -225 -225 -225 -225 -225 -225 -225 -225 -225 -225 -225 -225 -225 -225 -225 -225 -225 -225 -225 -225 -225 -225 -225 -225 -225 -225 -225 -225 -225 -225 -225 -225 -225 -225 -225 -225 -225 -225 -225 -225 251 -225 -225 253 250 245 243 247 254 262 262 265 264 263 264 264 264 264 259 260 258 261 263 265 271 -193 282 283 284 -209 -209 -209 -209 -209 -209 -209 -209 0 0 0 13 -209 -209 -209 -209 -209 -209 -209 -209 0 0 0 0 0
    0 0 0 0 0 0 0 0 0 0 0 0 0 0 0 0 0 0 0 0 0 0 0 0 0 0 0 0 0 0 0 0 0 0 0 0 0 0 0 0 0 0 0 0 0 0 0 0 0 0 0 0 0 0 0 0 0 0 0 0 0 0 0 0 0 0 0 0 0 -225 -225 -225 -225 -225 -225 -225 -225 -225 -225 -225 -225 -225 -225 -225 -225 -225 -225 -225 -225 -225 -225 -225 -225 -225 -225 -225 -225 -225 -225 -225 -225 -225 -225 -225 -225 -225 -225 -225 -225 -225 -225 -225 -225 -225 -225 -225 -225 -225 -225 -225 -225 -225 -225 -225 -225 -225 -225 -225 -225 -225 -225 -225 -225 -225 -225 -225 -225 -225 -225 -225 -225 -225 -225 -225 -225 -225 -225 -225 -225 -225 -225 -225 -225 -225 -225 -225 -225 -225 -225 -225 -225 -225 -225 -225 -225 -225 -225 -225 -225 -225 -225 -225 -225 -225 -225 -225 -225 -225 -225 -225 -225 -225 -225 -225 -225 -225 -225 -225 -225 -225 -225 -225 -225 -225 -225 -225 -225 -225 -225 -225 -225 -225 -225 -225 -225 -225 -225 -225 -225 -225 -225 -225 -225 -225 -225 -225 -225 -225 -225 -225 -225 -225 -225 -225 -225 -225 -225 -225 -225 -225 -225 -225 -225 -225 -225 -225 -225 -225 -225 -225 -225 -225 -225 -225 -225 -225 -225 -225 -225 -225 -225 -225 -225 -225 -225 -225 -225 -225 -225 -225 -225 -225 -225 -225 -225 -225 -225 -225 -225 -225 -225 234 233 243 251 265 265 266 264 264 264 264 265 264 259 260 258 261 263 266 271 -193 282 283 285 -209 -209 -209 -209 -209 -209 -209 -209 0 0 -193 -209 -209 -209 -209 -209 -209 -209 -209 47 0 0 0 0 0
    0 0 0 0 0 0 0 0 0 0 0 0 0 0 0 0 0 0 0 0 0 0 0 0 0 0 0 0 0 0 0 0 0 0 0 0 0 0 0 0 0 0 0 0 0 0 0 0 0 0 0 0 0 0 0 0 0 0 0 0 0 0 0 0 0 0 0 0 0 -225 -225 -225 -225 -225 -225 -225 -225 -225 -225 -225 -225 -225 -225 -225 -225 -225 -225 -225 -225 -225 -225 -225 -225 -225 -225 -225 -225 -225 -225 -225 -225 -225 -225 -225 -225 -225 -225 -225 -225 -225 -225 -225 -225 -225 -225 -225 -225 -225 -225 -225 -225 -225 -225 -225 -225 -225 -225 -225 -225 -225 -225 -225 -225 -225 -225 -225 -225 -225 -225 -225 -225 -225 -225 -225 -225 -225 -225 -225 -225 -225 -225 -225 -225 -225 -225 -225 -225 -225 -225 -225 -225 -225 -225 -225 -225 -225 -225 -225 -225 -225 -225 -225 -225 -225 -225 -225 -225 -225 -225 -225 -225 -225 -225 -225 -225 -225 -225 -225 -225 -225 -225 -225 -225 -225 -225 -225 -225 -225 -225 -225 -225 -225 -225 -225 -225 -225 -225 -225 -225 -225 -225 -225 -225 -225 -225 -225 -225 -225 -225 -225 -225 -225 -225 -225 -225 -225 -225 -225 -225 -225 -225 -225 -225 -225 -225 -225 -225 -225 -225 -225 -225 -225 -225 -225 -225 -225 -225 -225 -225 -225 -225 -225 -225 -225 -225 -225 -225 -225 -225 -225 -225 -225 -225 -225 -225 -225 -225 -225 -225 -225 -225 234 234 244 253 267 269 269 266 265 265 265 265 264 258 260 259 262 264 268 274 281 282 285 287 -209 -209 -209 -209 -209 -209 -209 -209 -209 -193 16 -209 -209 -209 -209 47 -209 -209 43 46 0 0 0 0 0
    0 0 0 0 0 0 0 0 0 0 0 0 0 0 0 0 0 0 0 0 0 0 0 0 0 0 0 0 0 0 0 0 0 0 0 0 0 0 0 0 0 0 0 0 0 0 0 0 0 0 0 0 0 0 0 0 0 0 0 0 0 0 0 0 0 0 0 0 0 -225 -225 -225 -225 -225 -225 -225 -225 -225 -225 -225 -225 -225 -225 -225 -225 -225 -225 -225 -225 -225 -225 -225 -225 -225 -225 -225 -225 -225 -225 -225 -225 -225 -225 -225 -225 -225 -225 -225 -225 -225 -225 -225 -225 -225 -225 -225 -225 -225 -225 -225 -225 -225 -225 -225 -225 -225 -225 -225 -225 -225 -225 -225 -225 -225 -225 -225 -225 -225 -225 -225 -225 -225 -225 -225 -225 -225 -225 -225 -225 -225 -225 -225 -225 -225 -225 -225 -225 -225 -225 -225 -225 -225 -225 -225 -225 -225 -225 -225 -225 -225 -225 -225 -225 -225 -225 -225 -225 -225 -225 -225 -225 -225 -225 -225 -225 -225 -225 -225 -225 -225 -225 -225 -225 -225 -225 -225 -225 -225 -225 -225 -225 -225 -225 -225 -225 -225 -225 -225 -225 -225 -225 -225 -225 -225 -225 -225 -225 -225 -225 -225 -225 -225 -225 -225 -225 -225 -225 -225 -225 -225 -225 -225 -225 -225 -225 -225 -225 -225 -225 -225 -225 -225 -225 -225 -225 -225 -225 -225 -225 -225 -225 -225 -225 -225 -225 -225 -225 -225 -225 -225 -225 -225 -225 -225 -225 -225 -225 -225 -225 -225 -225 -225 235 246 258 -177 275 276 268 266 266 266 265 264 258 259 257 261 263 266 272 -193 283 286 290 -209 -209 -209 -209 -209 -209 -209 -209 -209 -209 -209 -209 -209 -209 -209 -209 -209 -209 -209 -209 0 0 0 0 0
    0 0 0 0 0 0 0 0 0 0 0 0 0 0 0 0 0 0 0 0 0 0 0 0 0 0 0 0 0 0 0 0 0 0 0 0 0 0 0 0 0 0 0 0 0 0 0 0 0 0 0 0 0 0 0 0 0 0 0 0 0 0 0 0 0 0 0 0 0 -225 -225 -225 -225 -225 -225 -225 -225 -225 -225 -225 -225 -225 -225 -225 -225 -225 -225 -225 -225 -225 -225 -225 -225 -225 -225 -225 -225 -225 -225 -225 -225 -225 -225 -225 -225 -225 -225 -225 -225 -225 -225 -225 -225 -225 -225 -225 -225 -225 -225 -225 -225 -225 -225 -225 -225 -225 -225 -225 -225 -225 -225 -225 -225 -225 -225 -225 -225 -225 -225 -225 -225 -225 -225 -225 -225 -225 -225 -225 -225 -225 -225 -225 -225 -225 -225 -225 -225 -225 -225 -225 -225 -225 -225 -225 -225 -225 -225 -225 -225 -225 -225 -225 -225 -225 -225 -225 -225 -225 -225 -225 -225 -225 -225 -225 -225 -225 -225 -225 -225 -225 -225 -225 -225 -225 -225 -225 -225 -225 -225 -225 -225 -225 -225 -225 -225 -225 -225 -225 -225 -225 -225 -225 -225 -225 -225 -225 -225 -225 -225 -225 -225 -225 -225 -225 -225 -225 -225 -225 -225 -225 -225 -225 -225 -225 -225 -225 -225 -225 -225 -225 -225 -225 -225 -225 -225 -225 -225 -225 -225 -225 -225 -225 -225 -225 -225 -225 -225 -225 -225 -225 -225 -225 -225 -225 -225 -225 -225 -225 -225 -225 -225 -225 -225 246 260 275 279 280 271 267 269 269 268 -209 258 260 259 262 265 -209 -209 -209 -209 289 -209 -209 -209 -209 -209 -209 -209 -209 -209 -209 -209 -209 -209 -209 -209 -209 -209 -209 -209 -193 49 0 0 0 0 0
    0 0 0 0 0 0 0 0 0 0 0 0 0 0 0 0 0 0 0 0 0 0 0 0 0 0 0 0 0 0 0 0 0 0 0 0 0 0 0 0 0 0 0 0 0 0 0 0 0 0 0 0 0 0 0 0 0 0 0 0 0 0 0 0 0 0 0 0 0 -225 -225 -225 -225 -225 -225 -225 -225 -225 -225 -225 -225 -225 -225 -225 -225 -225 -225 -225 -225 0 -256 -1 385 -225 -225 -225 -225 -225 -225 -225 -225 -225 -225 -225 -225 -225 -225 -225 -225 -225 -225 -225 -225 -225 -225 -225 -225 -225 -225 -225 -225 -225 -225 -225 -225 -225 -225 -225 -225 -225 -225 -225 -225 -225 -225 -225 -225 -225 -225 -225 -225 -225 -225 -225 -225 -225 -225 -225 -225 -225 -225 -225 -225 -225 -225 -225 -225 -225 -225 -225 -225 -225 -225 -225 -225 -225 -225 -225 -225 -225 -225 -225 -225 -225 -225 -225 -225 -225 -225 -225 -225 -225 -225 -225 -225 -225 -225 -225 -225 -225 -225 -225 -225 -225 -225 -225 -225 -225 -225 -225 -225 -225 -225 -225 -225 -225 -225 -225 -225 -225 -225 -225 -225 -225 -225 -225 -225 -225 -225 -225 -225 -225 -225 -225 -225 -225 -225 -225 -225 -225 -225 -225 -225 -225 -225 -225 -225 -225 -225 -225 -225 -225 -225 -225 -225 -225 -225 -225 -225 -225 -225 -225 -225 -225 -225 -225 -225 -225 -225 -225 -225 -225 -225 -225 -225 -225 -225 -225 -225 -225 -225 -225 -225 -225 -225 276 283 -193 -193 271 272 277 277 -209 -193 263 264 266 270 -209 -209 -209 -209 -209 -209 -209 -209 -209 -209 -209 -209 -209 -209 -209 -209 -209 -209 -209 -209 -209 -209 -209 -209 -209 -209 0 0 0 0 0
    0 0 0 0 0 0 0 0 0 0 0 0 0 0 0 0 0 0 0 0 0 0 0 0 0 0 0 0 0 0 0 0 0 0 0 0 0 0 0 0 0 0 0 0 0 0 0 0 0 0 0 0 0 0 0 0 0 0 0 0 0 0 0 0 0 0 0 0 0 -225 -225 -225 -225 -225 -225 -225 -225 -225 -225 -225 -225 -225 -225 -225 -225 -225 -225 -225 -225 -225 -225 -225 -225 -225 -225 -225 -225 -225 -225 -225 -225 -225 -225 -225 -225 -225 -225 -225 -225 -225 -225 -225 -225 -225 -225 -225 -225 -225 -225 -225 -225 -225 -225 -225 -225 -225 -225 -225 -225 -225 -225 -225 -225 -225 -225 -225 -225 -225 -225 -225 -225 -225 -225 -225 -225 -225 -225 -225 -225 -225 -225 -225 -225 -225 -225 -225 -225 -225 -225 -225 -225 -225 -225 -225 -225 -225 -225 -225 -225 -225 -225 -225 -225 -225 -225 -225 -225 -225 -225 -225 -225 -225 -225 -225 -225 -225 -225 -225 -225 -225 -225 -225 -225 -225 -225 -225 -225 -225 -225 -225 -225 -225 -225 -225 -225 -225 -225 -225 -225 -225 -225 -225 -225 -225 -225 -225 -225 -225 -225 -225 -225 -225 -225 -225 -225 -225 -225 -225 -225 -225 -225 -225 -225 -225 -225 -225 -225 -225 -225 -225 -225 -225 -225 -225 -225 -225 -225 -225 -225 -225 -225 -225 -225 -225 -225 -225 -225 -225 -225 -225 -225 -225 -225 -225 -225 -225 -225 -225 -225 -225 -225 -225 -225 -225 -225 -225 -225 -225 -225 -225 -225 -209 -225 -209 -209 -209 -209 -209 -209 -209 -209 -209 -209 -209 -209 -209 -209 -209 -209 -209 -209 -209 -209 -209 -209 -209 -209 -209 -209 -209 -209 -193 307 -209 -209 0 0 0 0 0
    0 0 0 0 0 0 0 0 0 0 0 0 0 0 0 0 0 0 0 0 0 0 0 0 0 0 0 0 0 0 0 0 0 0 0 0 0 0 0 0 0 0 0 0 0 0 0 0 0 0 0 0 0 0 0 0 0 0 0 0 0 0 0 0 0 0 0 0 0 -225 -225 -225 -225 -225 -225 -225 -225 -225 -225 -225 -225 -225 -225 -225 -225 -225 -225 -225 -225 -225 -225 -225 -225 -225 -225 -225 -225 -225 -225 -225 -225 -225 -225 -225 -225 -225 -225 -225 -225 -225 -225 -225 -225 -225 -225 -225 -225 -225 -225 -225 -225 -225 -225 -225 -225 -225 -225 -225 -225 -225 -225 -225 -225 -225 -225 -225 -225 -225 -225 -225 -225 -225 -225 -225 -225 -225 -225 -225 -225 -225 -225 -225 -225 -225 -225 -225 -225 -225 -225 -225 -225 -225 -225 -225 -225 -225 -225 -225 -225 -225 -225 -225 -225 -225 -225 -225 -225 -225 -225 -225 -225 -225 -225 -225 -225 -225 -225 -225 -225 -225 -225 -225 -225 -225 -225 -225 -225 -225 -225 -225 -225 -225 -225 -225 -225 -225 -225 -225 -225 -225 -225 -225 -225 -225 -225 -225 -225 -225 -225 -225 -225 -225 -225 -225 -225 -225 -225 -225 -225 -225 -225 -225 -225 -225 -225 -225 -225 -225 -225 -225 -225 -225 -225 -225 -225 -225 -225 -225 -225 -225 -225 -225 -225 -225 -225 -225 -225 -225 -225 -225 -225 -225 -225 -225 -225 -225 -225 -225 -225 -225 -225 -225 -225 -225 -225 -225 -225 -225 -225 -225 -225 -225 -225 -225 -225 -225 -209 -209 -209 -209 -209 -209 -209 -209 -209 -209 -209 -209 -209 -209 -193 49 53 59 -193 82 80 77 81 82 -209 -209 -193 -209 -209 0 0 0 0 0
    0 0 0 0 0 0 0 0 0 0 0 0 0 0 0 0 0 0 0 0 0 0 0 0 0 0 0 0 0 0 0 0 0 0 0 0 0 0 0 0 0 0 0 0 0 0 0 0 0 0 0 0 0 0 0 0 0 0 0 0 0 0 0 0 0 0 0 0 0 -225 -225 -225 -225 -225 -225 -225 -225 -225 -225 -225 -225 -225 -225 -225 -225 -225 -225 -225 -225 -225 -225 -225 -225 -225 -225 -225 -225 -225 -225 -225 -225 -225 -225 -225 -225 -225 -225 -225 -225 -225 -225 -225 -225 -225 -225 -225 -225 -225 -225 -225 -225 -225 -225 -225 -225 -225 -225 -225 -225 -225 -225 -225 -225 -225 -225 -225 -225 -225 -225 -225 -225 -225 -225 -225 -225 -225 -225 -225 -225 -225 -225 -225 -225 -225 -225 -225 -225 -225 -225 -225 -225 -225 -225 -225 -225 -225 -225 -225 -225 -225 -225 -225 -225 -225 -225 -225 -225 -225 -225 -225 -225 -225 -225 -225 -225 -225 -225 -225 -225 -225 -225 -225 -225 -225 -225 -225 -225 -225 -225 -225 -225 -225 -225 -225 -225 -225 -225 -225 -225 -225 -225 -225 -225 -225 -225 -225 -225 -225 -225 -225 -225 -225 -225 -225 -225 -225 -225 -225 -225 -225 -225 -225 -225 -225 -225 -225 -225 -225 -225 -225 -225 -225 -225 -225 -225 -225 -225 -225 -225 -225 -225 -225 -225 -225 -225 -225 -225 -225 -225 -225 -225 -225 -225 -225 -225 -225 -225 -225 -225 -225 -225 -225 -225 -225 -225 -225 -225 -225 -225 -225 -225 -225 -225 -225 -225 0 0 -193 -209 -209 -209 -209 -209 -209 -209 -209 -209 -209 -209 -209 -209 48 52 59 71 78 81 82 83 82 -209 -209 316 322 -209 0 0 0 0 0
    0 0 0 0 0 0 0 0 0 0 0 0 0 0 0 0 0 0 0 0 0 0 0 0 0 0 0 0 0 0 0 0 0 0 0 0 0 0 0 0 0 0 0 0 0 0 0 0 0 0 0 0 0 0 0 0 0 0 0 0 0 0 0 0 0 0 0 0 0 -225 -225 -225 -225 -225 -225 -225 -225 -225 -225 -225 -225 -225 -225 -225 -225 -225 -225 -225 -225 -225 -225 -225 -225 -225 -225 -225 -225 -225 -225 -225 -225 -225 -225 -225 -225 -225 -225 -225 -225 -225 -225 -225 -225 -225 -225 -225 -225 -225 -225 -225 -225 -225 -225 -225 -225 -225 -225 -225 -225 -225 -225 -225 -225 -225 -225 -225 -225 -225 -225 -225 -225 -225 -225 -225 -225 -225 -225 -225 -225 -225 -225 -225 -225 -225 -225 -225 -225 -225 -225 -225 -225 -225 -225 -225 -225 -225 -225 -225 -225 -225 -225 -225 -225 -225 -225 -225 -225 -225 -225 -225 -225 -225 -225 -225 -225 -225 -225 -225 -225 -225 -225 -225 -225 -225 -225 -225 -225 -225 -225 -225 -225 -225 -225 -225 -225 -225 -225 -225 -225 -225 -225 -225 -225 -225 -225 -225 -225 -225 -225 -225 -225 -225 -225 -225 -225 -225 -225 -225 -225 -225 -225 -225 -225 -225 -225 -225 -225 -225 -225 -225 -225 -225 -225 -225 -225 -225 -225 -225 -225 -225 -225 -225 -225 -225 -225 -225 -225 -225 -225 -225 -225 -225 -225 -225 -225 -225 -225 -225 -225 -225 -225 -225 -225 -225 -225 -225 -225 -225 -225 -225 -225 -225 -225 -225 -225 0 0 -193 -209 -209 -209 -209 -209 -209 -209 31 -209 -209 -209 -209 -209 -209 52 60 71 78 81 82 -209 -209 -209 -209 317 323 319 0 0 0 0 0
    0 0 0 0 0 0 0 0 0 0 0 0 0 0 0 0 0 0 0 0 0 0 0 0 0 0 0 0 0 0 0 0 0 0 0 0 0 0 0 0 0 0 0 0 0 0 0 0 0 0 0 0 0 0 0 0 0 0 0 0 0 0 0 0 0 0 0 0 0 -225 -225 -225 -225 -225 -225 -225 -225 -225 -225 -225 -225 -225 -225 -225 -225 -225 -225 -225 -225 -225 -225 -225 -225 -225 -225 -225 -225 -225 -225 -225 -225 -225 -225 -225 -225 -225 -225 -225 -225 -225 -225 -225 -225 -225 -225 -225 -225 -225 -225 -225 -225 -225 -225 -225 -225 -225 -225 -225 -225 -225 -225 -225 -225 -225 -225 -225 -225 -225 -225 -225 -225 -225 -225 -225 -225 -225 -225 -225 -225 -225 -225 -225 -225 -225 -225 -225 -225 -225 -225 -225 -225 -225 -225 -225 -225 -225 -225 -225 -225 -225 -225 -225 -225 -225 -225 -225 -225 -225 -225 -225 -225 -225 -225 -225 -225 -225 -225 -225 -225 -225 -225 -225 -225 -225 -225 -225 -225 -225 -225 -225 -225 -225 -225 -225 -225 -225 -225 -225 -225 -225 -225 -225 -225 -225 -225 -225 -225 -225 -225 -225 -225 -225 -225 -225 -225 -225 -225 -225 -225 -225 -225 -225 -225 -225 -225 -225 -225 -225 -225 -225 -225 -225 -225 -225 -225 -225 -225 -225 -225 -225 -225 -225 -225 -225 -225 -225 -225 -225 -225 -225 -225 -225 -225 -225 -225 -225 -225 -225 -225 -225 -225 -225 -225 -225 -225 -225 -225 -225 -225 -225 -225 -225 -225 -225 -209 0 0 0 -193 -193 -209 0 -177 -193 -209 -209 -209 -209 -209 -209 -209 -209 -209 62 71 -209 -209 -193 -193 -209 -209 -209 320 325 323 0 0 0 0 0
    0 0 0 0 0 0 0 0 0 0 0 0 0 0 0 0 0 0 0 0 0 0 0 0 0 0 0 0 0 0 0 0 0 0 0 0 0 0 0 0 0 0 0 0 0 0 0 0 0 0 0 0 0 0 0 0 0 0 0 0 0 0 0 0 0 0 0 0 0 -225 -225 -225 -225 -225 -225 -225 -225 -225 -225 -225 -225 -225 -225 -225 -225 -225 -225 -225 -225 -225 -225 -225 -225 -225 -225 -225 -225 -225 -225 -225 -225 -193 349 -225 -225 -225 -225 -225 -225 -225 -225 -225 -225 -225 -225 -225 -225 -225 -225 -225 -225 -225 -225 -225 -225 -225 -225 -225 -225 -225 -225 -225 -225 -225 -225 -225 -225 -225 -225 -225 -225 -225 -225 -225 321 321 -193 -193 -209 -209 -209 -193 -209 -209 359 -225 -225 -225 -225 -225 -225 -225 -225 -225 -225 -225 -225 -193 -225 -225 -225 -225 -225 -225 -225 -225 -225 -225 -225 -225 -225 -225 -225 -225 -225 -225 -225 -225 -225 -225 -225 -225 -225 -225 -225 -225 -225 -225 -225 -225 -225 -225 -225 -225 -225 -225 -225 -225 -225 -225 -225 -225 -225 -225 -225 -225 -225 -225 -225 -225 -225 -225 -225 -225 -225 -225 -225 -225 -225 -225 -225 -225 -225 -225 -225 352 353 354 354 353 353 -225 -225 -225 -225 -225 -225 -225 -225 -225 -225 -225 -225 -225 -225 -225 -225 -225 -225 -225 -225 -225 -225 -225 -225 -225 -225 -225 -225 -225 -225 -225 -225 -225 -225 -225 -225 -193 -193 -209 379 379 381 -193 -209 -193 -193 -193 -193 0 0 0 -177 -177 -209 -209 -209 -209 -209 -209 -209 -209 -209 -209 -193 -209 -209 -193 -193 -193 -209 -209 322 326 325 0 0 0 0 0
    0 0 0 0 0 0 0 0 0 0 0 0 0 0 0 0 0 0 0 0 0 0 0 0 0 0 0 0 0 0 0 0 0 0 0 0 0 0 0 0 0 0 0 0 0 0 0 0 0 0 0 0 0 0 0 0 0 0 0 0 0 0 0 0 0 0 0 0 0 -225 -225 -225 -225 -225 -225 -225 -225 -225 -225 -225 -225 -225 -225 -225 -225 356 359 359 -209 359 359 -193 -209 -225 -193 -209 -209 555 -177 -193 356 356 352 355 -209 -209 -225 -225 -177 -225 -225 -225 -193 -193 -209 -209 -209 789 -193 -193 -225 -225 -225 -225 -225 -225 -225 -225 -225 -225 -225 -225 -225 -225 -225 -225 -225 -225 -225 -225 -225 -225 350 356 -209 -209 -209 768 -193 -209 -209 -209 -193 -193 -193 -193 -209 -193 -225 350 355 350 353 350 351 352 353 352 353 349 353 349 355 -193 -177 356 355 354 354 353 356 686 689 -193 544 546 546 -193 358 360 357 351 -225 -225 -225 -225 -225 -225 -225 -225 -225 -225 353 -193 357 356 -225 -225 -225 359 359 358 -225 358 359 359 358 357 -209 -209 -193 -193 516 517 -177 -209 -209 -209 802 732 -225 -225 -193 354 351 351 352 353 353 351 351 -193 -225 -225 -225 -225 -225 -225 -225 -225 -225 -225 -225 -225 -225 -225 -193 -193 -225 -225 -225 -225 -193 -193 -193 -193 -193 -193 -193 345 -225 -225 -225 -225 -225 -225 -193 -193 308 -193 -209 375 375 368 -209 -193 -193 -193 0 0 0 -177 -177 -177 -193 -209 -209 -209 -209 -209 -209 -209 -209 -209 -209 -209 -193 -193 -193 -209 -209 319 322 326 325 0 0 0 0 0
    0 0 0 0 0 0 0 0 0 0 0 0 0 0 0 0 0 0 0 0 0 0 0 0 0 0 0 0 0 0 0 0 0 0 0 0 0 0 0 0 0 0 0 0 0 0 0 0 0 0 0 0 0 0 0 0 0 0 0 0 0 0 0 0 0 0 0 0 0 -225 -225 -225 -225 -225 -225 -225 -225 -225 -193 -193 -193 -193 513 -193 353 356 359 359 359 358 358 -193 357 -209 -193 -193 356 -193 -193 357 357 357 355 357 -193 -209 -209 -177 -177 -177 -209 959 -193 -209 -193 -193 -193 -193 354 355 -209 -209 -209 -209 1008 -193 -225 -225 238 -193 -209 354 352 349 354 -225 -193 -193 -193 -193 352 352 354 358 360 356 358 358 357 359 358 -193 -193 354 357 355 -193 -193 348 351 356 351 354 351 352 352 353 352 353 350 354 350 355 358 358 357 356 353 354 353 356 -193 -193 -193 543 543 -193 -193 359 359 358 353 353 353 347 348 345 343 344 347 348 352 353 356 -193 -193 -193 -193 362 360 360 359 359 359 360 359 359 359 360 -193 -193 -193 -209 -193 -209 358 357 -193 -209 732 736 -193 354 356 352 352 352 353 353 351 351 351 348 -225 -225 -225 -225 -225 -225 -225 -209 -193 -193 -209 -209 -209 -209 -193 -193 -209 -193 -193 -193 349 349 349 348 346 348 346 346 -225 -225 -225 -193 -193 -193 306 307 309 -193 377 -177 -177 -209 -193 -193 -193 0 0 0 -177 -177 -177 0 -209 -209 -209 -193 -209 -209 -209 -209 -209 -209 -209 -193 -193 -209 -209 -209 319 323 326 326 0 0 0 0 0
    0 0 0 0 0 0 0 0 0 0 0 0 0 0 0 0 0 0 0 0 0 0 0 0 0 0 0 0 0 0 0 0 0 0 0 0 0 0 0 0 0 0 0 0 0 0 0 0 0 0 0 0 0 0 0 0 0 0 0 0 0 0 0 0 0 0 0 0 0 -225 -225 -225 -209 354 358 358 -193 -193 352 353 354 -193 -193 354 353 356 358 357 358 357 357 356 356 358 -193 357 356 356 356 358 358 359 357 359 359 -193 -209 -193 -193 -177 -209 -193 -209 350 351 353 356 355 354 355 356 -193 -209 -193 -209 -209 -209 -209 -193 -193 356 353 351 348 350 351 346 -193 -193 349 350 351 354 358 361 356 358 358 357 358 357 357 355 353 357 355 352 349 349 351 356 351 354 352 352 352 352 352 352 349 353 350 354 358 357 357 356 353 353 354 357 -193 -193 -193 -193 -193 -193 360 359 359 357 353 353 353 348 349 347 345 345 347 348 349 351 354 -193 -193 -193 -193 361 359 360 359 358 358 358 358 357 357 358 357 357 357 -193 -193 356 358 356 351 -209 -209 -193 -193 355 356 352 352 352 352 353 351 351 351 348 352 -225 -225 -225 -225 -225 -209 -209 -193 -193 -209 -193 356 -209 358 -209 -209 356 -193 352 352 350 350 349 347 348 345 346 -225 -225 -209 -209 -193 -193 -193 308 310 -209 379 377 -177 -209 -193 -193 -193 0 0 0 -177 -177 0 0 -209 -209 -209 -209 -209 -209 -177 -177 -209 -209 -193 -193 -193 -209 -209 -209 322 325 328 -177 0 0 0 0 0
    0 0 0 0 0 0 0 0 0 0 0 0 0 0 0 0 0 0 0 0 0 0 0 0 0 0 0 0 0 0 0 0 0 0 0 0 0 0 0 0 0 0 0 0 0 0 0 0 0 0 0 0 0 0 0 0 0 0 0 0 0 0 0 0 0 0 0 0 0 -209 -209 -193 -193 352 356 356 357 354 354 354 356 354 357 355 354 355 358 357 358 357 357 356 357 359 357 -193 357 357 357 358 358 358 356 358 358 -209 357 355 355 -193 -193 -193 -193 351 352 354 356 355 355 354 355 354 355 355 356 352 352 -193 -193 352 352 350 350 347 347 347 345 345 346 347 348 348 352 358 360 356 357 358 357 358 357 357 356 352 357 355 353 351 349 352 355 351 354 352 352 352 353 352 352 350 353 350 354 356 355 355 355 352 353 354 356 357 356 357 356 359 360 359 358 358 355 352 353 352 348 348 348 346 346 347 348 348 350 351 -193 -193 -193 -193 -193 357 359 358 357 357 356 357 356 355 357 355 355 355 356 -193 355 358 357 354 -193 -209 -193 -193 355 356 352 352 353 352 353 351 351 350 349 350 350 354 352 354 357 -193 -209 -209 -193 -209 -193 356 358 359 -209 -193 359 358 357 357 354 -193 351 349 349 346 346 347 347 351 356 362 365 -193 308 310 -209 377 375 -177 -209 -193 -193 -193 0 0 0 0 -177 -209 -209 -209 -209 -209 -209 -209 -209 -209 -193 -193 165 -209 -193 -193 -209 -209 -209 -193 327 333 -209 0 0 0 0 0
    0 0 0 0 0 0 0 0 0 0 0 0 0 0 0 0 0 0 0 0 0 0 0 0 0 0 0 0 0 0 0 0 0 0 0 0 0 0 0 0 0 0 0 0 0 0 0 0 0 0 0 0 0 0 0 0 0 0 0 0 0 0 0 0 0 0 0 0 0 -193 -209 356 360 354 357 357 357 354 355 354 356 354 356 355 354 355 357 357 358 357 357 357 358 359 357 358 356 356 356 357 357 357 356 357 357 359 356 356 355 355 355 356 354 353 353 355 357 356 355 354 355 355 355 355 355 352 353 -193 354 353 352 351 351 349 349 349 348 347 348 349 349 349 352 357 359 355 356 357 357 358 357 357 356 352 357 355 353 351 350 352 354 351 354 352 352 353 353 353 352 350 354 350 354 355 354 354 354 352 352 353 355 356 356 356 355 358 359 359 357 357 353 349 351 350 348 348 348 347 347 347 349 349 350 350 -193 -209 -193 -193 358 356 357 357 356 356 356 356 355 354 355 353 354 354 355 355 353 358 357 356 356 -193 -193 -193 355 355 352 352 353 352 353 352 351 351 349 351 350 351 351 -193 355 356 359 -209 -193 356 354 355 357 359 361 359 359 358 358 357 355 354 352 350 350 347 347 348 348 350 355 359 362 -209 -193 310 -209 376 375 372 -209 -193 -193 -193 -193 -177 -209 -209 -209 -209 -209 -193 -193 -209 -193 -209 -209 -209 -209 -209 -193 -209 -209 352 349 350 349 349 347 346 347 0 0 0 0 0
    0 0 0 0 0 0 0 0 0 0 0 0 0 0 0 0 0 0 0 0 0 0 0 0 0 0 0 0 0 0 0 0 0 0 0 0 0 0 0 0 0 0 0 0 0 0 0 0 0 0 0 0 0 0 0 0 0 0 0 0 0 0 0 0 0 0 0 0 0 358 359 358 360 355 357 357 357 355 354 353 355 353 354 353 352 354 357 356 357 357 357 357 358 358 357 357 356 356 355 356 356 356 355 356 356 358 356 356 355 356 355 356 355 355 354 356 357 356 356 355 354 354 354 355 355 351 352 353 354 353 352 352 351 350 351 352 349 350 350 351 351 351 352 356 358 355 355 356 356 357 357 357 356 352 356 355 352 350 350 352 353 351 354 352 352 353 354 354 353 351 354 352 354 355 354 354 353 353 352 353 355 356 356 356 355 357 357 358 356 356 351 349 350 350 349 349 349 349 348 348 350 349 350 351 -193 -193 -193 -193 357 356 357 357 356 356 355 355 354 353 354 353 353 353 354 354 353 357 357 356 356 353 354 354 355 355 352 352 352 352 353 352 351 350 349 351 351 351 351 351 354 355 357 356 354 355 354 354 357 358 359 358 359 357 356 356 354 353 352 351 351 348 348 349 348 350 354 356 356 351 -193 -209 -209 -209 -209 -209 -209 -209 -209 -193 -209 -209 -209 -209 -209 -209 348 346 347 346 347 348 348 349 349 351 354 354 351 354 352 353 352 352 349 348 348 0 0 0 0 0
    0 0 0 0 0 0 0 0 0 0 0 0 0 0 0 0 0 0 0 0 0 0 0 0 0 0 0 0 0 0 0 0 0 0 0 0 0 0 0 0 0 0 0 0 0 0 0 0 0 0 0 0 0 0 0 0 0 0 0 0 0 0 0 0 0 0 0 0 0 357 358 357 358 355 357 357 357 355 355 353 354 353 354 352 351 353 356 356 356 356 356 356 357 358 356 356 355 355 354 354 355 355 354 356 355 357 355 355 355 356 355 356 355 355 355 356 357 356 356 355 354 355 354 355 355 352 353 353 354 353 352 352 351 350 351 353 350 351 352 352 352 352 352 356 357 355 355 356 356 357 357 357 355 352 356 355 353 350 349 351 353 350 354 352 353 354 355 354 354 352 355 353 355 355 354 354 353 353 353 354 355 356 356 356 355 356 356 357 356 356 352 350 351 351 350 350 349 350 348 349 350 349 350 350 -193 -193 -193 -193 356 355 356 356 355 355 354 354 354 352 354 352 352 353 354 354 354 357 356 355 356 352 353 353 354 354 351 351 351 351 353 352 351 350 350 352 351 352 351 351 352 354 356 354 353 355 354 354 357 358 359 357 359 357 355 355 354 352 352 351 352 348 350 350 348 350 353 353 352 349 351 -209 -193 356 -193 -209 -193 -193 -193 -193 -193 -209 -209 -209 -193 -209 347 346 347 347 347 348 348 349 350 352 354 355 352 355 354 355 354 353 351 350 349 0 0 0 0 0
    0 0 0 0 0 0 0 0 0 0 0 0 0 0 0 0 0 0 0 0 0 0 0 0 0 0 0 0 0 0 0 0 0 0 0 0 0 0 0 0 0 0 0 0 0 0 0 0 0 0 0 0 0 0 0 0 0 0 0 0 0 0 0 0 0 0 0 0 0 356 357 357 357 355 357 356 357 355 355 353 354 353 353 351 350 352 355 355 355 355 355 356 356 356 355 355 355 355 354 354 354 355 355 357 355 356 355 355 356 356 356 356 356 356 356 357 357 356 356 355 353 355 354 355 355 352 353 354 354 354 352 352 351 350 351 353 351 351 352 352 351 352 352 355 356 354 354 354 355 357 356 356 355 351 355 354 352 350 349 351 353 350 354 352 353 354 355 354 354 353 355 353 355 354 354 354 353 354 353 354 355 356 356 356 356 356 356 357 355 355 352 350 351 351 351 350 349 350 349 350 351 350 351 351 353 -193 352 351 354 354 356 356 355 354 353 354 353 353 353 352 352 352 354 354 353 356 356 354 355 352 353 353 354 354 351 351 351 351 353 352 351 350 350 352 352 351 351 351 351 353 354 352 351 353 352 352 355 356 357 355 358 356 354 355 354 352 352 351 352 349 350 349 348 349 351 351 350 348 348 -193 -193 350 -193 -193 -193 350 353 -193 349 -193 -193 -193 -193 -193 347 346 348 348 347 348 348 348 349 353 353 355 353 357 356 357 355 355 354 352 351 0 0 0 0 0
    0 0 0 0 0 0 0 0 0 0 0 0 0 0 0 0 0 0 0 0 0 0 0 0 0 0 0 0 0 0 0 0 0 0 0 0 0 0 0 0 0 0 0 0 0 0 0 0 0 0 0 0 0 0 0 0 0 0 0 0 0 0 0 0 0 0 0 0 0 355 357 356 357 355 357 357 357 356 355 353 355 354 352 351 350 351 355 354 355 355 354 355 356 355 355 354 355 355 354 354 354 355 356 357 355 356 355 355 356 356 356 356 356 357 357 357 358 357 356 355 354 355 354 355 355 353 354 354 354 354 352 352 352 350 351 352 351 351 353 353 351 352 352 355 355 354 353 353 354 356 356 355 355 351 354 354 352 351 349 351 353 350 354 353 354 354 355 354 354 353 355 354 355 354 354 354 354 354 353 354 354 355 356 356 356 356 356 356 354 355 352 350 351 351 351 351 350 352 351 353 353 352 352 352 353 354 351 350 352 354 356 355 356 354 353 354 353 353 353 352 352 351 353 353 352 356 355 354 356 352 354 353 354 354 351 351 351 350 352 351 351 350 350 351 351 351 351 351 351 353 354 351 351 353 353 352 355 356 357 355 358 356 355 355 354 352 352 352 353 349 350 349 348 349 350 349 349 347 347 -193 346 347 -193 346 -193 348 353 -193 349 349 349 349 349 348 347 347 348 349 348 348 349 349 348 353 353 354 351 356 356 357 356 355 354 352 352 0 0 0 0 0
    0 0 0 0 0 0 0 0 0 0 0 0 0 0 0 0 0 0 0 0 0 0 0 0 0 0 0 0 0 0 0 0 0 0 0 0 0 0 0 0 0 0 0 0 0 0 0 0 0 0 0 0 0 0 0 0 0 0 0 0 0 0 0 0 0 0 0 0 0 355 356 355 356 354 357 357 357 356 356 354 355 355 352 352 350 350 355 353 354 355 354 355 355 355 355 353 354 354 352 353 353 354 356 356 355 356 355 355 356 355 355 356 355 357 356 357 358 357 356 355 354 356 355 355 356 354 354 354 354 354 352 353 352 351 352 352 352 352 353 353 351 352 352 354 354 354 353 352 354 355 355 354 354 351 353 353 353 351 350 352 353 351 354 353 354 354 355 355 354 354 356 355 355 354 354 353 353 354 352 353 353 354 355 355 355 355 354 356 353 354 351 350 351 351 352 352 351 354 353 354 354 353 352 352 351 353 349 349 350 352 354 354 354 353 351 353 352 352 352 352 351 351 352 352 352 356 355 355 355 353 354 353 353 354 351 352 352 351 353 352 351 351 350 351 351 350 351 350 350 353 354 352 352 352 354 352 354 356 357 356 358 356 355 356 355 353 353 352 353 349 351 350 348 350 351 350 349 347 347 345 346 346 -193 346 -193 347 349 -193 347 347 348 348 349 347 347 347 349 350 350 349 350 349 348 351 351 352 349 354 354 356 355 354 354 352 352 0 0 0 0 0
    0 0 0 0 0 0 0 0 0 0 0 0 0 0 0 0 0 0 0 0 0 0 0 0 0 0 0 0 0 0 0 0 0 0 0 0 0 0 0 0 0 0 0 0 0 0 0 0 0 0 0 0 0 0 0 0 0 0 0 0 0 0 0 0 0 0 0 0 0 354 355 354 356 354 355 356 357 356 356 355 355 355 352 352 349 349 354 352 353 354 353 355 355 355 355 353 354 354 351 352 352 353 354 355 355 355 355 355 356 355 355 356 355 357 356 357 358 357 356 356 354 356 355 355 355 353 354 354 354 354 353 353 352 351 352 352 352 351 353 352 351 351 351 353 353 353 353 351 353 355 354 353 354 350 352 352 353 352 351 352 353 351 355 353 355 355 356 355 354 354 355 355 355 353 353 352 351 354 351 353 351 352 354 354 354 353 352 354 352 353 350 350 351 351 352 352 352 354 353 355 354 353 351 352 351 353 350 349 350 352 353 353 353 352 350 352 351 351 352 351 351 351 352 352 352 355 354 354 355 352 353 352 352 353 351 352 352 351 353 352 351 351 350 351 351 350 351 350 350 352 354 352 352 351 352 351 354 356 357 357 358 357 356 356 355 353 353 352 353 349 351 350 348 349 350 349 349 347 347 345 346 346 346 346 346 346 347 -193 346 346 348 348 349 348 348 348 350 351 351 349 350 349 349 351 351 351 348 353 353 356 355 355 354 351 352 0 0 0 0 0
    0 0 0 0 0 0 0 0 0 0 0 0 0 0 0 0 0 0 0 0 0 0 0 0 0 0 0 0 0 0 0 0 0 0 0 0 0 0 0 0 0 0 0 0 0 0 0 0 0 0 0 0 0 0 0 0 0 0 0 0 0 0 0 0 0 0 0 0 0 354 354 354 355 354 354 355 356 356 356 355 355 355 352 352 349 349 354 351 353 354 353 355 356 355 356 353 355 354 352 352 352 353 354 355 354 355 354 355 356 355 355 356 355 357 356 357 358 357 356 356 354 356 355 355 355 353 354 354 354 354 353 353 352 351 352 353 352 351 353 352 350 351 351 352 351 352 353 350 352 355 354 352 353 350 352 351 353 352 350 352 353 352 355 354 356 356 357 356 354 355 355 355 355 353 352 352 351 354 351 352 351 351 353 352 353 352 351 353 351 352 350 350 351 351 352 352 352 354 354 355 354 354 352 353 352 354 351 350 351 352 353 353 352 353 350 352 352 351 351 351 351 351 352 352 352 354 354 353 354 352 352 352 352 353 351 352 353 352 353 353 352 351 350 351 351 349 350 349 349 351 352 351 352 351 352 351 354 355 356 356 358 356 355 356 355 353 353 352 353 349 351 350 348 350 351 349 349 347 347 346 346 347 347 346 346 346 346 344 345 345 347 347 349 348 348 349 350 351 350 349 350 349 349 351 352 351 349 353 353 356 355 355 354 352 352 0 0 0 0 0
    0 0 0 0 0 0 0 0 0 0 0 0 0 0 0 0 0 0 0 0 0 0 0 0 0 0 0 0 0 0 0 0 0 0 0 0 0 0 0 0 0 0 0 0 0 0 0 0 0 0 0 0 0 0 0 0 0 0 0 0 0 0 0 0 0 0 0 0 0 353 353 353 355 354 353 355 356 355 356 355 355 354 351 351 350 349 353 351 352 354 353 355 355 355 355 353 354 354 352 352 352 353 354 355 354 355 354 354 355 354 355 356 355 357 356 357 358 358 357 356 354 356 355 356 356 354 354 354 354 354 353 354 352 352 353 353 352 351 353 352 350 351 351 352 351 352 353 350 352 355 354 352 352 351 352 351 353 352 351 352 353 353 355 354 356 355 356 355 354 355 355 355 354 354 353 353 352 354 352 352 351 351 352 352 352 352 351 353 351 352 350 350 351 351 352 352 352 354 353 355 354 354 353 354 353 355 352 351 352 353 353 353 353 353 352 353 353 352 353 352 352 351 352 352 351 353 353 352 353 352 351 351 352 353 351 352 352 352 352 353 352 351 350 351 351 350 350 350 349 351 351 352 352 350 352 352 354 355 355 355 357 355 354 355 353 351 352 351 353 349 351 350 349 350 351 350 349 348 348 347 347 347 347 346 345 345 344 343 343 344 346 346 349 348 349 349 350 350 350 349 350 348 349 350 352 351 349 352 352 356 355 355 354 352 353 0 0 0 0 0
    0 0 0 0 0 0 0 0 0 0 0 0 0 0 0 0 0 0 0 0 0 0 0 0 0 0 0 0 0 0 0 0 0 0 0 0 0 0 0 0 0 0 0 0 0 0 0 0 0 0 0 0 0 0 0 0 0 0 0 0 0 0 0 0 0 0 0 0 0 353 353 352 355 353 352 354 355 355 354 354 354 353 350 351 350 349 353 351 352 353 352 354 354 354 354 353 354 354 352 352 352 353 353 354 353 354 353 353 355 353 354 355 354 356 355 356 357 357 357 356 354 356 355 356 356 354 354 354 354 354 353 354 352 352 353 353 352 351 354 352 351 351 351 353 351 352 353 351 353 355 353 351 352 351 352 351 352 352 351 353 354 354 355 355 356 355 356 355 354 353 354 354 354 354 353 353 352 355 352 -193 351 351 352 352 353 352 351 353 351 352 351 350 351 351 352 352 351 353 353 354 354 354 352 354 353 355 352 352 353 352 353 353 353 354 352 354 354 353 354 353 352 352 352 352 351 352 352 351 352 351 351 351 352 353 351 352 352 352 352 352 352 351 350 351 351 349 349 349 349 349 350 351 352 -193 353 352 355 356 356 355 357 354 353 354 353 351 351 351 352 349 351 350 349 350 351 350 350 348 348 347 348 348 347 347 345 345 343 342 341 343 -193 345 349 348 349 349 350 350 350 349 349 348 349 350 352 351 349 351 351 355 354 354 353 351 352 0 0 0 0 0
    0 0 0 0 0 0 0 0 0 0 0 0 0 0 0 0 0 0 0 0 0 0 0 0 0 0 0 0 0 0 0 0 0 0 0 0 0 0 0 0 0 0 0 0 0 0 0 0 0 0 0 0 0 0 0 0 0 0 0 0 0 0 0 0 0 0 0 0 0 353 352 351 354 352 351 353 354 354 354 354 355 354 351 353 351 350 353 351 352 353 353 355 354 354 355 353 354 354 353 352 352 353 353 354 353 353 352 352 354 352 354 355 353 355 355 355 356 357 356 356 354 356 355 356 356 354 354 354 354 354 353 353 352 352 352 353 352 351 353 351 351 351 351 353 351 352 353 351 353 354 352 351 351 351 352 350 352 352 351 354 355 355 356 355 356 355 356 354 353 353 353 354 353 354 353 352 354 355 -193 -193 350 350 351 351 353 352 351 353 350 352 350 350 351 352 352 352 351 353 353 354 353 354 352 353 352 354 352 351 352 352 353 353 353 354 352 354 354 353 354 353 353 352 352 352 351 351 351 350 351 351 351 351 352 354 352 353 353 353 352 352 352 351 350 350 351 349 348 348 348 348 349 351 352 -193 352 352 355 356 356 356 357 354 353 354 353 351 351 351 352 349 351 350 349 351 351 350 350 348 349 348 348 348 347 347 346 345 343 342 341 342 344 345 349 349 349 349 350 350 350 349 350 348 349 350 352 -193 -193 351 350 354 353 353 352 350 351 0 0 0 0 0
    0 0 0 0 0 0 0 0 0 0 0 0 0 0 0 0 0 0 0 0 0 0 0 0 0 0 0 0 0 0 0 0 0 0 0 0 0 0 0 0 0 0 0 0 0 0 0 0 0 0 0 0 0 0 0 0 0 0 0 0 0 0 0 0 0 0 0 0 0 353 351 350 354 352 350 352 353 353 354 355 355 354 352 354 353 351 354 351 352 354 354 355 355 354 355 354 355 355 354 353 353 353 353 354 353 353 352 351 354 352 353 355 353 355 354 355 356 356 356 355 354 356 355 356 356 354 354 353 354 354 353 354 352 352 352 353 352 351 353 351 350 351 351 352 351 352 353 351 353 354 352 350 351 351 352 350 352 352 352 354 355 355 356 355 356 355 356 354 353 353 353 353 353 354 353 353 -193 -209 -193 -193 -193 349 349 349 351 350 350 351 349 350 350 350 350 352 352 352 352 353 353 353 353 353 351 352 351 353 351 351 352 352 352 353 353 354 352 354 353 352 353 353 353 352 351 352 350 352 350 351 351 352 352 352 353 354 353 354 353 353 352 353 352 351 350 350 350 349 348 348 348 348 349 352 352 349 352 352 354 355 355 355 356 353 353 354 352 351 351 350 352 349 351 350 349 351 351 351 351 349 349 348 349 349 347 348 346 345 343 342 341 342 344 346 350 349 350 349 350 350 350 349 350 348 349 350 352 -193 -193 349 349 353 352 -193 351 350 351 0 0 0 0 0
    0 0 0 0 0 0 0 0 0 0 0 0 0 0 0 0 0 0 0 0 0 0 0 0 0 0 0 0 0 0 0 0 0 0 0 0 0 0 0 0 0 0 0 0 0 0 0 0 0 0 0 0 0 0 0 0 0 0 0 0 0 0 0 0 0 0 0 0 0 353 351 350 353 352 349 352 352 353 354 356 356 354 353 355 353 351 353 352 353 354 355 355 356 355 356 355 356 356 354 353 353 352 352 353 353 352 352 351 353 352 353 354 352 354 354 355 356 356 357 355 354 356 355 356 356 354 354 353 354 354 354 354 352 353 352 353 352 351 353 351 350 351 351 352 351 352 353 351 353 354 352 350 351 351 352 350 352 352 352 354 355 355 356 355 356 356 357 354 354 352 353 353 352 354 352 353 -193 -209 -193 -193 -193 348 348 348 349 349 349 350 348 349 349 350 350 352 353 352 352 353 353 353 352 353 351 351 351 353 351 351 353 352 352 353 353 354 352 353 353 351 352 353 352 351 351 352 351 352 351 351 352 353 352 353 354 355 353 354 354 354 353 353 353 351 350 350 350 348 348 348 348 349 349 352 353 350 352 353 354 354 354 355 356 353 353 354 352 351 351 350 352 349 351 350 349 351 351 351 351 349 349 349 349 349 348 348 346 345 344 343 342 343 -193 347 350 349 350 349 350 350 350 349 350 348 349 349 351 351 -193 349 349 352 352 351 350 349 350 0 0 0 0 0
    0 0 0 0 0 0 0 0 0 0 0 0 0 0 0 0 0 0 0 0 0 0 0 0 0 0 0 0 0 0 0 0 0 0 0 0 0 0 0 0 0 0 0 0 0 0 0 0 0 0 0 0 0 0 0 0 0 0 0 0 0 0 0 0 0 0 0 0 0 353 351 350 353 352 349 352 352 353 354 356 356 354 353 355 354 352 353 352 353 355 355 356 357 356 356 356 356 356 355 354 353 352 352 352 352 352 351 351 353 352 353 354 352 354 354 355 356 356 357 355 354 356 355 356 355 354 353 353 354 354 354 353 352 353 352 353 352 351 353 351 350 351 352 352 351 352 353 351 353 354 352 350 351 351 352 350 352 351 351 353 354 354 356 355 356 356 357 355 354 352 352 352 351 354 351 353 353 352 -193 -193 -193 349 348 349 348 348 348 350 348 350 349 350 350 352 352 351 351 352 352 352 351 352 350 351 350 352 352 351 353 352 352 353 352 353 352 352 352 351 352 352 352 352 352 352 351 352 351 352 352 353 352 353 355 355 354 354 354 354 353 353 353 351 350 350 350 348 347 348 348 348 349 352 353 350 351 353 353 354 353 355 356 352 353 353 352 351 351 350 352 348 351 350 349 351 351 351 351 349 350 349 350 350 348 349 347 346 -193 -193 343 344 347 347 350 349 350 349 349 349 350 348 349 347 349 349 351 351 349 348 349 352 351 351 350 349 350 0 0 0 0 0
    0 0 0 0 0 0 0 0 0 0 0 0 0 0 0 0 0 0 0 0 0 0 0 0 0 0 0 0 0 0 0 0 0 0 0 0 0 0 0 0 0 0 0 0 0 0 0 0 0 0 0 0 0 0 0 0 0 0 0 0 0 0 0 0 0 0 0 0 0 354 352 351 353 353 350 352 353 354 354 356 356 354 353 355 354 353 353 353 353 355 355 356 357 356 356 356 356 356 356 355 354 353 352 352 352 352 351 351 353 352 353 354 352 354 354 354 356 357 357 355 353 356 355 356 355 353 352 352 353 354 353 353 351 352 351 352 352 351 352 351 350 351 352 352 351 352 353 351 353 354 352 350 351 351 352 350 351 351 351 352 354 354 356 355 356 356 357 355 354 351 351 352 351 354 351 354 355 353 352 353 350 350 349 350 348 349 349 350 348 350 349 350 349 351 351 350 350 351 350 351 350 351 349 350 350 351 351 351 352 352 351 352 352 352 351 352 352 351 351 352 352 352 351 352 350 351 350 351 351 352 351 353 355 355 354 354 354 354 353 353 353 351 351 349 349 348 347 347 347 348 348 351 352 350 350 353 353 353 352 354 355 352 352 353 351 350 351 350 351 348 351 349 349 351 351 351 351 350 350 350 351 350 349 350 347 347 -193 -193 -209 345 347 348 350 350 350 349 349 349 349 348 348 346 348 348 351 351 349 348 349 351 350 350 349 349 350 0 0 0 0 0
    0 0 0 0 0 0 0 0 0 0 0 0 0 0 0 0 0 0 0 0 0 0 0 0 0 0 0 0 0 0 0 0 0 0 0 0 0 0 0 0 0 0 0 0 0 0 0 0 0 0 0 0 0 0 0 0 0 0 0 0 0 0 0 0 0 0 0 0 0 353 352 351 353 353 351 352 353 354 354 355 355 354 353 355 355 354 353 354 354 355 356 356 357 355 356 356 356 356 356 355 354 353 352 352 352 351 351 350 352 351 352 354 352 354 354 354 356 356 356 354 353 355 354 356 355 353 352 352 353 354 353 353 350 352 351 353 352 352 352 351 350 351 352 352 351 352 352 352 353 354 352 351 352 352 352 351 351 351 351 352 354 354 356 355 356 356 357 355 354 352 351 352 351 354 351 355 356 354 353 354 351 352 350 351 349 350 350 351 348 350 348 348 349 350 350 348 349 349 349 350 349 350 349 349 350 350 351 350 351 351 350 351 351 351 351 351 352 351 351 352 351 351 351 350 349 350 349 350 351 352 351 353 355 355 354 354 354 354 353 353 353 351 351 349 350 348 347 348 347 348 348 350 352 350 350 353 353 352 352 354 354 351 352 352 350 349 350 350 350 348 350 349 349 351 351 350 351 350 351 350 351 351 349 350 347 347 -193 346 -209 347 349 349 350 350 349 349 348 348 348 347 348 346 348 348 351 352 350 349 349 351 350 349 348 349 349 0 0 0 0 0
    0 0 0 0 0 0 0 0 0 0 0 0 0 0 0 0 0 0 0 0 0 0 0 0 0 0 0 0 0 0 0 0 0 0 0 0 0 0 0 0 0 0 0 0 0 0 0 0 0 0 0 0 0 0 0 0 0 0 0 0 0 0 0 0 0 0 0 0 0 353 352 351 352 353 351 351 353 353 353 353 354 353 353 354 354 354 354 355 355 355 356 356 357 355 356 355 356 356 355 354 353 351 351 351 351 350 350 350 352 351 352 354 352 353 353 354 355 356 356 354 352 355 354 356 354 353 352 352 353 354 353 353 350 352 352 353 352 352 353 351 351 352 352 352 351 352 352 352 353 354 352 351 352 352 353 351 351 351 351 352 353 353 355 354 356 356 357 355 354 351 351 352 350 354 351 354 355 353 352 354 351 352 350 351 349 349 349 350 347 349 347 347 348 349 350 347 348 349 349 349 349 349 349 348 350 350 351 350 351 350 350 351 352 351 351 351 351 351 351 352 351 350 350 350 348 349 348 350 351 352 351 354 355 354 354 354 354 354 353 353 353 351 350 349 350 348 348 348 348 348 348 350 352 350 350 353 353 351 351 353 354 351 351 351 349 349 350 349 350 347 349 348 349 350 350 350 351 349 350 350 351 351 349 350 347 -193 -193 -193 -193 -193 350 350 351 351 350 348 348 348 347 346 347 345 346 347 350 352 349 348 348 350 350 349 348 348 348 0 0 0 0 0
    0 0 0 0 0 0 0 0 0 0 0 0 0 0 0 0 0 0 0 0 0 0 0 0 0 0 0 0 0 0 0 0 0 0 0 0 0 0 0 0 0 0 0 0 0 0 0 0 0 0 0 0 0 0 0 0 0 0 0 0 0 0 0 0 0 0 0 0 0 352 351 351 352 353 352 351 353 352 353 353 353 353 352 353 354 354 354 355 356 356 357 357 357 355 356 355 356 355 355 353 353 351 351 351 352 351 351 350 352 352 353 354 352 353 353 353 355 356 355 353 352 355 354 355 354 353 351 352 353 354 352 353 351 352 352 353 353 353 353 351 351 352 353 352 352 352 351 351 353 354 352 350 352 351 352 351 351 351 351 351 352 352 355 354 356 356 357 355 355 353 352 352 351 354 351 353 354 353 352 354 351 351 350 350 349 349 349 349 347 348 346 347 347 348 350 347 348 349 348 349 349 348 348 348 350 350 351 351 350 351 350 351 352 350 351 350 351 351 350 351 350 350 350 349 348 349 348 350 351 352 351 354 355 354 353 354 354 354 353 353 352 350 350 349 349 348 348 348 348 348 348 351 352 350 350 353 352 350 350 352 353 350 351 350 349 349 350 349 349 347 348 348 348 350 350 349 350 349 349 349 351 350 349 350 347 -193 -193 -193 -193 -193 351 352 352 351 350 348 348 347 347 345 346 344 345 347 350 352 349 348 348 349 349 349 347 347 347 0 0 0 0 0
    0 0 0 0 0 0 0 0 0 0 0 0 0 0 0 0 0 0 0 0 0 0 0 0 0 0 0 0 0 0 0 0 0 0 0 0 0 0 0 0 0 0 0 0 0 0 0 0 0 0 0 0 0 0 0 0 0 0 0 0 0 0 0 0 0 0 0 0 0 352 351 352 352 353 353 352 353 353 353 354 354 353 353 354 354 354 354 355 355 356 357 357 357 356 356 356 356 356 355 354 354 352 352 352 353 352 353 352 354 354 354 355 353 354 354 353 355 356 354 353 352 355 354 355 354 353 351 352 353 353 352 352 351 351 351 353 353 354 353 351 351 351 353 352 351 351 350 350 352 353 352 350 352 350 351 350 350 350 350 350 351 350 353 352 354 355 356 355 355 354 353 354 353 355 352 354 354 353 352 353 351 351 349 350 349 348 348 349 346 348 347 347 348 348 351 348 349 349 349 350 348 348 348 347 349 349 351 351 350 351 350 351 352 350 350 349 350 350 350 350 349 349 350 349 348 349 348 350 351 352 352 355 355 354 353 354 354 354 353 353 352 350 350 349 349 348 348 348 348 348 348 351 353 350 349 351 351 349 349 351 352 350 350 350 349 349 350 349 349 347 348 348 348 349 349 349 350 349 349 349 350 349 348 349 347 -209 -209 -193 -193 350 351 352 352 351 350 348 348 347 347 345 346 344 345 346 349 352 349 348 349 350 350 349 347 347 346 0 0 0 0 0
    0 0 0 0 0 0 0 0 0 0 0 0 0 0 0 0 0 0 0 0 0 0 0 0 0 0 0 0 0 0 0 0 0 0 0 0 0 0 0 0 0 0 0 0 0 0 0 0 0 0 0 0 0 0 0 0 0 0 0 0 0 0 0 0 0 0 0 0 0 351 351 352 351 352 353 352 354 353 354 354 354 353 352 353 354 354 354 355 355 356 356 356 357 356 356 356 356 356 356 355 355 353 353 353 354 353 354 353 354 355 355 355 354 354 354 354 355 356 354 353 352 356 354 355 354 353 352 353 352 353 352 352 351 351 350 352 352 354 352 351 350 351 353 351 351 351 349 350 352 353 352 349 352 350 350 351 350 350 349 349 349 348 351 351 353 354 354 354 353 352 352 353 351 354 351 353 352 352 352 353 351 351 349 350 349 349 349 349 347 348 348 347 348 348 350 348 349 349 348 349 348 348 348 348 349 349 352 352 351 352 351 352 352 350 350 349 350 350 350 350 348 348 349 348 347 347 347 348 350 351 350 354 355 353 353 353 354 353 353 353 352 350 350 349 349 348 348 349 348 348 349 351 353 350 349 352 351 349 349 351 352 350 350 350 349 349 350 350 349 347 348 347 348 349 349 349 350 348 348 348 349 348 347 -193 345 -209 -209 -193 -193 350 351 351 352 351 350 349 348 348 347 346 346 345 344 345 348 349 349 348 349 349 350 349 348 348 347 0 0 0 0 0
    0 0 0 0 0 0 0 0 0 0 0 0 0 0 0 0 0 0 0 0 0 0 0 0 0 0 0 0 0 0 0 0 0 0 0 0 0 0 0 0 0 0 0 0 0 0 0 0 0 0 0 0 0 0 0 0 0 0 0 0 0 0 0 0 0 0 0 0 0 351 350 352 352 352 354 353 354 354 354 354 353 352 352 352 353 353 353 354 354 355 355 355 356 355 356 355 356 356 355 356 355 354 353 354 354 354 354 354 354 355 355 355 354 354 354 354 355 356 353 354 353 356 354 355 353 352 351 353 352 353 351 352 350 351 351 353 352 354 352 351 350 351 353 351 350 350 349 349 351 352 352 348 351 349 349 350 350 350 348 349 349 348 350 351 352 353 352 353 352 351 351 351 351 354 351 353 351 352 352 353 351 351 349 350 349 349 349 349 347 348 348 348 348 348 349 348 348 349 348 349 348 348 348 348 350 350 352 352 352 353 352 352 352 350 350 349 350 350 350 349 348 348 348 347 346 346 345 346 347 350 349 353 355 352 352 353 354 353 352 353 351 350 350 349 349 349 348 349 348 349 349 352 353 352 349 352 351 349 349 350 352 350 350 350 349 348 350 349 349 346 347 347 348 348 349 348 349 348 348 348 348 347 346 -193 345 -193 -209 348 348 350 350 351 351 350 350 349 348 348 347 347 346 345 344 343 346 348 348 347 348 349 349 349 348 348 348 0 0 0 0 0
    0 0 0 0 0 0 0 0 0 0 0 0 0 0 0 0 0 0 0 0 0 0 0 0 0 0 0 0 0 0 0 0 0 0 0 0 0 0 0 0 0 0 0 0 0 0 0 0 0 0 0 0 0 0 0 0 0 0 0 0 0 0 0 0 0 0 0 0 0 350 350 351 352 352 354 353 355 354 355 355 354 353 353 352 352 353 353 353 353 354 354 355 355 355 356 355 356 355 355 356 355 355 354 355 355 355 355 354 354 355 355 355 353 354 353 354 354 355 352 353 352 355 353 354 352 352 351 352 351 352 351 352 350 352 351 353 353 354 352 351 351 351 353 351 351 350 349 349 350 352 351 348 350 349 348 349 349 349 348 348 349 348 349 351 352 352 352 353 353 352 352 352 351 354 352 353 351 352 352 353 351 350 349 350 349 349 348 349 347 348 348 348 348 348 349 348 348 349 348 349 348 348 348 348 350 350 351 352 351 352 351 352 352 350 351 350 351 351 351 350 349 348 348 347 346 345 345 345 346 349 348 353 355 352 352 352 353 352 351 352 350 349 350 349 349 349 348 349 348 349 349 353 353 352 349 351 351 349 348 350 351 349 350 349 349 348 349 349 349 346 347 347 348 348 349 349 349 348 348 348 348 347 346 346 344 -193 -193 348 348 350 351 352 351 350 350 349 348 348 347 347 346 345 343 343 347 348 347 346 348 348 349 348 347 348 348 0 0 0 0 0
    0 0 0 0 0 0 0 0 0 0 0 0 0 0 0 0 0 0 0 0 0 0 0 0 0 0 0 0 0 0 0 0 0 0 0 0 0 0 0 0 0 0 0 0 0 0 0 0 0 0 0 0 0 0 0 0 0 0 0 0 0 0 0 0 0 0 0 0 0 349 350 351 351 351 354 352 354 354 355 355 355 353 353 352 352 353 353 353 353 354 354 354 355 355 355 354 355 355 355 356 355 354 354 355 355 355 355 354 354 355 354 355 353 354 352 352 353 354 351 352 352 353 352 352 351 351 350 352 351 352 351 352 351 354 352 353 353 353 352 351 351 351 352 351 351 350 349 349 350 352 351 348 350 349 348 349 349 350 348 348 348 347 348 350 352 352 352 353 353 353 352 353 352 353 351 352 351 351 352 353 351 351 349 350 349 349 348 348 347 347 348 348 348 348 349 348 348 350 348 349 348 348 348 349 350 350 351 352 351 352 352 352 352 351 352 351 352 352 351 350 349 348 348 346 345 345 345 345 346 348 348 352 354 351 351 351 351 352 351 351 349 349 349 349 349 349 348 349 349 349 349 353 352 351 349 350 350 348 348 349 350 349 349 349 348 348 349 349 348 346 347 346 347 348 349 350 349 349 348 348 348 346 345 345 343 -193 344 347 348 350 351 352 351 351 350 349 348 348 347 347 346 345 345 345 349 348 348 346 348 348 349 348 347 347 347 0 0 0 0 0
    0 0 0 0 0 0 0 0 0 0 0 0 0 0 0 0 0 0 0 0 0 0 0 0 0 0 0 0 0 0 0 0 0 0 0 0 0 0 0 0 0 0 0 0 0 0 0 0 0 0 0 0 0 0 0 0 0 0 0 0 0 0 0 0 0 0 0 0 0 348 349 350 350 350 353 352 353 352 355 355 355 353 353 352 352 352 353 353 353 354 354 354 354 355 355 354 355 355 354 355 355 354 353 355 354 354 354 354 353 354 354 354 352 353 351 351 352 352 351 351 351 352 351 351 350 351 350 352 351 352 351 351 351 354 352 353 353 353 353 351 351 351 352 351 351 350 349 349 350 351 350 348 350 349 348 349 349 350 348 348 348 347 347 349 350 351 352 352 353 353 352 353 352 353 351 352 352 352 352 353 352 351 350 350 350 349 348 348 346 347 347 347 347 347 349 348 348 350 349 349 349 349 349 349 350 350 351 352 351 352 352 352 352 351 352 351 351 351 350 350 349 348 348 346 346 346 345 346 347 349 349 353 353 351 350 350 350 351 350 350 348 348 349 349 349 349 348 349 349 350 350 354 352 353 349 350 349 348 347 348 349 348 349 348 348 347 348 348 348 346 346 346 346 348 348 349 349 348 348 348 347 345 345 344 342 341 343 345 346 349 350 352 350 351 350 349 349 349 348 348 347 347 346 347 350 350 349 347 348 349 350 349 347 347 347 0 0 0 0 0
    0 0 0 0 0 0 0 0 0 0 0 0 0 0 0 0 0 0 0 0 0 0 0 0 0 0 0 0 0 0 0 0 0 0 0 0 0 0 0 0 0 0 0 0 0 0 0 0 0 0 0 0 0 0 0 0 0 0 0 0 0 0 0 0 0 0 0 0 0 348 349 349 350 350 352 351 352 351 353 354 354 352 352 352 352 351 352 352 352 354 354 354 354 355 356 355 355 355 354 356 355 354 353 355 353 354 354 353 353 354 353 354 351 353 351 351 351 351 350 350 350 350 350 350 350 351 350 352 350 352 351 351 351 354 351 353 353 353 353 351 351 351 352 351 351 350 349 349 349 351 350 348 350 349 348 349 348 349 348 348 348 347 347 348 349 349 350 351 352 353 352 353 352 353 352 352 353 352 353 353 352 351 351 350 351 349 349 348 346 347 347 347 347 348 349 350 349 351 350 350 349 350 349 350 349 350 350 351 351 352 351 351 351 350 351 350 350 350 349 349 348 347 348 346 346 346 347 348 348 349 349 352 353 350 350 350 349 350 349 350 348 348 348 349 348 349 348 348 348 350 349 353 350 353 349 350 349 347 347 347 349 348 348 348 347 347 348 348 347 345 345 345 -193 346 347 349 348 348 347 347 347 -193 344 343 341 341 341 343 344 347 349 -193 350 350 350 350 349 349 349 349 347 348 347 347 350 350 350 348 349 350 350 350 348 348 347 0 0 0 0 0
    0 0 0 0 0 0 0 0 0 0 0 0 0 0 0 0 0 0 0 0 0 0 0 0 0 0 0 0 0 0 0 0 0 0 0 0 0 0 0 0 0 0 0 0 0 0 0 0 0 0 0 0 0 0 0 0 0 0 0 0 0 0 0 0 0 0 0 0 0 349 349 350 350 350 353 352 352 352 353 355 354 352 352 352 352 351 352 352 352 354 354 354 354 355 356 355 355 355 355 357 356 355 354 356 353 353 354 353 352 354 353 353 351 353 351 350 350 351 349 350 350 350 350 350 350 350 350 351 350 351 350 350 351 354 351 353 352 353 352 351 351 351 352 352 351 350 349 349 349 350 350 348 349 348 347 348 348 349 348 348 348 347 347 349 349 349 350 350 352 353 352 353 353 354 354 354 354 352 354 353 353 351 351 350 351 349 349 348 347 347 348 348 348 349 350 351 349 352 351 350 350 351 350 350 349 350 349 349 350 350 350 350 350 349 350 349 350 349 349 350 348 348 348 347 347 347 348 348 350 350 350 353 354 351 350 350 350 350 349 350 348 347 348 349 348 349 347 348 348 349 348 350 347 350 348 349 349 347 347 348 349 348 349 348 348 347 348 348 347 344 344 344 344 345 347 349 348 349 348 348 347 -193 -193 -193 342 341 341 342 344 346 348 349 349 350 350 349 349 350 349 350 348 349 348 348 351 351 351 349 349 350 350 350 348 348 347 0 0 0 0 0
    0 0 0 0 0 0 0 0 0 0 0 0 0 0 0 0 0 0 0 0 0 0 0 0 0 0 0 0 0 0 0 0 0 0 0 0 0 0 0 0 0 0 0 0 0 0 0 0 0 0 0 0 0 0 0 0 0 0 0 0 0 0 0 0 0 0 0 0 0 350 350 351 351 351 353 353 353 353 354 356 355 352 353 352 352 351 352 352 351 353 353 353 354 355 356 355 355 356 355 357 356 356 354 356 353 353 353 353 351 353 352 352 351 352 351 349 350 350 349 349 350 349 350 350 350 350 349 351 350 351 350 349 350 353 350 353 352 352 352 351 350 351 352 351 350 350 349 349 349 350 349 348 349 348 347 348 348 349 348 348 348 347 347 349 349 348 349 350 352 352 -193 352 352 353 354 354 355 353 354 353 354 352 352 351 352 350 350 349 349 348 350 349 349 349 351 352 350 352 351 351 350 352 350 350 349 350 349 348 349 349 348 349 348 348 349 348 350 349 349 351 349 350 349 347 348 348 349 349 351 351 350 353 354 351 351 351 350 350 349 350 348 347 348 350 349 349 348 348 348 349 348 350 347 349 348 349 349 348 348 349 349 349 349 349 348 347 348 348 346 344 343 343 343 345 347 349 348 349 348 348 348 346 346 -193 343 -193 343 343 344 -193 347 348 348 349 349 349 349 350 349 350 349 350 349 350 352 352 352 349 349 349 349 349 348 347 346 0 0 0 0 0
    0 0 0 0 0 0 0 0 0 0 0 0 0 0 0 0 0 0 0 0 0 0 0 0 0 0 0 0 0 0 0 0 0 0 0 0 0 0 0 0 0 0 0 0 0 0 0 0 0 0 0 0 0 0 0 0 0 0 0 0 0 0 0 0 0 0 0 0 0 351 350 351 351 350 352 352 352 353 353 356 355 352 353 352 351 350 351 352 351 353 353 352 354 354 356 355 354 355 354 356 355 354 353 355 351 351 352 351 350 351 351 351 350 351 351 349 350 350 349 349 350 349 351 350 350 350 349 351 350 351 350 349 350 352 351 353 352 352 352 351 351 351 352 351 350 350 350 349 349 350 349 348 349 349 348 348 348 349 348 348 349 347 347 350 350 349 351 351 353 354 352 351 351 351 353 354 355 353 354 354 354 353 354 353 352 351 352 350 350 349 351 350 349 351 352 352 350 352 352 351 351 353 351 351 349 350 349 347 348 348 347 348 347 347 348 349 350 349 350 352 350 352 351 348 348 348 350 350 352 351 350 354 355 351 351 350 350 349 349 350 348 347 348 350 349 350 348 349 349 350 348 350 348 350 349 350 349 348 348 349 349 349 348 348 347 347 347 347 346 344 343 343 344 345 347 348 347 349 348 348 348 347 347 346 -193 -193 -193 346 346 347 348 349 348 348 348 348 348 349 349 351 349 350 349 351 353 353 352 349 349 349 348 348 347 346 344 0 0 0 0 0
    0 0 0 0 0 0 0 0 0 0 0 0 0 0 0 0 0 0 0 0 0 0 0 0 0 0 0 0 0 0 0 0 0 0 0 0 0 0 0 0 0 0 0 0 0 0 0 0 0 0 0 0 0 0 0 0 0 0 0 0 0 0 0 0 0 0 0 0 0 350 350 350 351 350 351 352 352 353 353 356 355 352 353 351 351 349 351 352 350 352 352 351 354 354 355 354 353 354 353 355 354 353 352 354 351 350 351 350 350 351 350 350 349 351 351 349 350 351 350 350 350 350 351 350 351 350 349 351 350 351 350 348 350 352 351 353 352 352 353 351 351 351 352 352 350 350 350 349 349 350 350 348 349 349 348 348 348 348 348 348 348 347 347 349 350 349 352 352 354 355 353 352 353 353 354 355 356 354 354 354 355 354 354 353 352 351 352 351 350 349 350 350 349 351 352 353 351 352 353 352 352 354 352 352 350 351 349 347 348 347 347 347 347 347 348 349 349 349 349 351 350 354 353 349 350 350 352 353 353 351 351 354 355 351 350 350 350 349 349 349 347 347 348 350 349 349 348 349 349 350 349 350 348 350 350 351 349 348 348 349 349 348 348 347 347 346 346 347 346 343 343 343 344 345 346 348 347 349 349 349 350 349 349 348 348 -193 348 348 348 348 348 348 348 348 347 347 347 348 348 350 348 351 349 352 353 353 351 348 348 348 347 347 346 343 341 0 0 0 0 0
    0 0 0 0 0 0 0 0 0 0 0 0 0 0 0 0 0 0 0 0 0 0 0 0 0 0 0 0 0 0 0 0 0 0 0 0 0 0 0 0 0 0 0 0 0 0 0 0 0 0 0 0 0 0 0 0 0 0 0 0 0 0 0 0 0 0 0 0 0 350 350 350 351 350 351 352 352 352 352 355 355 352 353 351 351 349 350 352 350 351 351 351 353 352 354 353 352 353 352 354 353 352 351 354 350 349 351 350 350 350 350 350 350 351 351 349 350 351 350 350 351 350 352 350 350 350 349 350 349 350 349 348 349 352 351 353 353 352 353 351 351 351 352 352 351 351 350 349 350 350 350 349 349 349 348 349 348 348 348 348 348 347 347 349 349 350 353 352 354 356 353 352 352 351 353 354 356 352 353 354 355 354 355 354 353 352 353 351 351 349 350 349 348 351 352 353 351 353 354 352 353 355 352 352 350 350 348 346 -193 347 346 346 347 -193 348 349 350 350 348 351 350 354 354 352 353 354 354 355 355 352 352 355 354 351 350 350 350 349 349 349 347 347 348 349 348 348 347 349 349 350 349 350 348 350 350 351 349 348 348 349 349 349 348 348 347 347 347 347 346 344 343 343 343 -193 345 346 346 347 348 348 350 349 351 349 350 350 349 349 349 348 348 348 347 347 347 346 346 348 348 349 347 351 348 351 353 352 350 348 348 348 346 346 345 339 337 0 0 0 0 0
    0 0 0 0 0 0 0 0 0 0 0 0 0 0 0 0 0 0 0 0 0 0 0 0 0 0 0 0 0 0 0 0 0 0 0 0 0 0 0 0 0 0 0 0 0 0 0 0 0 0 0 0 0 0 0 0 0 0 0 0 0 0 0 0 0 0 0 0 0 350 350 350 351 350 350 352 351 351 350 352 353 351 351 350 349 348 349 352 350 351 351 351 353 351 354 352 351 352 351 353 352 351 350 353 350 349 350 349 350 350 351 350 350 351 352 350 351 351 351 350 351 350 352 350 350 349 348 349 349 349 349 347 349 351 350 353 352 352 353 351 351 351 352 352 351 351 350 350 350 350 350 349 349 350 348 349 348 349 349 348 348 347 347 349 350 351 353 352 354 355 352 350 350 349 351 353 356 351 353 354 355 355 355 355 354 353 354 352 352 350 350 349 349 352 352 353 351 353 354 353 353 354 352 352 350 350 348 346 -193 347 346 347 347 347 348 348 349 350 348 350 349 350 351 350 353 353 355 356 355 352 352 356 354 350 350 350 349 349 349 348 346 346 347 348 348 347 346 349 349 350 349 350 348 351 351 353 349 348 348 350 349 349 348 348 347 347 347 347 346 344 342 343 343 343 -193 345 344 346 346 348 350 349 352 349 351 350 349 349 348 348 348 347 347 346 346 345 346 347 347 348 348 352 349 352 353 352 350 348 347 347 345 345 343 337 335 0 0 0 0 0
    0 0 0 0 0 0 0 0 0 0 0 0 0 0 0 0 0 0 0 0 0 0 0 0 0 0 0 0 0 0 0 0 0 0 0 0 0 0 0 0 0 0 0 0 0 0 0 0 0 0 0 0 0 0 0 0 0 0 0 0 0 0 0 0 0 0 0 0 0 349 350 350 351 350 350 352 351 350 349 351 351 349 349 348 348 347 348 350 349 349 350 350 352 351 354 352 351 352 351 352 352 351 350 352 349 348 350 349 350 351 351 351 351 351 352 350 351 351 351 350 351 350 352 350 351 349 348 349 349 349 348 347 349 350 350 354 352 353 353 351 351 351 352 353 351 351 350 350 350 350 351 349 349 349 348 349 348 349 349 348 348 348 349 351 351 351 352 352 353 354 350 348 348 348 351 353 356 351 354 354 355 355 355 354 354 352 354 352 352 351 351 351 350 353 353 353 352 353 354 353 353 354 352 351 350 350 348 346 346 346 346 346 346 346 347 348 348 349 348 350 349 350 351 349 351 351 353 356 354 351 352 355 353 350 350 349 349 348 348 347 346 345 346 347 347 346 346 348 349 349 349 350 349 351 351 353 349 349 349 350 350 349 348 348 347 347 347 347 346 344 342 343 343 343 344 344 343 345 346 347 350 349 352 348 351 350 349 348 348 347 347 346 346 345 345 344 345 346 347 347 348 351 349 351 352 351 349 347 347 346 344 343 342 338 336 0 0 0 0 0
    0 0 0 0 0 0 0 0 0 0 0 0 0 0 0 0 0 0 0 0 0 0 0 0 0 0 0 0 0 0 0 0 0 0 0 0 0 0 0 0 0 0 0 0 0 0 0 0 0 0 0 0 0 0 0 0 0 0 0 0 0 0 0 0 0 0 0 0 0 350 350 351 352 350 350 352 350 350 349 351 351 350 349 348 348 347 348 350 348 348 349 350 352 351 354 352 351 352 351 352 351 350 350 352 349 348 350 350 351 351 352 351 352 352 353 351 351 351 351 350 351 350 352 350 350 349 348 348 349 349 348 346 348 348 349 354 352 353 353 351 351 351 352 353 351 352 350 349 350 350 351 350 349 349 348 349 349 349 349 348 348 349 350 352 351 351 352 352 353 353 349 347 -209 347 350 351 355 350 354 354 355 354 354 353 353 352 353 351 352 351 351 352 352 354 354 354 353 354 354 354 354 353 351 350 350 350 348 347 347 347 347 347 347 346 347 347 349 349 348 350 349 351 350 348 351 349 351 354 352 351 351 355 353 349 349 349 348 348 347 347 345 345 345 346 346 345 346 348 348 348 348 349 348 350 350 351 349 349 349 351 349 349 348 348 347 347 347 347 346 345 343 -193 -193 343 344 344 343 345 -193 347 350 349 354 349 353 351 350 349 348 347 347 345 345 -193 344 343 344 345 346 346 347 351 348 351 351 350 348 346 346 345 343 343 -209 338 337 0 0 0 0 0
    0 0 0 0 0 0 0 0 0 0 0 0 0 0 0 0 0 0 0 0 0 0 0 0 0 0 0 0 0 0 0 0 0 0 0 0 0 0 0 0 0 0 0 0 0 0 0 0 0 0 0 0 0 0 0 0 0 0 0 0 0 0 0 0 0 0 0 0 0 349 349 350 351 349 349 351 350 349 351 353 354 351 350 349 348 347 348 350 348 347 348 349 351 350 352 351 350 351 350 351 350 349 349 352 349 349 350 350 352 351 352 351 352 351 352 351 351 351 351 350 352 350 352 350 350 349 348 348 349 348 347 346 347 347 349 353 352 354 353 351 351 351 352 353 351 352 350 349 350 349 351 350 348 349 348 348 349 348 349 347 348 350 350 352 351 351 352 351 351 351 348 346 -193 345 348 350 353 349 353 353 354 354 353 352 352 351 352 351 351 351 351 352 352 354 354 354 353 354 354 353 353 352 351 350 350 351 349 348 348 348 348 348 348 348 348 349 351 352 350 352 351 352 351 348 351 348 350 353 351 350 351 354 352 349 348 348 348 347 347 346 345 345 344 346 346 345 346 348 348 348 348 349 349 350 349 350 348 348 348 350 349 348 347 347 347 347 347 347 346 345 344 345 345 344 345 344 343 345 346 347 349 349 354 350 354 352 350 349 349 348 347 345 345 343 343 342 343 343 344 343 346 348 348 350 351 350 347 345 346 346 344 343 -193 339 338 0 0 0 0 0
    0 0 0 0 0 0 0 0 0 0 0 0 0 0 0 0 0 0 0 0 0 0 0 0 0 0 0 0 0 0 0 0 0 0 0 0 0 0 0 0 0 0 0 0 0 0 0 0 0 0 0 0 0 0 0 0 0 0 0 0 0 0 0 0 0 0 0 0 0 348 348 349 350 348 348 349 349 348 351 353 354 352 350 350 349 348 349 349 348 347 347 348 349 348 350 349 348 349 348 349 349 348 349 351 349 350 351 351 353 351 352 351 352 351 352 351 351 351 352 351 352 351 353 351 351 350 349 348 349 348 347 346 348 347 350 354 353 354 353 351 352 352 353 353 352 352 351 350 351 350 352 350 348 349 348 348 349 348 348 347 347 349 349 350 350 351 351 351 350 350 348 346 -193 345 346 347 348 347 351 351 353 353 352 351 351 350 351 350 351 351 350 351 351 352 353 353 352 354 353 352 353 352 351 350 351 352 349 349 349 349 349 350 350 349 349 350 351 351 350 350 350 349 350 347 349 348 349 351 349 349 350 351 350 348 347 347 347 347 346 346 345 345 344 346 347 346 346 348 348 348 348 350 349 349 348 349 347 348 347 348 347 347 346 346 346 346 346 347 346 346 345 346 346 345 345 345 343 345 345 346 348 348 352 349 352 350 349 349 349 348 347 345 345 343 343 342 342 342 342 341 344 346 347 349 350 350 347 345 346 347 344 343 343 341 339 0 0 0 0 0
    0 0 0 0 0 0 0 0 0 0 0 0 0 0 0 0 0 0 0 0 0 0 0 0 0 0 0 0 0 0 0 0 0 0 0 0 0 0 0 0 0 0 0 0 0 0 0 0 0 0 0 0 0 0 0 0 0 0 0 0 0 0 0 0 0 0 0 0 0 347 348 349 349 347 347 348 347 347 349 350 351 350 349 350 349 348 349 349 347 347 347 348 348 348 348 348 348 348 348 348 348 348 349 351 350 351 351 352 354 353 353 352 352 351 352 351 352 352 352 352 352 351 353 350 350 349 348 348 348 348 347 346 348 348 351 354 354 354 353 352 352 353 353 353 353 352 352 351 351 350 353 350 349 348 348 347 348 348 348 346 347 349 349 349 349 350 350 351 350 349 348 -193 -193 -209 346 346 347 346 350 350 352 352 351 350 349 349 350 349 350 351 350 350 351 351 351 351 352 354 353 352 353 351 351 350 351 351 348 349 350 350 350 350 352 350 350 350 350 350 349 349 349 348 349 347 348 348 349 349 348 348 348 349 349 347 347 347 347 347 346 346 345 345 345 346 346 345 346 347 347 348 347 349 349 349 349 349 -193 347 347 346 345 346 345 345 345 345 346 347 347 347 -193 346 346 346 345 344 342 343 343 344 346 346 350 348 350 349 348 348 348 347 347 345 345 343 344 343 343 342 341 340 343 343 346 346 348 349 347 345 347 347 345 343 343 342 340 0 0 0 0 0
    0 0 0 0 0 0 0 0 0 0 0 0 0 0 0 0 0 0 0 0 0 0 0 0 0 0 0 0 0 0 0 0 0 0 0 0 0 0 0 0 0 0 0 0 0 0 0 0 0 0 0 0 0 0 0 0 0 0 0 0 0 0 0 0 0 0 0 0 0 347 347 348 348 347 346 347 347 347 348 349 350 349 348 350 349 349 349 349 347 347 347 348 348 348 348 348 348 348 348 348 348 349 350 352 352 353 353 354 356 354 354 353 353 352 353 352 352 352 352 352 352 351 352 350 349 349 348 347 347 347 346 347 348 350 352 355 354 354 353 353 353 353 354 354 353 353 352 352 351 351 353 350 349 348 348 347 348 349 348 347 348 349 349 349 348 349 349 349 349 348 347 -193 -193 -209 345 345 346 345 348 348 350 351 349 349 348 348 349 348 349 350 349 350 350 350 350 350 352 353 351 352 351 350 351 350 350 349 348 349 350 351 351 351 353 351 351 351 350 350 349 349 349 347 348 346 347 347 347 347 346 346 347 348 347 347 347 347 347 347 346 346 345 346 345 346 346 346 346 348 348 349 348 350 350 350 350 350 -193 347 347 346 345 346 346 345 345 345 346 347 347 347 345 346 346 345 345 343 341 341 340 342 343 344 -193 -193 348 347 347 347 348 347 347 -193 -193 -193 345 345 345 344 343 342 344 344 346 345 346 347 346 345 346 347 345 343 344 344 342 0 0 0 0 0
    0 0 0 0 0 0 0 0 0 0 0 0 0 0 0 0 0 0 0 0 0 0 0 0 0 0 0 0 0 0 0 0 0 0 0 0 0 0 0 0 0 0 0 0 0 0 0 0 0 0 0 0 0 0 0 0 0 0 0 0 0 0 0 0 0 0 0 0 0 346 346 347 347 346 346 346 347 347 348 350 351 350 349 352 350 350 351 350 349 348 348 349 348 349 348 348 348 349 348 349 349 350 350 353 353 354 354 355 356 354 354 353 354 352 353 352 352 351 352 352 352 351 351 349 349 348 348 347 347 348 347 348 350 353 353 355 355 355 352 353 353 353 354 354 354 354 354 354 353 352 354 351 349 349 349 348 349 350 349 348 349 351 350 350 349 348 349 349 348 347 346 345 -193 345 346 345 346 345 347 347 349 349 349 348 347 347 348 348 350 351 350 351 351 351 351 350 353 352 351 352 350 350 350 350 350 349 348 349 350 351 352 352 354 352 352 352 351 351 350 350 350 347 348 346 346 346 346 346 346 346 346 347 347 347 347 347 347 348 347 346 345 346 345 346 346 347 347 348 349 350 349 351 352 352 351 351 349 -193 347 347 345 346 346 345 345 345 346 347 347 347 346 347 347 346 346 345 343 343 342 342 342 344 -193 -193 -193 -193 345 346 346 346 346 -193 -193 345 346 346 346 345 345 344 345 345 346 345 346 346 346 345 346 347 345 343 343 344 342 0 0 0 0 0
    0 0 0 0 0 0 0 0 0 0 0 0 0 0 0 0 0 0 0 0 0 0 0 0 0 0 0 0 0 0 0 0 0 0 0 0 0 0 0 0 0 0 0 0 0 0 0 0 0 0 0 0 0 0 0 0 0 0 0 0 0 0 0 0 0 0 0 0 0 345 345 347 346 345 346 346 347 348 350 351 352 351 351 354 351 352 352 351 350 350 349 350 349 350 348 348 348 349 348 349 349 350 350 353 353 354 354 355 356 354 354 353 353 352 353 352 352 351 352 352 352 350 351 349 349 348 348 348 349 349 348 350 352 355 355 357 355 355 353 354 354 354 355 355 355 355 355 355 354 354 355 351 350 349 349 348 349 350 350 348 351 353 352 352 349 349 349 349 348 347 346 346 345 346 347 346 348 347 349 349 350 350 349 348 347 347 348 348 350 351 350 351 351 351 352 351 353 351 351 352 351 351 350 350 351 350 349 350 350 352 353 353 355 352 352 353 352 351 350 350 350 348 349 347 346 346 346 346 345 346 346 347 347 347 347 347 347 347 347 346 345 346 346 346 347 347 348 349 350 351 351 352 355 354 352 353 350 -193 348 346 344 345 345 344 344 344 345 347 347 347 347 347 348 348 348 347 344 345 344 343 343 343 -209 -193 -193 343 344 344 345 345 345 -209 345 345 346 347 347 346 346 345 346 346 346 346 346 347 347 345 347 349 345 343 344 344 343 0 0 0 0 0
    0 0 0 0 0 0 0 0 0 0 0 0 0 0 0 0 0 0 0 0 0 0 0 0 0 0 0 0 0 0 0 0 0 0 0 0 0 0 0 0 0 0 0 0 0 0 0 0 0 0 0 0 0 0 0 0 0 0 0 0 0 0 0 0 0 0 0 0 0 345 345 346 346 345 346 346 348 349 350 351 352 352 352 355 353 354 353 352 352 352 350 350 349 350 348 348 348 348 347 348 349 349 349 353 352 354 354 355 356 354 354 354 353 352 353 351 352 351 352 352 352 351 352 350 350 349 349 350 351 351 350 352 354 356 356 357 356 355 354 355 355 355 356 355 356 356 357 357 356 355 356 353 352 350 350 349 350 350 350 349 352 353 353 352 349 349 349 349 349 347 347 346 346 347 349 348 350 349 353 351 351 351 350 349 348 347 348 348 350 351 350 351 350 351 351 350 352 351 351 352 351 351 351 351 352 350 350 351 352 353 354 354 356 353 353 354 352 352 351 350 351 349 351 348 348 347 347 346 346 346 346 347 347 347 348 347 348 348 347 347 346 347 347 348 349 349 349 350 350 351 351 353 354 354 353 353 352 350 348 347 345 345 345 344 344 344 345 347 347 348 348 348 349 348 349 347 346 346 344 343 343 343 -193 -209 343 342 343 343 344 -193 -193 -209 -193 346 347 348 348 347 347 346 346 346 346 345 345 346 347 346 348 350 347 345 346 346 344 0 0 0 0 0
    0 0 0 0 0 0 0 0 0 0 0 0 0 0 0 0 0 0 0 0 0 0 0 0 0 0 0 0 0 0 0 0 0 0 0 0 0 0 0 0 0 0 0 0 0 0 0 0 0 0 0 0 0 0 0 0 0 0 0 0 0 0 0 0 0 0 0 0 0 345 345 346 346 344 345 346 348 350 352 353 353 354 355 357 355 356 356 354 354 355 351 351 349 350 348 348 347 348 347 348 349 350 349 353 353 355 355 356 356 354 354 354 354 352 354 351 352 351 352 353 352 351 352 350 350 349 349 352 352 352 350 353 354 356 357 357 356 355 355 356 356 356 357 356 357 357 358 358 358 357 357 356 355 353 353 352 352 352 351 350 353 353 352 351 349 349 349 350 350 347 348 347 347 348 350 349 351 350 356 353 352 352 352 350 349 348 349 349 350 351 351 351 350 351 351 350 352 350 351 352 351 352 352 352 353 351 352 352 353 355 356 355 356 354 354 354 353 352 351 350 351 349 352 348 348 347 347 346 346 345 346 347 347 348 349 348 349 349 349 348 348 348 348 349 349 350 350 351 351 351 351 352 354 353 352 353 353 350 349 348 346 346 346 345 346 345 346 348 349 351 351 350 351 349 352 349 348 348 345 344 343 344 -209 345 344 343 343 343 345 -193 -193 -193 -193 -193 -193 350 351 -193 349 347 346 346 347 349 349 346 348 347 348 351 350 346 346 347 346 0 0 0 0 0
    0 0 0 0 0 0 0 0 0 0 0 0 0 0 0 0 0 0 0 0 0 0 0 0 0 0 0 0 0 0 0 0 0 0 0 0 0 0 0 0 0 0 0 0 0 0 0 0 0 0 0 0 0 0 0 0 0 0 0 0 0 0 0 0 0 0 0 0 0 345 345 346 346 344 345 346 349 351 352 353 354 355 356 358 357 358 358 356 357 357 353 353 349 350 348 347 347 348 347 349 350 351 351 355 355 356 356 357 357 355 354 355 354 353 354 352 353 352 352 354 353 352 353 351 351 350 350 353 354 354 352 355 356 357 358 357 357 355 355 357 357 357 357 358 358 359 360 359 359 359 358 357 357 355 354 354 354 353 352 351 354 353 353 352 350 350 350 351 351 348 349 348 348 349 350 350 352 351 356 355 353 353 354 352 350 349 350 349 352 352 352 351 351 351 351 350 353 351 352 354 353 354 354 354 354 353 354 354 354 356 356 356 357 355 354 355 353 353 351 351 351 349 352 349 347 347 346 345 345 344 346 347 347 350 350 349 351 351 350 349 348 349 348 349 350 351 351 352 352 352 352 352 354 355 354 355 355 352 350 350 348 348 347 347 347 346 348 351 352 357 -193 355 356 -193 -193 354 352 349 346 345 343 -209 -209 -209 -209 342 343 343 345 345 346 346 -193 -193 -193 350 352 -193 349 347 346 347 349 355 356 353 351 349 350 352 351 346 346 347 347 0 0 0 0 0
    0 0 0 0 0 0 0 0 0 0 0 0 0 0 0 0 0 0 0 0 0 0 0 0 0 0 0 0 0 0 0 0 0 0 0 0 0 0 0 0 0 0 0 0 0 0 0 0 0 0 0 0 0 0 0 0 0 0 0 0 0 0 0 0 0 0 0 0 0 346 347 346 347 345 347 347 349 351 352 353 354 355 356 358 358 358 358 357 357 358 354 354 350 351 348 348 347 349 347 349 351 353 353 356 356 357 357 358 358 356 355 356 356 354 356 354 355 353 354 355 354 352 353 350 351 350 350 353 354 355 352 355 356 358 358 358 357 354 356 358 357 357 358 358 359 359 361 360 360 360 359 359 358 356 356 356 355 355 354 353 355 354 355 353 351 351 351 352 353 349 350 349 349 349 351 351 352 352 357 355 355 355 356 354 351 349 350 350 352 353 352 351 351 352 352 351 354 352 353 355 354 355 355 355 355 353 355 355 355 357 358 357 358 355 355 356 353 353 351 350 351 348 352 349 348 347 346 345 344 344 345 347 347 349 350 349 351 351 350 350 349 350 349 350 351 352 352 353 352 352 352 352 354 355 354 356 356 354 352 351 350 349 348 347 348 347 349 351 353 -193 -209 -193 -193 356 357 357 356 352 347 -193 343 -209 -209 -209 -209 341 342 342 344 345 346 347 -193 -193 350 351 354 352 352 351 349 350 353 359 -209 -193 356 -193 -193 353 -209 -209 -193 349 348 0 0 0 0 0
    0 0 0 0 0 0 0 0 0 0 0 0 0 0 0 0 0 0 0 0 0 0 0 0 0 0 0 0 0 0 0 0 0 0 0 0 0 0 0 0 0 0 0 0 0 0 0 0 0 0 0 0 0 0 0 0 0 0 0 0 0 0 0 0 0 0 0 0 0 347 347 346 348 346 347 347 350 352 352 353 354 355 356 358 358 358 359 358 358 359 356 356 352 353 350 349 348 350 348 351 352 354 353 356 356 357 357 358 358 357 356 356 357 356 357 356 356 354 354 355 354 352 353 349 351 349 349 354 355 355 354 356 357 358 358 358 357 354 356 358 357 357 358 359 360 361 361 361 361 361 361 360 360 359 358 359 358 357 356 356 356 355 357 356 354 353 353 354 355 350 351 350 350 350 353 353 355 354 358 358 357 356 358 357 355 351 352 352 354 354 353 351 352 353 353 352 354 352 354 355 354 355 355 355 356 352 355 355 354 358 358 358 358 356 356 356 354 354 351 350 351 349 352 350 348 348 347 345 344 344 345 347 348 350 352 350 352 352 350 350 349 350 349 350 351 352 353 354 354 354 353 353 355 357 356 357 358 355 353 353 352 350 349 348 348 348 350 353 354 -193 -209 -209 -193 -193 357 358 357 355 349 353 -209 -209 -209 -209 -209 -209 -193 341 344 347 348 349 351 352 352 353 356 355 355 356 353 353 355 -193 -209 -209 -209 -209 -193 -193 -209 -209 -193 353 352 0 0 0 0 0
    0 0 0 0 0 0 0 0 0 0 0 0 0 0 0 0 0 0 0 0 0 0 0 0 0 0 0 0 0 0 0 0 0 0 0 0 0 0 0 0 0 0 0 0 0 0 0 0 0 0 0 0 0 0 0 0 0 0 0 0 0 0 0 0 0 0 0 0 0 346 347 345 347 345 347 348 352 354 355 355 355 357 357 359 359 359 -193 359 359 361 358 358 355 355 351 350 349 352 348 352 354 356 356 357 357 357 357 358 359 357 356 357 358 357 358 356 356 353 354 355 355 351 353 349 351 348 352 357 358 357 356 357 358 359 359 359 358 355 357 359 358 358 360 -193 361 363 363 362 363 362 362 362 362 361 359 360 360 357 357 357 357 357 359 358 357 356 -193 357 358 353 352 352 352 352 356 356 358 357 360 -193 358 357 358 358 357 354 354 353 355 355 355 352 352 354 354 -193 355 352 354 356 355 356 355 356 356 353 357 356 354 360 361 361 360 358 358 359 357 356 353 352 353 350 353 350 347 347 346 345 344 344 345 349 350 353 353 352 353 352 351 351 349 350 350 350 351 353 355 356 356 356 354 353 356 358 358 358 359 357 353 354 353 351 350 349 349 349 351 356 356 -193 -209 -209 -209 -209 358 358 358 -193 352 356 -209 -209 -209 -209 -209 -209 -209 -209 345 352 351 352 354 356 354 355 358 357 358 -209 355 355 357 363 -193 -209 -209 -209 358 -193 -209 -209 -193 356 356 0 0 0 0 0
    0 0 0 0 0 0 0 0 0 0 0 0 0 0 0 0 0 0 0 0 0 0 0 0 0 0 0 0 0 0 0 0 0 0 0 0 0 0 0 0 0 0 0 0 0 0 0 0 0 0 0 0 0 0 0 0 0 0 0 0 0 0 0 0 0 0 0 0 0 -209 353 -193 359 349 352 356 356 358 358 358 357 358 359 360 -193 -193 -193 -193 361 363 361 362 360 358 -209 -209 -209 -209 -209 -209 -193 -209 -209 -209 355 -193 356 357 357 355 354 355 -193 356 358 357 357 -193 -209 -209 -209 -209 359 -209 356 -209 361 360 360 359 358 359 359 359 360 360 359 357 358 360 359 -193 -193 -193 362 364 363 363 363 362 362 362 362 362 360 361 361 358 358 358 358 359 361 360 360 358 -193 360 361 358 357 359 359 358 -193 360 361 361 361 362 359 357 359 358 358 356 356 355 356 355 356 352 352 355 -193 -193 -209 -193 -193 -193 356 358 356 357 358 357 359 360 -209 -193 365 364 363 361 361 361 359 358 355 354 354 352 354 352 348 348 346 345 344 344 347 353 354 356 355 354 354 353 352 352 350 352 351 352 353 355 357 356 355 355 353 -193 -209 358 -209 358 359 357 354 355 354 352 350 349 350 350 353 357 358 -209 -209 -209 -209 -209 -193 -193 -209 -209 -209 -209 -209 -209 366 -193 -209 -209 -209 -209 -209 -209 357 -209 -209 -193 -209 354 -193 -209 -209 -209 -209 354 -209 -209 -209 -209 -209 -209 -209 -193 -193 -209 358 359 358 0 0 0 0 0
    0 0 0 0 0 0 0 0 0 0 0 0 0 0 0 0 0 0 0 0 0 0 0 0 0 0 0 0 0 0 0 0 0 0 0 0 0 0 0 0 0 0 0 0 0 0 0 0 0 0 0 0 0 0 0 0 0 0 0 0 0 0 0 0 0 0 0 0 0 -209 -193 362 362 361 358 359 358 360 359 -193 358 -209 -209 -193 363 -193 -193 363 363 365 363 365 363 -193 -209 -209 322 -209 318 -209 -209 -209 -209 -209 -209 -209 -209 -209 -193 -193 355 356 -209 359 359 -193 -209 -209 -193 -209 -209 -209 363 -209 358 -193 362 360 360 359 358 359 359 359 360 360 359 357 359 362 362 363 366 -193 364 367 363 363 363 362 362 362 362 361 360 362 362 359 360 358 358 358 361 361 360 359 360 361 362 362 361 364 365 364 -177 364 366 366 364 365 361 359 360 360 361 359 -193 357 357 357 357 351 352 -209 -209 711 711 707 -193 -193 -193 360 358 360 361 362 362 363 -193 -193 366 365 363 362 361 361 358 -193 354 353 353 353 354 353 349 350 347 346 345 343 349 358 357 358 357 355 355 -193 353 -193 351 353 353 353 353 356 357 356 -193 -209 -209 -209 -209 -209 -209 -209 358 356 -209 -209 355 354 352 350 -193 -193 -193 -209 -209 -209 -209 -209 -209 -209 -209 -209 -209 -209 -209 -209 -209 -209 -209 -209 -209 -209 -209 -209 -209 -209 -209 -209 -209 -209 -209 -209 -209 -209 -209 -209 -209 -209 -209 -193 -209 -209 -209 -209 -209 -209 -209 -209 -209 -209 359 0 0 0 0 0
    0 0 0 0 0 0 0 0 0 0 0 0 0 0 0 0 0 0 0 0 0 0 0 0 0 0 0 0 0 0 0 0 0 0 0 0 0 0 0 0 0 0 0 0 0 0 0 0 0 0 0 0 0 0 0 0 0 0 0 0 0 0 0 0 0 0 0 0 0 -209 -193 363 362 361 356 356 -225 -225 -193 -193 -193 36 -209 -209 -209 -193 -193 -193 365 367 -193 -193 -209 -193 -209 -209 314 -193 -193 -209 -209 -209 -209 -209 -209 -209 -193 -209 -209 -209 -209 -193 -193 -209 -209 369 -209 -209 -209 -209 -209 -209 -193 -225 -209 -209 -225 -225 -225 -209 -209 -209 -193 -209 359 359 358 355 358 362 362 364 370 372 365 370 365 365 365 363 364 364 364 363 361 363 364 361 361 358 358 354 358 359 359 359 361 361 363 363 362 367 369 -193 -193 -209 369 369 368 369 364 361 364 363 363 -193 -193 358 358 -193 -193 -225 -225 -225 -225 -225 -193 706 -209 -209 -193 362 360 363 365 368 368 369 -193 -193 367 366 364 363 362 362 359 -193 355 355 354 354 354 353 350 350 347 346 345 342 350 -209 -209 -193 358 358 -193 -193 -193 -193 353 354 354 355 -193 -193 -193 -209 -209 -209 -209 -209 -209 -209 -209 -209 -209 -209 -209 -209 -209 356 355 353 -193 -209 -209 -209 -209 -209 -209 -209 -209 -209 -209 -209 -209 -209 -209 -209 -209 -209 -209 -209 -209 -209 -209 -209 -209 -209 -209 -209 -209 363 -209 352 -209 -209 -209 -209 -209 -209 -209 -209 -209 -209 -209 -209 -209 -209 -193 -209 -209 -209 360 0 0 0 0 0
    0 0 0 0 0 0 0 0 0 0 0 0 0 0 0 0 0 0 0 0 0 0 0 0 0 0 0 0 0 0 0 0 0 0 0 0 0 0 0 0 0 0 0 0 0 0 0 0 0 0 0 0 0 0 0 0 0 0 0 0 0 0 0 0 0 0 0 0 0 -193 -193 364 363 -225 -225 -225 -225 -225 -225 -225 -193 -177 -209 -193 -193 -209 -209 -209 -209 -193 -209 -193 -193 -225 -209 -209 303 303 -209 -209 -209 -193 -193 -209 -209 -209 558 -193 -193 -209 -193 -193 -193 370 369 370 -209 -209 -209 -225 -209 -225 -225 -225 -225 -225 -225 -225 -225 -225 -225 -209 -209 859 863 -209 357 354 -225 -225 -225 -225 368 372 366 371 367 367 367 365 365 366 365 365 362 364 365 362 365 360 359 354 358 360 -193 358 360 359 363 -209 361 366 -193 480 -193 -209 -209 -209 -193 -225 -225 -225 -225 -225 -225 -225 -225 -225 -225 -225 -225 -225 -225 -225 -225 -225 -225 -225 -209 370 367 366 363 365 368 375 375 376 -225 -225 -225 -225 -225 -225 363 363 -209 -193 354 356 -193 -193 352 351 -225 -193 344 344 -193 340 -225 -209 358 362 359 359 -193 -193 -193 -193 355 -193 -193 -209 -209 -209 -209 -209 -209 -209 -209 -209 -209 -209 -209 -209 -209 -209 -209 -209 -209 -209 -209 355 -209 -209 -209 -209 -209 -209 -209 -209 -209 19 -209 -209 -209 -209 -209 -209 -209 -209 -209 -209 -209 -209 -209 -209 -209 -209 -209 -209 -209 375 -209 -209 -209 -209 -209 -209 -209 -209 -193 -193 -209 -209 -209 -209 -209 -209 -193 -209 -209 -209 361 0 0 0 0 0
    0 0 0 0 0 0 0 0 0 0 0 0 0 0 0 0 0 0 0 0 0 0 0 0 0 0 0 0 0 0 0 0 0 0 0 0 0 0 0 0 0 0 0 0 0 0 0 0 0 0 0 0 0 0 0 0 0 0 0 0 0 0 0 0 0 0 0 0 0 -193 34 -225 -225 -225 -225 -225 -225 -225 -225 -225 -225 -225 -225 294 295 -193 -193 -193 -193 293 -193 -225 -225 -225 -225 288 -225 -225 -225 -225 -193 -209 -193 -209 -225 -225 -225 -225 -225 -209 -193 529 -193 -193 371 372 -193 373 -225 -225 -225 -225 -225 -225 -225 -225 -225 -225 -225 -225 -225 -225 -225 -225 -225 -225 -225 -225 -225 -225 -225 -225 -225 -225 -225 -225 -193 -193 -193 -193 367 367 366 366 -193 366 367 364 -209 -209 -209 -209 -209 -209 -209 -225 -225 -225 -225 -225 -225 -225 -225 -225 -225 -225 -225 -225 -225 -225 -225 -225 -225 -225 -225 -225 -225 -225 -225 -225 -225 -225 -225 -225 -225 -225 -225 -225 -225 -225 373 371 369 368 371 378 -225 -225 -225 -225 -225 -225 -225 -225 -225 -225 -225 -225 -225 -225 -225 -225 -225 -225 -225 -225 -225 -225 -225 -225 -225 -225 -209 -209 -209 -209 -209 -209 -193 -193 -209 -209 -209 -209 -209 -209 -209 -209 -209 -209 -209 -209 -209 -209 -209 -209 -209 -209 -209 -209 -209 -209 -209 -209 -209 -209 -209 -209 -193 11 13 -209 13 17 -209 -209 -209 -209 -209 -209 -209 -209 -209 -209 -209 -209 -209 -209 -209 -209 -209 -209 392 389 -209 -209 -209 -209 -209 -209 -209 864 -209 -209 -209 -209 -209 -209 -209 -193 -193 -209 -209 -193 364 0 0 0 0 0
    0 0 0 0 0 0 0 0 0 0 0 0 0 0 0 0 0 0 0 0 0 0 0 0 0 0 0 0 0 0 0 0 0 0 0 0 0 0 0 0 0 0 0 0 0 0 0 0 0 0 0 0 0 0 0 0 0 0 0 0 0 0 0 0 0 0 0 0 0 -225 -225 -225 -225 -225 -225 -225 -225 -225 -225 -225 -225 -225 -225 -225 -225 -225 -225 -225 -225 -225 -225 -225 -225 -225 -225 -225 -225 -225 -225 -225 -225 -225 -225 -225 -225 -225 -225 -225 -225 -225 -225 -225 -225 -225 -225 -225 -225 -225 -225 -225 -225 -225 -225 -225 -225 -225 -225 -225 -225 -225 -225 -225 -225 -225 -225 -225 -225 -225 -225 -225 -225 -225 -225 -225 -225 -225 -225 -225 -225 -225 -225 -225 -225 -225 -225 -225 -225 -225 -225 -225 -225 -225 -225 -225 -225 -225 -225 -225 -225 -225 -225 -225 -225 -225 -225 -225 -225 -225 -225 -225 -225 -225 -225 -225 -225 -225 -225 -225 -225 -225 -225 -225 -225 -225 -225 -225 -225 -225 -225 -225 -225 -225 -225 -225 -225 -225 -225 -225 -225 -225 -225 -225 -225 -225 -225 -225 -225 -225 -225 -225 -225 -225 -225 -225 -225 -225 -225 -225 -225 -225 -225 -225 -225 -225 -225 -225 -225 -225 -225 -225 -225 -225 -225 -209 -209 -225 -209 -209 -209 -209 -209 -209 -209 -209 -209 -209 -209 -209 -209 -209 -209 -209 -209 -209 -209 -209 -209 -209 -177 -177 -177 12 13 16 -193 -193 -209 -193 -209 -209 -209 -209 -209 -209 -209 -209 -209 -209 -209 -209 394 395 394 393 394 395 -209 -209 -209 -209 -209 -209 -209 -209 -209 -209 -209 -209 -209 -193 372 -193 -193 368 367 0 0 0 0 0
    0 0 0 0 0 0 0 0 0 0 0 0 0 0 0 0 0 0 0 0 0 0 0 0 0 0 0 0 0 0 0 0 0 0 0 0 0 0 0 0 0 0 0 0 0 0 0 0 0 0 0 0 0 0 0 0 0 0 0 0 0 0 0 0 0 0 0 0 0 -225 -225 -225 -225 -225 -225 -225 -225 -225 -225 -225 -225 -225 -225 -225 -225 -225 -225 -225 -225 -225 -225 -225 -225 -225 -225 -225 -225 -225 -225 -225 -225 -225 -225 -225 -225 -225 -225 -225 -225 -225 -225 -225 -225 -225 -225 -225 -225 -225 -225 -225 -225 -225 -225 -225 -225 -225 -225 -225 -225 -225 -225 -225 -225 -225 -225 -225 -225 -225 -225 -225 -225 -225 -225 -225 -225 -225 -225 -225 -225 -225 -225 -225 -225 -225 -225 -225 -225 -225 -225 -225 -225 -225 -225 -225 -225 -225 -225 -225 -225 -225 -225 -225 -225 -225 -225 -225 -225 -225 -225 -225 -225 -225 -225 -225 -225 -225 -225 -225 -225 -225 -225 -225 -225 -225 -225 -225 -225 -225 -225 -225 -225 -225 -225 -225 -225 -225 -225 -225 -225 -225 -225 -225 -225 -225 -225 -225 -225 -225 -225 -225 -225 -225 -225 -225 -225 -225 -225 -225 -225 -225 -225 -225 -225 -225 -225 -225 -225 -225 -225 -225 -225 -225 -225 -225 -225 -225 -225 -225 -209 -209 -209 -209 -209 -209 -209 -209 -209 -209 -209 -209 -209 -209 -209 -209 -209 -209 -209 -177 -177 -177 -177 12 15 17 23 -209 -209 -177 -209 -209 -209 -209 -209 -209 -209 -209 -209 -209 -209 -209 395 397 396 394 396 397 -193 -209 -209 -209 -209 -209 -209 -209 -209 -209 383 -193 -193 -193 -193 -193 372 371 370 0 0 0 0 0
    0 0 0 0 0 0 0 0 0 0 0 0 0 0 0 0 0 0 0 0 0 0 0 0 0 0 0 0 0 0 0 0 0 0 0 0 0 0 0 0 0 0 0 0 0 0 0 0 0 0 0 0 0 0 0 0 0 0 0 0 0 0 0 0 0 0 0 0 0 -225 -225 -225 -225 -225 -225 -225 -225 -225 -225 -225 -225 -225 -225 -225 -225 -225 -225 -225 -225 -225 -225 -225 -225 -225 -225 -225 -225 -225 -225 -225 -225 -225 -225 -225 -225 -225 -225 -225 -225 -225 -225 -225 -225 -225 -225 -225 -225 -225 -225 -225 -225 -225 -225 -225 -225 -225 -225 -225 -225 -225 -225 -225 -225 -225 -225 -225 -225 -225 -225 -225 -225 -225 -225 -225 -225 -225 -225 -225 -225 -225 -225 -225 -225 -225 -225 -225 -225 -225 -225 -225 -225 -225 -225 -225 -225 -225 -225 -225 -225 -225 -225 -225 -225 -225 -225 -225 -225 -225 -225 -225 -225 -225 -225 -225 -225 -225 -225 -225 -225 -225 -225 -225 -225 -225 -225 -225 -225 -225 -225 -225 -225 -225 -225 -225 -225 -225 -225 -225 -225 -225 -225 -225 -225 -225 -225 -225 -225 -225 -225 -225 -225 -225 -225 -225 -225 -225 -225 -225 -225 -225 -225 -225 -225 -225 -225 -225 -225 -225 -225 -225 -225 -225 -225 -225 -225 -225 -225 -225 -225 -225 -209 -209 -209 -209 -209 -209 -209 -209 -209 -209 -209 -209 -209 -209 -209 -209 -209 -209 -177 -177 -177 13 17 19 24 -209 -209 69 -193 -209 -209 -209 -209 -209 -209 -209 -209 -209 394 -209 -193 398 396 395 396 397 -193 -209 -209 -209 -209 -209 -209 -209 -209 -193 385 383 -193 -193 377 376 375 374 374 0 0 0 0 0
    0 0 0 0 0 0 0 0 0 0 0 0 0 0 0 0 0 0 0 0 0 0 0 0 0 0 0 0 0 0 0 0 0 0 0 0 0 0 0 0 0 0 0 0 0 0 0 0 0 0 0 0 0 0 0 0 0 0 0 0 0 0 0 0 0 0 0 0 0 -225 -225 -225 -225 -225 -225 -225 -225 -225 -225 -225 -225 -225 -225 -225 -225 -225 -225 -225 -225 -225 -225 -225 -225 -225 -225 -225 -225 -225 -225 -225 -225 -225 -225 -225 -225 -225 -225 -225 -225 -225 -225 -225 -225 -225 -225 -225 -225 -225 -225 -225 -225 -225 -225 -225 -225 -225 -225 -225 -225 -225 -225 -225 -225 -225 -225 -225 -225 -225 -225 -225 -225 -225 -225 -225 -225 -225 -225 -225 -225 -225 -225 -225 -225 -225 -225 -225 -225 -225 -225 -225 -225 -225 -225 -225 -225 -225 -225 -225 -225 -225 -225 -225 -225 -225 -225 -225 -225 -225 -225 -225 -225 -225 -225 -225 -225 -225 -225 -225 -225 -225 -225 -225 -225 -225 -225 -225 -225 -225 -225 -225 -225 -225 -225 -225 -225 -225 -225 -225 -225 -225 -225 -225 -225 -225 -225 -225 -225 -225 -225 -225 -225 -225 -225 -225 -225 -225 -225 -225 -225 -225 -225 -225 -225 -225 -225 -225 -225 -225 -225 -225 -225 -225 -225 -225 -225 -225 -225 -225 -225 -225 -209 -209 -209 -209 -209 -209 -209 -209 -209 -209 -209 -209 -209 -209 -209 -209 -209 -209 -177 -177 -177 14 20 19 24 -209 -209 68 -193 -209 -209 -209 -209 -209 -209 -209 -209 -209 394 -209 -193 398 397 396 396 398 -209 -209 -209 -209 -209 -209 -209 -209 -209 -209 386 384 383 378 379 379 379 379 379 0 0 0 0 0
    0 0 0 0 0 0 0 0 0 0 0 0 0 0 0 0 0 0 0 0 0 0 0 0 0 0 0 0 0 0 0 0 0 0 0 0 0 0 0 0 0 0 0 0 0 0 0 0 0 0 0 0 0 0 0 0 0 0 0 0 0 0 0 0 0 0 0 0 0 -225 -225 -225 -225 -225 -225 -225 -225 -225 -225 -225 -225 -225 -225 -225 -225 -225 -225 -225 -225 -225 -225 -225 -225 -225 -225 -225 -225 -225 -225 -225 -225 -225 -225 -225 -225 -225 -225 -225 -225 -225 -225 -225 -225 -225 -225 -225 -225 -225 -225 -225 -225 -225 -225 -225 -225 -225 -225 -225 -225 -225 -225 -225 -225 -225 -225 -225 -225 -225 -225 -225 -225 -225 -225 -225 -225 -225 -225 -225 -225 -225 -225 -225 -225 -225 -225 -225 -225 -225 -225 -225 -225 -225 -225 -225 -225 -225 -225 -225 -225 -225 -225 -225 -225 -225 -225 -225 -225 -225 -225 -225 -225 -225 -225 -225 -225 -225 -225 -225 -225 -225 -225 -225 -225 -225 -225 -225 -225 -225 -225 -225 -225 -225 -225 -225 -225 -225 -225 -225 -225 -225 -225 -225 -225 -225 -225 -225 -225 -225 -225 -225 -225 -225 -225 -225 -225 -225 -225 -225 -225 -225 -225 -225 -225 -225 -225 -225 -225 -225 -225 -225 -225 -225 -225 -225 -225 -225 -225 -225 -225 -225 -209 -209 -209 -209 -209 -209 -209 -209 -209 -209 -209 -209 -209 -209 -209 -209 -209 -193 -177 -177 -177 15 20 18 22 -209 -209 -209 -209 -209 -209 -209 -209 -209 -209 -209 -209 -209 395 -209 396 398 398 398 399 401 -209 -209 -209 -209 -209 -209 -209 -209 -209 -209 -209 386 387 382 382 382 382 382 382 0 0 0 0 0
    0 0 0 0 0 0 0 0 0 0 0 0 0 0 0 0 0 0 0 0 0 0 0 0 0 0 0 0 0 0 0 0 0 0 0 0 0 0 0 0 0 0 0 0 0 0 0 0 0 0 0 0 0 0 0 0 0 0 0 0 0 0 0 0 0 0 0 0 0 -225 -225 -225 -225 -225 -225 -225 -225 -225 -225 -225 -225 -225 -225 -225 -225 -225 -225 -225 -225 -225 -225 -225 -225 -225 -225 -225 -225 -225 -225 -225 -225 -225 -225 -225 -225 -225 -225 -225 -225 -225 -225 -225 -225 -225 -225 -225 -225 -225 -225 -225 -225 -225 -225 -225 -225 -225 -225 -225 -225 -225 -225 -225 -225 -225 -225 -225 -225 -225 -225 -225 -225 -225 -225 -225 -225 -225 -225 -225 -225 -225 -225 -225 -225 -225 -225 -225 -225 -225 -225 -225 -225 -225 -225 -225 -225 -225 -225 -225 -225 -225 -225 -225 -225 -225 -225 -225 -225 -225 -225 -225 -225 -225 -225 -225 -225 -225 -225 -225 -225 -225 -225 -225 -225 -225 -225 -225 -225 -225 -225 -225 -225 -225 -225 -225 -225 -225 -225 -225 -225 -225 -225 -225 -225 -225 -225 -225 -225 -225 -225 -225 -225 -225 -225 -225 -225 -225 -225 -225 -225 -225 -225 -225 -225 -225 -225 -225 -225 -225 -225 -225 -225 -225 -225 -225 -225 -225 -225 -225 -225 -225 -209 -209 -209 -209 -209 -209 -209 -209 -209 -209 -209 -209 -209 -209 -209 -209 -209 -209 -209 -177 -177 -177 21 19 22 -209 -209 -209 -209 -209 -209 -209 -209 -209 -209 -209 -209 -209 396 -209 396 398 400 400 400 402 -209 -209 -209 -209 -209 -209 -209 -209 -209 -209 -209 389 390 388 386 384 385 386 387 0 0 0 0 0</data></disparity>
</opencv_storage>
