<?xml version="1.0"?>
<opencv_storage>
<gps_time_stamp>22330</gps_time_stamp>
<gps_x>-2.9521708488464355e+000</gps_x>
<gps_y>3.3948248624801636e-001</gps_y>
<gps_z>-2.4264380335807800e-001</gps_z>
<image_time_stamp>10264</image_time_stamp>
<disparity type_id="opencv-matrix">
  <rows>80</rows>
  <cols>320</cols>
  <dt>s</dt>
  <data>
    0 0 0 0 0 0 0 0 0 0 0 0 0 0 0 0 0 0 0 0 0 0 0 0 0 0 0 0 0 0 0 0 0 0 0 0 0 0 0 0 0 0 0 0 0 0 0 0 0 0 0 0 0 0 0 0 0 0 0 0 0 0 0 0 0 0 0 0 0 -209 -209 -209 -209 -209 -193 -209 229 232 -209 -209 -209 215 214 213 212 211 210 209 209 207 -209 -209 -193 -193 -209 -209 -209 -209 -209 -209 -209 -209 -209 -209 -209 -193 -209 -209 -193 211 212 212 212 213 213 -193 -209 389 389 -193 -193 -209 -209 -209 -193 213 215 215 208 207 205 209 209 207 213 207 205 207 208 210 209 210 -193 208 210 213 211 213 -209 209 207 207 207 209 -193 -193 -193 205 212 -193 215 213 213 214 212 213 -193 882 -193 -177 -177 -177 -209 -209 -209 -209 212 208 208 -193 -193 -193 -193 -193 -193 211 211 212 210 211 211 211 210 211 210 211 210 211 213 212 214 212 212 213 213 212 211 211 211 209 211 208 209 208 210 209 206 206 203 -209 -209 -209 -209 -209 -209 -193 -193 209 210 213 213 212 211 211 211 212 213 212 210 211 212 212 212 211 210 210 210 211 209 209 211 -209 -209 -209 -209 -209 -209 -209 -193 -193 -209 -209 215 214 214 213 213 210 210 207 206 206 208 208 210 209 213 212 214 213 212 211 211 209 208 207 208 207 208 209 211 210 211 212 212 211 211 210 209 208 208 210 208 207 208 207 209 211 210 212 210 211 209 212 211 0 0 0 0 0
    0 0 0 0 0 0 0 0 0 0 0 0 0 0 0 0 0 0 0 0 0 0 0 0 0 0 0 0 0 0 0 0 0 0 0 0 0 0 0 0 0 0 0 0 0 0 0 0 0 0 0 0 0 0 0 0 0 0 0 0 0 0 0 0 0 0 0 0 0 -209 -209 -209 -209 -209 -193 -209 228 230 227 219 216 214 213 213 212 212 211 210 210 210 -209 -209 -193 -193 -193 -209 215 -209 -209 -209 -209 -209 -209 -209 -209 -209 -209 214 212 212 212 212 212 213 212 213 211 211 -209 -209 -209 -209 -209 -193 210 212 213 213 209 207 206 212 212 211 214 212 209 211 212 212 212 212 212 210 210 213 211 212 212 210 210 210 210 211 210 -193 207 205 210 211 212 209 209 211 210 211 -193 -193 -193 -193 -193 -193 -209 -209 -209 -209 213 210 209 212 210 211 210 211 212 212 213 214 212 212 212 211 211 212 210 211 210 211 213 212 214 212 211 213 212 211 210 209 209 207 210 207 208 207 209 208 207 207 205 206 205 205 206 207 210 212 212 211 212 213 213 212 211 211 210 212 213 212 210 212 212 212 212 211 211 210 211 211 209 209 211 209 214 -209 -193 217 217 215 215 214 215 -193 214 213 213 211 212 210 210 208 207 208 210 211 213 213 214 214 215 213 214 213 213 211 210 210 211 210 211 210 212 210 211 212 212 211 212 211 211 210 211 212 211 210 211 211 212 212 212 213 212 212 210 213 211 0 0 0 0 0
    0 0 0 0 0 0 0 0 0 0 0 0 0 0 0 0 0 0 0 0 0 0 0 0 0 0 0 0 0 0 0 0 0 0 0 0 0 0 0 0 0 0 0 0 0 0 0 0 0 0 0 0 0 0 0 0 0 0 0 0 0 0 0 0 0 0 0 0 0 212 214 -209 -209 -209 -193 -209 225 227 224 219 215 215 213 213 212 212 212 210 211 211 209 209 210 209 209 212 213 215 213 -193 215 -193 -193 -209 -209 -193 213 214 213 213 212 212 211 212 212 212 210 211 211 212 213 213 210 210 210 212 212 212 210 208 208 213 214 212 215 213 212 212 213 213 212 212 212 211 210 212 211 212 212 211 211 211 211 212 211 213 209 206 210 210 211 208 209 210 209 210 212 -193 212 -193 -193 -193 -209 -193 217 215 214 212 211 211 210 211 210 210 212 211 212 213 212 212 212 211 210 211 210 211 210 211 213 212 214 213 212 213 212 211 209 209 209 207 209 207 208 207 209 208 207 208 206 206 207 207 209 210 212 213 212 212 212 213 213 212 211 211 210 211 213 212 210 212 212 212 212 211 211 210 211 211 210 208 211 209 212 211 213 214 214 213 213 212 213 -193 212 212 212 210 211 210 209 209 210 211 211 212 214 214 214 215 216 214 215 214 214 212 212 211 212 211 212 211 212 210 211 212 212 211 211 210 210 209 211 212 211 210 211 211 212 212 212 213 212 211 210 213 212 0 0 0 0 0
    0 0 0 0 0 0 0 0 0 0 0 0 0 0 0 0 0 0 0 0 0 0 0 0 0 0 0 0 0 0 0 0 0 0 0 0 0 0 0 0 0 0 0 0 0 0 0 0 0 0 0 0 0 0 0 0 0 0 0 0 0 0 0 0 0 0 0 0 0 213 215 216 217 217 219 219 222 222 221 218 215 215 214 213 213 213 212 211 212 212 210 211 212 210 210 212 212 212 211 209 211 213 214 214 213 214 213 214 213 213 212 212 212 212 212 212 209 211 211 212 213 213 210 211 211 212 212 211 211 208 209 213 213 211 214 214 212 212 213 213 212 213 213 211 210 212 211 211 212 211 211 212 211 212 212 213 211 209 210 210 211 209 210 210 209 210 210 210 211 211 212 213 213 215 216 215 214 213 211 212 210 211 210 209 210 209 210 213 212 211 211 210 210 211 210 211 210 211 213 212 215 214 213 213 213 211 209 209 209 207 209 207 209 207 209 208 208 208 206 206 206 207 208 210 212 213 213 212 212 213 213 212 211 211 209 211 212 212 210 211 212 211 212 211 211 210 211 211 210 208 211 209 212 211 213 213 213 212 213 212 213 212 212 212 212 211 211 210 210 210 210 211 211 211 212 213 214 214 215 214 215 214 214 212 212 211 211 210 211 210 211 209 211 212 212 212 211 211 210 210 211 212 211 211 211 211 212 212 212 212 211 211 209 212 212 0 0 0 0 0
    0 0 0 0 0 0 0 0 0 0 0 0 0 0 0 0 0 0 0 0 0 0 0 0 0 0 0 0 0 0 0 0 0 0 0 0 0 0 0 0 0 0 0 0 0 0 0 0 0 0 0 0 0 0 0 0 0 0 0 0 0 0 0 0 0 0 0 0 0 214 216 217 218 217 218 217 219 219 217 215 215 215 214 213 214 213 213 212 213 213 211 212 213 212 212 213 212 212 212 211 212 213 214 214 213 214 213 214 213 213 212 211 212 212 211 212 209 211 210 212 213 213 211 212 212 213 213 212 212 211 211 214 213 212 214 214 212 212 213 213 212 213 213 211 210 212 211 211 211 211 211 212 211 212 212 213 211 210 211 210 210 209 211 211 209 210 210 210 210 211 212 212 212 214 215 214 214 213 211 212 210 211 210 210 210 209 210 212 212 211 211 210 210 211 210 211 211 211 213 212 215 214 213 213 213 210 208 208 208 207 209 207 209 207 209 209 209 209 208 207 207 208 210 211 213 213 213 212 213 213 213 212 211 211 209 211 212 212 210 211 212 211 212 211 211 211 211 211 211 208 212 209 213 211 213 213 213 212 213 212 213 212 212 212 212 211 211 211 210 211 211 212 211 211 212 213 213 214 215 214 215 214 214 212 212 211 211 210 211 209 211 209 211 212 212 212 212 211 210 210 211 212 212 211 211 210 212 212 211 212 211 210 208 211 211 0 0 0 0 0
    0 0 0 0 0 0 0 0 0 0 0 0 0 0 0 0 0 0 0 0 0 0 0 0 0 0 0 0 0 0 0 0 0 0 0 0 0 0 0 0 0 0 0 0 0 0 0 0 0 0 0 0 0 0 0 0 0 0 0 0 0 0 0 0 0 0 0 0 0 214 216 216 217 216 216 216 217 217 216 214 214 215 213 213 213 213 213 213 213 213 211 213 213 212 212 213 213 213 213 213 213 213 214 214 213 214 213 213 212 213 211 211 211 212 210 211 208 210 209 212 213 213 212 213 213 214 214 214 214 213 213 215 214 213 214 214 212 212 213 212 212 212 212 210 209 211 210 210 211 210 211 211 211 211 211 212 210 209 210 209 210 209 211 211 210 211 210 210 211 211 211 212 212 214 215 214 214 213 211 212 210 211 210 209 210 209 209 212 212 210 211 210 210 211 210 211 211 211 213 211 214 213 213 213 212 209 208 208 208 207 208 207 209 207 208 210 210 209 208 208 208 209 210 212 213 213 213 213 213 214 213 212 211 211 210 211 212 212 211 211 213 211 212 211 211 211 211 211 211 208 212 210 212 211 212 212 212 211 212 212 212 212 212 212 212 212 212 212 212 213 212 213 212 213 213 214 213 214 214 214 215 214 214 213 212 212 211 210 212 209 212 208 210 212 212 212 212 210 210 210 212 212 212 211 211 209 211 211 211 211 211 210 209 212 212 0 0 0 0 0
    0 0 0 0 0 0 0 0 0 0 0 0 0 0 0 0 0 0 0 0 0 0 0 0 0 0 0 0 0 0 0 0 0 0 0 0 0 0 0 0 0 0 0 0 0 0 0 0 0 0 0 0 0 0 0 0 0 0 0 0 0 0 0 0 0 0 0 0 0 214 215 216 216 215 215 215 215 216 215 213 214 215 213 213 213 213 212 212 213 213 211 213 213 212 212 213 213 213 214 213 213 214 213 214 213 214 213 213 212 212 210 210 211 211 210 210 207 210 208 211 212 212 212 213 213 215 214 214 214 213 214 215 214 214 215 214 212 212 213 213 212 212 212 210 208 211 210 210 211 210 211 212 212 212 212 213 211 210 210 209 209 208 210 210 210 211 210 210 210 211 212 213 213 214 215 215 215 214 212 213 210 211 210 209 209 209 209 212 212 211 211 211 210 211 210 211 211 210 213 211 213 213 213 212 211 209 207 208 208 207 208 207 208 207 208 209 210 209 208 208 208 209 210 211 212 212 213 213 212 213 213 212 211 211 210 211 211 212 211 211 213 211 212 212 212 211 211 211 212 208 213 210 212 211 212 212 212 211 212 211 211 211 211 212 211 211 212 214 213 214 214 214 213 214 214 214 213 213 213 213 214 214 214 213 212 212 212 211 212 209 212 208 210 212 212 212 212 210 210 209 211 212 211 211 210 209 211 211 211 211 211 211 209 212 212 0 0 0 0 0
    0 0 0 0 0 0 0 0 0 0 0 0 0 0 0 0 0 0 0 0 0 0 0 0 0 0 0 0 0 0 0 0 0 0 0 0 0 0 0 0 0 0 0 0 0 0 0 0 0 0 0 0 0 0 0 0 0 0 0 0 0 0 0 0 0 0 0 0 0 214 215 216 215 215 214 214 214 215 214 212 213 214 212 213 213 213 212 212 213 212 210 213 213 212 211 213 213 213 214 214 213 213 213 213 212 213 212 212 211 212 210 210 211 211 210 211 208 211 209 212 213 213 213 213 213 214 214 214 214 213 213 214 213 213 214 214 212 212 213 212 212 212 212 210 208 211 211 211 211 211 213 213 214 214 214 214 212 211 210 209 209 208 209 210 209 210 210 209 210 211 211 213 213 214 215 215 215 214 212 213 211 211 210 209 209 209 210 212 212 212 212 212 211 211 210 211 211 210 212 211 213 213 213 213 211 209 208 208 208 207 208 206 207 207 207 209 210 210 209 209 209 210 211 210 211 212 212 212 212 213 213 212 212 211 211 211 212 213 212 211 214 212 213 212 212 212 211 211 212 208 213 210 212 211 212 213 213 211 211 211 211 211 211 211 211 211 212 214 214 215 214 215 213 214 214 214 212 213 212 213 214 214 215 213 212 213 212 211 212 210 212 208 209 212 212 211 211 210 210 210 211 211 211 211 210 210 211 211 211 212 212 212 210 213 213 0 0 0 0 0
    0 0 0 0 0 0 0 0 0 0 0 0 0 0 0 0 0 0 0 0 0 0 0 0 0 0 0 0 0 0 0 0 0 0 0 0 0 0 0 0 0 0 0 0 0 0 0 0 0 0 0 0 0 0 0 0 0 0 0 0 0 0 0 0 0 0 0 0 0 215 216 216 216 215 214 214 214 214 214 212 213 214 212 213 213 213 212 212 213 212 210 213 212 212 211 213 212 212 213 213 212 213 212 213 212 212 212 212 211 212 210 211 211 212 211 212 209 212 211 213 214 213 213 214 213 214 213 213 213 212 212 213 212 212 214 214 212 212 213 212 212 212 212 210 208 211 211 211 212 212 214 214 215 215 215 215 213 212 211 209 209 209 209 210 210 210 210 210 210 212 212 213 213 214 215 215 -193 -193 212 213 210 211 210 209 210 209 210 212 213 212 213 212 212 212 211 212 212 210 212 210 212 213 213 213 211 210 209 209 208 207 208 207 207 207 207 209 210 210 210 211 211 211 212 211 211 212 212 212 211 212 212 212 212 212 211 212 212 213 213 212 214 212 213 212 212 212 211 211 212 208 213 210 212 211 213 214 213 212 211 211 212 211 211 211 211 211 212 214 214 214 214 214 213 214 213 213 212 212 212 212 214 215 215 214 213 213 212 211 212 210 212 208 209 211 211 211 212 211 211 210 212 211 211 211 211 212 212 212 212 212 213 213 212 214 213 0 0 0 0 0
    0 0 0 0 0 0 0 0 0 0 0 0 0 0 0 0 0 0 0 0 0 0 0 0 0 0 0 0 0 0 0 0 0 0 0 0 0 0 0 0 0 0 0 0 0 0 0 0 0 0 0 0 0 0 0 0 0 0 0 0 0 0 0 0 0 0 0 0 0 215 216 216 215 214 214 214 214 214 214 212 213 214 212 213 213 212 212 212 213 212 210 213 212 212 211 213 212 212 213 213 211 213 212 212 211 212 211 212 210 212 209 211 212 212 211 213 210 213 212 214 214 213 213 214 213 214 213 212 213 212 213 213 212 212 214 214 212 212 213 212 212 212 212 210 208 211 211 212 213 212 214 213 214 215 215 215 213 212 211 209 209 209 210 210 210 211 211 211 211 212 212 214 214 214 215 214 -193 214 212 213 210 211 211 209 209 209 209 212 213 212 213 213 212 212 211 212 212 209 212 210 211 212 213 213 212 211 210 209 209 208 209 207 207 207 207 208 210 210 210 211 212 211 212 211 212 212 212 212 211 212 212 211 212 212 211 212 212 212 213 212 214 212 213 212 212 212 211 211 213 209 213 211 213 212 214 215 214 212 212 211 212 212 212 212 211 212 212 214 214 214 213 214 213 213 213 213 212 212 211 212 213 214 215 214 213 213 212 211 212 210 212 209 210 211 212 212 212 211 211 211 212 211 212 211 211 212 212 212 212 212 213 213 212 213 213 0 0 0 0 0
    0 0 0 0 0 0 0 0 0 0 0 0 0 0 0 0 0 0 0 0 0 0 0 0 0 0 0 0 0 0 0 0 0 0 0 0 0 0 0 0 0 0 0 0 0 0 0 0 0 0 0 0 0 0 0 0 0 0 0 0 0 0 0 0 0 0 0 0 0 215 216 215 214 214 213 214 213 213 214 211 213 214 212 213 213 213 213 212 213 212 211 213 212 211 211 212 212 211 213 213 211 213 212 212 211 211 211 212 210 212 209 211 212 213 212 213 210 214 214 215 215 214 214 214 214 215 214 213 214 213 213 213 212 211 213 214 212 212 212 212 212 212 212 210 208 211 211 212 212 212 213 213 214 214 214 214 213 212 211 210 210 210 211 211 211 211 212 212 212 213 212 214 214 214 215 214 214 214 212 213 211 211 211 209 209 209 209 211 213 213 213 213 213 213 212 212 213 209 211 209 211 212 213 213 212 211 211 210 210 209 209 207 206 207 207 208 210 211 211 211 212 212 213 212 211 212 212 212 211 211 211 211 211 211 211 211 211 212 212 212 214 212 213 212 212 212 211 211 212 209 214 211 213 213 215 215 214 212 212 212 212 212 212 212 211 212 213 214 214 215 213 214 213 213 213 213 212 211 210 212 212 214 215 214 213 213 212 211 212 211 212 210 211 212 212 212 212 212 212 212 211 211 211 211 211 212 211 211 211 212 213 212 211 212 212 0 0 0 0 0
    0 0 0 0 0 0 0 0 0 0 0 0 0 0 0 0 0 0 0 0 0 0 0 0 0 0 0 0 0 0 0 0 0 0 0 0 0 0 0 0 0 0 0 0 0 0 0 0 0 0 0 0 0 0 0 0 0 0 0 0 0 0 0 0 0 0 0 0 0 215 215 215 214 213 213 213 213 213 213 211 213 213 212 213 213 213 213 212 213 212 211 214 213 212 211 212 212 212 213 213 211 213 212 212 211 211 212 212 209 212 209 212 212 213 213 213 211 214 215 216 216 215 215 215 215 216 215 214 215 214 214 213 212 210 213 213 212 212 212 212 212 212 212 209 208 210 210 211 211 210 212 211 213 213 213 214 213 213 212 212 211 212 212 212 212 212 213 214 213 215 213 215 215 214 215 214 214 214 212 213 210 211 211 209 209 210 209 212 214 213 214 214 214 213 212 213 213 209 211 209 211 212 213 213 212 211 211 211 210 209 209 207 206 207 207 208 209 211 211 212 213 212 213 212 211 211 212 212 211 211 211 209 211 211 211 210 211 211 212 212 214 211 213 212 212 212 212 211 212 209 213 210 213 213 214 215 213 212 211 212 212 213 212 212 212 213 213 214 214 215 213 214 213 213 213 212 212 211 210 211 211 215 215 214 213 213 212 211 212 211 212 211 211 212 213 212 212 212 212 212 211 211 211 211 211 212 212 211 211 212 213 212 212 212 211 0 0 0 0 0
    0 0 0 0 0 0 0 0 0 0 0 0 0 0 0 0 0 0 0 0 0 0 0 0 0 0 0 0 0 0 0 0 0 0 0 0 0 0 0 0 0 0 0 0 0 0 0 0 0 0 0 0 0 0 0 0 0 0 0 0 0 0 0 0 0 0 0 0 0 215 215 214 213 213 212 213 213 212 213 211 213 213 212 212 212 212 212 212 213 212 212 214 213 212 212 213 213 212 213 213 211 213 212 212 211 211 211 212 209 212 209 212 212 213 213 214 212 215 216 216 216 216 216 216 216 216 216 215 215 214 214 213 212 210 213 214 212 212 212 212 212 212 212 209 208 210 209 210 211 209 211 210 212 212 213 213 213 213 212 212 212 212 213 214 214 214 215 216 216 218 216 -193 216 215 215 214 213 213 211 212 210 211 211 209 209 210 209 212 214 213 214 214 214 214 213 213 213 209 211 209 211 212 213 213 212 211 211 211 210 209 209 207 206 207 207 208 208 210 210 211 213 212 213 211 211 211 211 211 211 210 210 209 211 211 212 210 211 211 212 212 214 211 213 212 212 212 211 211 212 209 213 210 212 212 214 214 213 211 211 211 212 213 213 213 212 213 214 215 214 215 213 214 213 213 213 212 212 211 209 211 210 214 215 215 213 213 213 212 212 212 212 212 211 213 213 213 213 213 212 212 211 211 211 211 211 212 211 211 211 212 213 213 212 212 211 0 0 0 0 0
    0 0 0 0 0 0 0 0 0 0 0 0 0 0 0 0 0 0 0 0 0 0 0 0 0 0 0 0 0 0 0 0 0 0 0 0 0 0 0 0 0 0 0 0 0 0 0 0 0 0 0 0 0 0 0 0 0 0 0 0 0 0 0 0 0 0 0 0 0 214 214 214 213 212 212 212 212 212 212 211 213 213 212 213 212 212 213 212 213 212 212 214 213 213 212 213 214 213 213 214 212 213 211 212 210 210 211 211 209 212 209 212 -193 213 213 214 212 215 216 216 216 216 217 216 216 217 216 215 216 215 215 214 212 211 214 214 212 212 212 212 212 212 212 209 208 210 209 210 211 209 211 210 212 212 213 214 213 213 213 212 212 213 213 214 214 215 216 217 217 220 217 -193 216 216 216 215 213 213 211 212 210 210 210 209 208 210 209 212 214 213 213 214 214 213 212 213 213 209 211 208 210 211 213 213 212 211 212 212 211 210 210 207 206 208 208 208 208 210 210 211 212 212 213 211 210 210 211 211 210 210 210 209 211 211 212 209 211 210 212 212 213 211 213 212 212 212 211 211 212 209 212 210 211 211 213 214 213 211 210 211 212 213 212 213 212 212 214 215 214 215 213 214 213 213 213 212 212 211 209 210 209 214 215 215 213 213 213 212 212 212 212 212 211 212 213 212 213 213 213 213 212 211 212 211 212 213 211 212 211 213 214 214 213 212 212 0 0 0 0 0
    0 0 0 0 0 0 0 0 0 0 0 0 0 0 0 0 0 0 0 0 0 0 0 0 0 0 0 0 0 0 0 0 0 0 0 0 0 0 0 0 0 0 0 0 0 0 0 0 0 0 0 0 0 0 0 0 0 0 0 0 0 0 0 0 0 0 0 0 0 215 215 214 214 213 212 212 212 212 213 212 214 213 213 213 213 213 213 213 213 212 213 214 214 214 213 214 214 213 213 214 212 213 211 212 211 210 211 212 209 212 -193 -193 -193 214 214 214 213 215 216 216 216 216 217 215 215 216 215 214 214 214 213 213 211 210 213 213 211 211 211 211 211 212 212 209 208 211 210 210 211 210 212 211 212 212 214 214 214 214 213 213 212 213 213 214 214 213 214 215 216 218 -209 -193 216 215 216 215 213 213 211 212 210 210 210 209 208 210 209 211 214 212 213 213 213 213 212 213 213 209 211 208 209 210 213 213 212 212 212 212 211 210 210 207 207 208 208 208 208 209 210 211 213 212 213 210 210 210 211 210 210 210 210 209 211 211 212 209 211 211 212 212 213 211 212 212 212 211 211 211 211 209 212 210 211 212 213 215 214 211 211 211 212 214 213 213 212 213 214 214 214 214 213 214 212 213 212 212 211 210 208 209 208 214 214 215 213 213 213 212 212 212 212 212 211 212 212 212 213 213 213 213 212 212 212 212 213 213 212 212 212 213 214 214 212 211 212 0 0 0 0 0
    0 0 0 0 0 0 0 0 0 0 0 0 0 0 0 0 0 0 0 0 0 0 0 0 0 0 0 0 0 0 0 0 0 0 0 0 0 0 0 0 0 0 0 0 0 0 0 0 0 0 0 0 0 0 0 0 0 0 0 0 0 0 0 0 0 0 0 0 0 215 215 216 215 214 213 213 213 212 213 213 214 213 214 214 213 213 214 213 213 213 213 215 214 214 214 214 214 213 213 214 212 213 212 212 211 211 212 213 211 213 -193 -193 -193 215 214 215 213 215 -209 216 216 216 217 216 215 215 214 214 213 213 212 212 210 208 212 213 211 211 211 211 211 212 212 210 209 212 211 211 211 210 212 211 212 213 214 215 215 215 214 214 213 214 213 214 214 213 213 214 215 217 -209 -193 -193 215 215 214 213 213 211 212 210 210 210 209 208 211 209 211 214 212 213 213 213 213 212 213 213 208 210 208 208 210 213 214 212 212 213 213 212 211 210 208 208 208 209 208 208 209 211 211 213 212 213 210 210 210 211 210 211 210 210 210 212 212 212 210 212 211 212 213 214 212 212 212 212 211 211 211 211 209 212 210 212 213 213 215 213 211 212 212 213 214 213 214 213 213 214 213 213 213 212 213 211 212 211 210 210 209 207 208 206 213 213 215 213 213 212 211 211 212 211 212 210 211 212 212 212 213 213 213 212 212 212 212 213 213 212 212 212 213 214 213 212 209 212 0 0 0 0 0
    0 0 0 0 0 0 0 0 0 0 0 0 0 0 0 0 0 0 0 0 0 0 0 0 0 0 0 0 0 0 0 0 0 0 0 0 0 0 0 0 0 0 0 0 0 0 0 0 0 0 0 0 0 0 0 0 0 0 0 0 0 0 0 0 0 0 0 0 0 215 215 216 216 214 213 213 213 212 214 213 214 214 214 215 214 214 215 213 214 214 214 216 215 214 214 214 215 213 213 214 212 213 212 212 212 211 213 213 211 213 -193 214 214 215 214 214 213 215 -193 214 215 215 216 215 215 215 214 214 213 213 212 212 210 208 211 212 210 211 211 211 211 212 213 210 210 212 212 211 211 209 211 211 211 212 214 215 215 215 215 215 214 215 215 215 216 215 215 215 216 217 -209 -193 216 215 215 214 213 213 212 212 211 211 211 210 209 211 209 210 214 212 213 213 212 212 212 212 212 208 210 208 207 210 213 214 213 213 213 213 212 211 210 208 208 208 209 209 208 208 210 210 212 211 212 210 210 210 212 210 211 211 210 210 212 211 212 209 212 211 212 213 214 212 213 212 212 211 211 211 211 208 212 210 211 214 213 214 213 211 212 212 214 214 213 214 214 215 216 214 214 213 212 213 211 211 210 209 208 208 206 207 204 211 210 214 212 213 212 211 211 211 211 212 211 211 212 212 213 214 213 213 212 212 213 213 213 213 212 212 212 214 214 213 212 208 214 0 0 0 0 0
    0 0 0 0 0 0 0 0 0 0 0 0 0 0 0 0 0 0 0 0 0 0 0 0 0 0 0 0 0 0 0 0 0 0 0 0 0 0 0 0 0 0 0 0 0 0 0 0 0 0 0 0 0 0 0 0 0 0 0 0 0 0 0 0 0 0 0 0 0 215 215 217 216 214 212 212 212 211 213 213 214 213 214 215 214 215 215 214 214 215 216 217 217 216 215 215 215 214 213 214 212 213 212 212 212 211 213 213 211 213 212 214 214 214 214 214 -193 214 -193 213 214 214 215 215 215 215 214 214 213 213 212 213 210 209 211 212 210 211 211 211 211 212 213 211 210 213 212 211 211 209 211 211 211 212 213 214 215 216 216 216 214 215 215 216 217 216 217 216 -193 218 -209 -193 -193 215 215 214 213 213 212 211 210 210 210 209 208 210 208 210 214 212 212 213 212 212 211 212 212 208 210 209 207 211 213 214 213 213 213 214 212 211 210 209 209 208 209 209 208 208 210 210 211 210 212 209 209 210 213 211 212 211 211 210 212 211 212 209 211 211 212 213 214 212 213 212 212 212 211 211 210 208 212 210 212 214 213 214 213 211 212 212 213 213 212 214 214 215 217 215 214 214 212 214 212 212 210 210 208 208 206 207 204 212 209 213 212 213 213 212 211 211 211 213 211 212 212 212 213 214 214 214 213 213 213 214 214 213 212 211 211 212 213 211 211 207 214 0 0 0 0 0
    0 0 0 0 0 0 0 0 0 0 0 0 0 0 0 0 0 0 0 0 0 0 0 0 0 0 0 0 0 0 0 0 0 0 0 0 0 0 0 0 0 0 0 0 0 0 0 0 0 0 0 0 0 0 0 0 0 0 0 0 0 0 0 0 0 0 0 0 0 215 215 217 216 214 212 212 212 212 213 213 214 214 214 214 214 215 215 215 215 216 217 218 218 217 217 216 216 214 213 214 212 213 212 212 212 212 213 213 212 213 213 214 -193 -193 214 -193 -193 214 -193 212 213 214 215 214 214 215 213 214 213 213 212 213 211 209 211 212 210 210 211 211 210 212 212 210 208 212 212 211 210 209 211 212 212 213 214 215 216 216 216 216 215 216 216 216 216 216 216 216 216 -209 -209 217 216 216 215 214 213 214 212 211 210 210 210 209 209 211 209 210 214 212 212 213 212 212 211 212 212 208 210 209 207 211 212 213 213 213 213 214 213 212 211 209 210 208 209 209 208 208 210 210 211 209 211 209 209 209 213 211 212 212 212 211 213 211 212 209 212 212 212 214 214 212 213 212 212 212 212 211 211 209 213 211 213 215 214 214 214 212 213 212 213 213 212 215 216 216 218 215 215 214 213 214 212 212 211 211 209 209 -193 209 205 213 209 213 212 213 213 212 211 211 211 213 211 212 212 212 214 215 215 215 214 214 214 215 215 214 213 212 213 214 215 214 214 213 218 0 0 0 0 0
    0 0 0 0 0 0 0 0 0 0 0 0 0 0 0 0 0 0 0 0 0 0 0 0 0 0 0 0 0 0 0 0 0 0 0 0 0 0 0 0 0 0 0 0 0 0 0 0 0 0 0 0 0 0 0 0 0 0 0 0 0 0 0 0 0 0 0 0 0 215 215 217 216 214 213 213 213 212 214 214 215 214 214 214 215 215 216 215 216 217 217 219 219 218 217 217 216 215 214 215 212 213 213 212 212 212 213 214 213 214 214 214 -193 -193 -193 -193 -193 214 212 212 213 213 214 213 213 214 212 214 212 212 212 213 210 209 210 212 210 209 210 210 209 211 211 210 208 212 213 211 211 210 213 213 213 215 -193 216 217 217 216 216 215 216 216 216 215 215 215 215 215 -193 -209 217 216 217 216 215 214 215 212 211 211 211 211 210 210 212 209 211 214 212 213 214 213 212 211 212 212 208 210 209 207 211 212 213 213 213 213 214 213 212 211 210 211 209 210 209 208 208 210 210 210 208 211 208 209 209 214 211 213 213 213 212 214 212 213 210 213 212 213 214 215 213 214 213 213 213 213 212 212 210 214 213 214 216 216 215 -193 -209 -193 -209 -209 212 212 215 218 217 219 216 215 214 213 214 212 212 211 211 208 208 -193 208 203 -193 208 213 212 213 213 212 211 211 210 212 210 211 211 211 213 215 215 215 214 215 215 216 216 214 214 214 214 216 218 218 218 218 222 0 0 0 0 0
    0 0 0 0 0 0 0 0 0 0 0 0 0 0 0 0 0 0 0 0 0 0 0 0 0 0 0 0 0 0 0 0 0 0 0 0 0 0 0 0 0 0 0 0 0 0 0 0 0 0 0 0 0 0 0 0 0 0 0 0 0 0 0 0 0 0 0 0 0 -193 217 218 218 216 215 214 214 213 215 214 215 215 215 215 215 216 216 216 217 217 217 219 220 219 218 217 217 215 214 215 213 213 213 213 213 213 213 214 214 215 214 215 -193 973 973 974 -193 214 -193 213 213 212 213 213 213 213 212 213 212 212 212 213 210 209 210 211 208 208 209 209 208 210 210 209 207 212 214 212 212 212 215 215 215 216 -193 217 219 218 216 216 215 216 215 215 214 214 214 215 215 -193 -193 -193 216 217 216 215 214 215 213 211 211 211 211 210 211 212 210 211 214 212 213 214 212 212 211 212 211 208 210 209 207 211 212 212 213 213 214 214 213 212 212 211 212 209 210 210 208 208 211 211 210 208 210 208 209 209 214 211 213 213 214 213 214 212 213 211 213 213 214 214 215 213 214 214 214 213 213 213 213 213 216 216 217 221 225 -193 -209 -209 -209 -209 -209 -209 -193 218 229 227 220 216 215 215 214 214 213 212 211 211 207 -193 -209 -193 -193 -209 206 212 212 212 213 212 211 211 209 212 209 210 210 210 213 215 -193 -193 -193 -193 -193 -193 217 215 215 215 215 217 219 220 220 220 224 0 0 0 0 0
    0 0 0 0 0 0 0 0 0 0 0 0 0 0 0 0 0 0 0 0 0 0 0 0 0 0 0 0 0 0 0 0 0 0 0 0 0 0 0 0 0 0 0 0 0 0 0 0 0 0 0 0 0 0 0 0 0 0 0 0 0 0 0 0 0 0 0 0 0 -193 220 222 222 -193 217 216 215 215 216 215 216 216 215 215 215 216 216 216 217 217 218 220 220 220 218 218 217 215 215 215 214 214 214 214 214 214 214 215 215 216 215 216 972 975 974 -177 -193 -209 -193 212 210 209 211 210 210 212 211 213 211 212 212 213 210 209 209 211 207 207 208 208 207 209 209 209 207 213 215 213 213 213 216 216 215 217 -193 218 219 218 216 216 215 215 215 214 213 213 214 214 213 -193 -193 215 215 216 216 215 214 216 214 212 212 212 211 210 211 213 210 211 214 212 212 214 212 212 211 212 211 208 210 209 207 211 212 212 213 213 214 214 214 213 212 211 213 209 211 210 209 208 211 212 211 208 211 208 210 210 214 212 213 214 214 214 215 212 213 211 214 213 214 214 215 213 214 214 214 214 214 214 214 214 218 220 223 228 232 -209 -209 242 252 253 250 252 -193 -209 235 236 221 216 215 215 214 -193 213 213 211 -193 -193 -209 -209 -193 -209 -193 -193 211 212 212 213 211 210 210 208 211 -193 209 208 -193 -193 -209 -193 145 -193 -193 -177 -209 221 217 216 217 216 219 221 222 222 221 224 0 0 0 0 0
    0 0 0 0 0 0 0 0 0 0 0 0 0 0 0 0 0 0 0 0 0 0 0 0 0 0 0 0 0 0 0 0 0 0 0 0 0 0 0 0 0 0 0 0 0 0 0 0 0 0 0 0 0 0 0 0 0 0 0 0 0 0 0 0 0 0 0 0 0 -209 223 225 -193 219 218 218 216 216 217 216 217 216 215 215 215 216 216 216 217 217 218 221 221 220 218 218 -193 215 214 215 214 215 215 215 215 215 215 216 216 217 216 216 -209 -209 -193 -193 -193 -177 0 -209 -193 207 209 209 209 211 210 212 210 211 211 212 209 209 207 210 207 206 207 208 206 209 209 209 207 212 215 214 214 214 216 216 216 217 219 218 220 218 216 216 215 215 214 213 212 213 214 214 213 -193 -193 215 215 216 216 215 215 216 215 212 213 212 212 211 212 213 211 212 214 213 213 214 213 212 211 212 211 208 210 210 207 211 212 212 213 214 214 214 214 214 213 212 213 209 212 210 210 209 212 212 211 208 211 209 211 211 215 213 215 216 215 214 215 213 213 212 214 214 214 214 215 213 214 215 215 214 215 215 216 216 221 226 228 230 234 237 -209 242 252 254 251 253 251 -209 237 239 226 218 216 216 -193 -193 -193 213 -193 -193 -209 -209 -209 -209 -209 -193 -209 -193 -193 -193 213 -193 -193 -193 -193 -209 -209 -209 -209 -209 -193 -209 -209 -209 -209 -193 -177 -209 -193 222 219 221 219 221 223 225 225 223 226 0 0 0 0 0
    0 0 0 0 0 0 0 0 0 0 0 0 0 0 0 0 0 0 0 0 0 0 0 0 0 0 0 0 0 0 0 0 0 0 0 0 0 0 0 0 0 0 0 0 0 0 0 0 0 0 0 0 0 0 0 0 0 0 0 0 0 0 0 0 0 0 0 0 0 -209 -209 -209 -209 219 219 219 217 217 218 216 217 216 216 215 216 217 216 216 217 217 219 221 221 220 218 217 215 214 214 215 215 215 215 215 216 215 215 216 216 217 216 216 -209 -209 -193 -193 -177 -177 0 -209 -209 -193 208 208 209 211 210 212 211 211 211 213 210 209 206 210 207 206 207 207 206 209 209 210 206 212 216 215 215 214 217 217 217 218 220 218 220 218 216 216 215 215 214 214 212 213 214 215 214 -193 -193 216 216 217 216 215 215 217 215 213 213 213 212 211 213 214 212 213 215 214 214 216 214 213 212 213 212 209 211 211 207 212 212 212 213 214 214 214 214 214 213 213 214 210 212 210 210 209 211 211 210 208 211 210 212 212 216 214 -177 217 216 215 215 213 214 212 214 213 214 214 215 213 215 215 -193 215 216 217 217 218 224 229 230 231 236 240 -209 243 253 257 252 254 252 247 239 241 229 -193 -209 -193 892 893 -193 -193 -193 -193 -209 -209 -209 -209 -209 -193 -209 -209 -193 -193 -193 -193 -209 -209 -209 -209 -209 -209 -209 -209 -209 -209 -209 -209 -209 -209 -209 -209 -209 223 224 224 220 222 225 226 227 225 227 0 0 0 0 0
    0 0 0 0 0 0 0 0 0 0 0 0 0 0 0 0 0 0 0 0 0 0 0 0 0 0 0 0 0 0 0 0 0 0 0 0 0 0 0 0 0 0 0 0 0 0 0 0 0 0 0 0 0 0 0 0 0 0 0 0 0 0 0 0 0 0 0 0 0 -209 -209 -209 -209 -209 218 220 216 218 219 216 218 217 216 216 216 217 216 217 218 0 -256 -1 -28228 220 218 218 215 213 -193 -193 214 215 215 215 215 215 215 215 216 216 215 -209 -209 -193 -193 -193 0 0 0 -193 -209 -209 -193 208 208 211 211 213 213 213 -177 -177 211 211 206 211 207 206 207 207 207 209 209 210 206 212 216 214 216 215 217 217 217 -193 220 218 220 217 216 215 214 215 214 214 212 214 215 216 215 -193 -193 -193 216 217 217 215 215 217 215 212 212 212 212 211 213 215 212 213 216 214 214 216 215 214 212 214 212 209 211 211 208 211 211 211 212 213 214 214 214 215 213 214 215 210 213 210 209 208 211 211 209 207 211 211 212 213 216 214 -177 218 217 216 216 213 214 213 214 213 -193 214 -193 213 215 216 -209 -193 217 219 221 221 229 232 233 233 237 -193 -193 245 254 259 254 256 253 -193 245 245 -209 -209 -209 -209 892 892 -193 -209 -209 -209 -209 -193 -193 -209 -209 -209 -209 -209 -209 -209 -209 -209 -209 -209 -209 -209 -209 -193 -193 -209 -209 -209 -209 -209 -209 -209 -209 -209 -209 221 227 226 221 222 226 228 228 227 228 0 0 0 0 0
    0 0 0 0 0 0 0 0 0 0 0 0 0 0 0 0 0 0 0 0 0 0 0 0 0 0 0 0 0 0 0 0 0 0 0 0 0 0 0 0 0 0 0 0 0 0 0 0 0 0 0 0 0 0 0 0 0 0 0 0 0 0 0 0 0 0 0 0 0 -209 -209 -209 -209 -209 219 222 218 220 221 218 218 218 217 216 216 218 217 217 218 218 219 221 222 221 219 221 -209 213 -193 -193 214 215 214 214 215 214 214 215 216 -193 -209 -209 -209 11 11 12 0 9 0 -193 -209 -209 -209 -209 208 212 212 -177 216 217 217 217 214 214 206 211 206 204 206 206 206 207 207 209 205 210 214 -193 216 215 217 217 218 -193 225 220 221 217 215 214 214 214 213 213 211 213 -193 215 214 -193 -209 -193 217 218 218 217 216 -193 215 210 211 212 210 209 213 214 213 214 218 216 216 220 220 216 214 215 213 211 212 211 -193 -193 210 211 211 212 214 214 215 215 -193 -209 -209 -209 215 210 207 208 211 212 212 210 -193 215 -209 -209 -209 -209 -209 220 219 -209 -209 -193 -209 -209 -193 -193 -209 -209 -209 213 216 218 -193 220 222 225 227 228 231 233 234 234 238 -209 -193 246 254 260 256 258 255 253 251 250 -209 -209 -209 -209 892 -177 -193 -209 -209 -209 -209 -193 13 -209 -209 -209 -209 -193 -209 -209 -209 -209 -209 -209 -209 -209 -209 -177 -193 -209 -209 -209 -209 -209 -209 -209 -209 -209 -209 -209 -209 231 221 224 228 229 229 226 228 0 0 0 0 0
    0 0 0 0 0 0 0 0 0 0 0 0 0 0 0 0 0 0 0 0 0 0 0 0 0 0 0 0 0 0 0 0 0 0 0 0 0 0 0 0 0 0 0 0 0 0 0 0 0 0 0 0 0 0 0 0 0 0 0 0 0 0 0 0 0 0 0 0 0 -209 -209 -209 -209 -209 -209 224 221 223 223 220 220 219 218 217 -193 218 217 218 218 218 219 221 222 221 218 222 215 213 -209 -209 -209 -209 216 215 216 215 215 215 -193 -193 -193 -193 15 14 -225 -225 -225 -225 -225 -225 -225 -225 -209 -193 -193 -177 213 216 218 219 219 220 -209 -209 -209 -193 -209 202 204 204 204 205 206 207 204 208 213 -193 -209 214 -193 -209 -193 -193 228 222 222 218 215 214 215 214 213 211 209 211 -193 213 213 -193 -209 216 217 219 219 218 218 -193 -193 -193 -193 -193 -177 -177 215 219 219 223 227 225 224 228 231 230 220 -193 -193 -193 -193 33 -193 496 -193 -193 -193 210 -209 213 -209 -193 685 686 685 -209 -209 -193 -193 208 -193 -225 -225 -209 -209 -193 -209 -209 -209 -209 -209 -209 -209 -225 -225 -225 -225 -225 -225 -225 -209 -209 -209 -193 218 -193 -209 229 229 230 231 232 233 234 235 235 240 -209 243 246 253 259 257 259 256 254 256 254 252 -209 -209 -209 -209 -209 -209 -209 -209 -209 -209 -209 -209 -209 -209 -209 -209 -209 -209 -209 -209 0 0 0 -209 -209 -209 0 -193 -209 -209 -209 -209 -209 -209 -193 -193 -209 -209 -193 -209 236 229 229 230 231 230 227 228 0 0 0 0 0
    0 0 0 0 0 0 0 0 0 0 0 0 0 0 0 0 0 0 0 0 0 0 0 0 0 0 0 0 0 0 0 0 0 0 0 0 0 0 0 0 0 0 0 0 0 0 0 0 0 0 0 0 0 0 0 0 0 0 0 0 0 0 0 0 0 0 0 0 0 -209 -209 -209 252 -209 -209 229 228 225 224 222 223 220 220 219 -193 220 218 218 219 217 219 220 220 218 -193 -209 -209 -209 -209 665 -209 -209 217 217 218 216 216 216 -209 -193 -193 -193 16 -225 -225 -225 -225 -225 -225 -225 -225 -225 -225 -193 -193 52 53 52 -193 -193 -193 -209 -209 -193 454 -193 -209 -193 -209 -209 203 204 204 204 205 208 -193 165 -209 -209 -209 -209 -209 -209 -193 222 223 220 215 214 214 214 211 209 207 -193 -193 -193 -193 -209 -225 -225 -225 220 220 -193 219 -193 -193 -193 -193 -193 -193 -225 -225 -225 -225 -225 232 229 229 230 232 -193 -193 -225 -225 -225 -225 -225 -225 -225 -225 -225 -225 -225 -225 -225 -225 -225 687 -225 -225 -225 -225 -225 -225 -225 -225 -225 -225 -225 -225 -225 -225 -225 -225 -225 -225 -225 -225 -225 -225 -225 -225 -225 -225 -225 -225 -225 -225 -225 -225 -225 -225 234 233 234 234 234 235 235 237 237 243 -209 -209 248 255 259 258 259 256 252 254 255 253 -209 -209 -209 -209 -209 -209 -209 -209 -209 -209 -209 -209 -209 -209 -209 -209 -209 -193 0 0 0 0 0 0 -209 -193 -177 -193 -209 -209 -209 -209 -209 -209 -209 -209 -209 -209 -193 247 241 235 232 232 233 231 228 228 0 0 0 0 0
    0 0 0 0 0 0 0 0 0 0 0 0 0 0 0 0 0 0 0 0 0 0 0 0 0 0 0 0 0 0 0 0 0 0 0 0 0 0 0 0 0 0 0 0 0 0 0 0 0 0 0 0 0 0 0 0 0 0 0 0 0 0 0 0 0 0 0 0 0 -209 -209 -209 -209 -193 -193 -225 -225 229 225 224 227 222 222 221 -193 220 218 219 218 215 -209 -209 -193 -193 -193 -209 202 -193 250 -193 -209 -209 218 -193 220 218 217 217 -193 -193 -209 -209 -193 -225 -225 -225 -225 -225 -225 -225 -225 -225 -225 -225 -225 -225 -225 -225 -225 -225 50 -193 -209 -193 455 -209 461 -209 -209 -193 -193 -193 -225 -225 -225 -225 -225 -225 -225 -209 -209 -193 -193 -209 -193 -225 -225 -225 -225 -225 -225 -225 -225 -225 -225 -225 -225 -225 -225 -225 -225 -225 -225 -225 -225 -225 -225 -225 -225 -225 -225 -225 -225 -225 -225 -225 -225 -225 -225 -225 -225 -225 -225 -225 -225 -225 -225 -225 -225 -225 -225 -225 -225 -225 -225 -225 -225 -225 -225 -225 -225 -225 -225 -225 -225 -225 -225 -225 -225 -225 -225 -225 -225 -225 -225 -225 -225 -225 -225 -225 -225 -225 -225 -225 -225 -225 -225 -225 -225 -225 -225 -225 -225 -225 -225 -225 236 238 238 236 236 236 240 242 -209 -209 -209 -209 255 261 260 261 257 251 256 260 -209 -209 -209 -209 -209 -209 -209 -209 -209 -209 -209 -209 297 -193 -209 -209 -209 -209 -209 0 0 0 0 0 -177 -193 -177 -177 -193 -177 -209 -193 -209 -209 -209 -209 -209 -209 -209 -209 248 244 239 234 234 236 -193 226 224 0 0 0 0 0
    0 0 0 0 0 0 0 0 0 0 0 0 0 0 0 0 0 0 0 0 0 0 0 0 0 0 0 0 0 0 0 0 0 0 0 0 0 0 0 0 0 0 0 0 0 0 0 0 0 0 0 0 0 0 0 0 0 0 0 0 0 0 0 0 0 0 0 0 0 -209 667 -209 -209 -193 -225 -225 -225 -225 -225 -225 224 222 -225 -225 -225 220 217 220 -193 -209 -209 -209 -209 -209 -209 -193 -209 -193 -209 -209 -225 -225 107 114 -209 -193 220 219 222 -209 -209 -225 -225 -225 -225 -225 -225 -225 -225 -225 -225 -225 -225 -225 -225 -225 -225 -225 -225 -225 -225 -225 -225 -225 -225 -225 -225 -225 -225 -225 -225 -225 -225 -225 -225 -225 -225 -225 -225 -225 -225 -225 -225 -225 -225 -225 -225 -225 -225 -225 -225 -225 -225 -225 -225 -225 -225 -225 -225 -225 -225 -225 -225 -225 -225 -225 -225 -225 -225 -225 -225 -225 -225 -225 -225 -225 -225 -225 -225 -225 -225 -225 -225 -225 -225 -225 -225 -225 -225 -225 -225 -225 -225 -225 -225 -225 -225 -225 -225 -225 -225 -225 -225 -225 -225 -225 -225 -225 -225 -225 -225 -225 -225 -225 -225 -225 -225 -225 -225 -225 -225 -225 -225 -225 -225 -225 -225 -225 -225 -225 -225 -225 -225 -225 -225 -209 235 241 239 237 237 237 242 -209 -209 -209 -209 -209 -209 -209 -209 -209 -209 -209 -209 -209 -209 -209 -209 -209 -209 -209 -209 288 290 292 -193 297 296 300 299 300 -193 -209 -209 -209 -209 0 0 0 -193 -209 -193 -193 -193 -209 -209 -193 -209 -209 -209 -209 -209 -209 -209 -209 -209 245 246 236 239 -209 -209 -209 -209 0 0 0 0 0
    0 0 0 0 0 0 0 0 0 0 0 0 0 0 0 0 0 0 0 0 0 0 0 0 0 0 0 0 0 0 0 0 0 0 0 0 0 0 0 0 0 0 0 0 0 0 0 0 0 0 0 0 0 0 0 0 0 0 0 0 0 0 0 0 0 0 0 0 0 676 679 -193 -225 -225 -225 -225 -225 -225 -225 -225 -225 -225 -225 -225 -225 -225 -225 -225 -225 -225 -225 -225 -225 -225 -225 -225 -225 -225 -225 -225 -225 -225 -225 -225 -225 -225 -225 -225 -225 -225 -225 -225 -225 -225 -225 -225 -225 -225 -225 -225 -225 -225 -225 -225 -225 -225 -225 -225 -225 -225 -225 -225 -225 -225 -225 -225 -225 -225 -225 -225 -225 -225 -225 -225 -225 -225 -225 -225 -225 -225 -225 -225 -225 -225 -225 -225 -225 -225 -225 -225 -225 -225 -225 -225 -225 -225 -225 -225 -225 -225 -225 -225 -225 -225 -225 -225 -225 -225 -225 -225 -225 -225 -225 -225 -225 -225 -225 -225 -225 -225 -225 -225 -225 -225 -225 -225 -225 -225 -225 -225 -225 -225 -225 -225 -225 460 -193 293 293 293 295 296 296 297 296 300 -193 -193 -225 -225 -225 -225 -225 -225 -225 -225 -225 -225 -225 -225 -225 -225 -225 -225 -225 -225 -225 -225 -225 -225 -193 -193 -209 -209 -193 -193 -209 -209 -209 -209 565 565 565 566 -209 -209 -209 -209 -193 -177 -177 -177 -193 -209 -209 -209 -209 -209 -209 -209 -209 -209 -193 -193 -193 293 295 295 295 299 299 299 300 -193 -193 -193 -209 -209 0 0 -209 -209 -209 -209 -209 -209 -209 -209 -209 -209 -209 -209 -209 -209 -209 -209 -209 -209 -209 -209 -209 -209 -209 -209 -209 0 0 0 0 0
    0 0 0 0 0 0 0 0 0 0 0 0 0 0 0 0 0 0 0 0 0 0 0 0 0 0 0 0 0 0 0 0 0 0 0 0 0 0 0 0 0 0 0 0 0 0 0 0 0 0 0 0 0 0 0 0 0 0 0 0 0 0 0 0 0 0 0 0 0 -225 -225 -225 -225 -225 -225 -225 -225 -225 -225 -225 -225 -225 -225 -225 -225 -225 -225 -225 -225 -225 -225 -225 -225 -225 -225 -225 -225 -225 -225 -225 -225 -225 -225 -225 -225 -225 -225 -225 -225 -225 -225 -225 -225 -225 -225 -225 -225 -225 -225 -225 -225 -225 -225 -225 -225 -225 -225 -225 -225 -225 -225 -225 -225 -225 -225 -225 -225 -225 -225 -225 -225 -225 -225 -225 -225 -225 -225 -225 -225 -225 -225 -225 -225 -225 -225 -225 -225 -225 -225 -225 -225 -225 -225 -209 -209 -209 -193 -209 -209 -225 -209 -209 -225 -225 -225 -225 -225 -225 -225 -225 -225 -225 -225 -225 -225 -225 -225 -225 -225 -225 -225 -225 -225 -225 -225 -225 -225 -225 -225 -225 -225 -225 -193 420 -209 301 292 293 292 291 293 295 296 297 297 301 298 300 302 -193 -209 -225 -225 911 910 910 910 909 -225 -225 908 909 -193 906 904 907 -193 292 297 -209 -209 -193 -209 -209 -209 -193 -193 -193 286 291 -209 -209 -209 -177 -193 -209 -209 -209 700 701 702 702 704 700 699 -209 -193 -209 -209 -193 -209 -193 533 -193 -193 -193 296 295 295 298 298 298 299 -209 -209 -209 -209 -209 -209 -209 -209 -209 -209 -209 -209 -209 -209 -209 -193 153 154 -193 -209 -209 193 198 -209 -209 -209 -209 278 -209 -209 -209 282 0 0 0 0 0
    0 0 0 0 0 0 0 0 0 0 0 0 0 0 0 0 0 0 0 0 0 0 0 0 0 0 0 0 0 0 0 0 0 0 0 0 0 0 0 0 0 0 0 0 0 0 0 0 0 0 0 0 0 0 0 0 0 0 0 0 0 0 0 0 0 0 0 0 0 -225 -225 -225 -225 -225 -225 -225 -225 -225 -225 -225 -225 -225 -225 -225 -225 -225 -225 -225 -225 -225 -225 -225 -225 -225 -225 -225 -225 -225 -225 -225 -225 -225 -225 -225 -225 -225 -225 -225 -225 -225 -225 -225 -225 -225 -225 -225 -225 -225 292 291 -209 296 -209 -209 -209 -209 -225 -225 438 -209 -209 -209 -209 -209 -193 -193 70 70 -209 -225 -225 -225 -225 -225 -225 -225 -225 -225 -225 -225 -225 -225 -225 -225 -225 -225 -225 -225 -225 -193 -177 -209 376 375 -209 -209 -193 -193 -209 -193 -209 -209 302 303 303 -193 564 562 561 560 -193 -193 445 446 -193 -193 -193 -193 289 291 -193 -209 -193 813 815 -225 -225 -225 -193 523 523 522 -193 -193 -193 299 294 295 293 292 293 294 296 297 297 299 297 298 300 300 -209 -209 -193 -177 -177 910 908 -177 909 907 -193 -193 -193 -193 -193 -193 292 292 297 298 -209 -209 -193 -193 -193 -193 -193 287 288 292 -193 293 -209 -209 -209 -209 -209 -209 -209 -193 703 703 705 -177 -209 -209 -209 -209 -193 -209 -209 -193 533 -193 -193 -193 296 296 295 298 298 298 298 297 297 297 -193 -209 -209 -209 -209 -209 -209 -209 -193 -193 150 150 150 -193 -193 -193 -209 -209 -209 -209 -209 291 -193 -193 283 283 285 285 286 0 0 0 0 0
    0 0 0 0 0 0 0 0 0 0 0 0 0 0 0 0 0 0 0 0 0 0 0 0 0 0 0 0 0 0 0 0 0 0 0 0 0 0 0 0 0 0 0 0 0 0 0 0 0 0 0 0 0 0 0 0 0 0 0 0 0 0 0 0 0 0 0 0 0 -225 -225 -225 -225 -225 -225 -225 -225 -225 -225 -225 -225 -225 -225 -225 -225 -225 -225 -225 -225 -225 -225 -225 -225 -225 -225 -225 -225 -225 -225 -225 -225 -225 -225 -225 -225 -225 -225 -225 -225 -225 -225 -225 207 210 -193 -193 -193 -209 -193 -209 -209 -209 299 -193 -209 -209 -193 -209 308 -193 303 -209 -193 300 299 -209 -209 -209 -209 862 -209 871 -225 -225 -225 -225 -225 -225 -225 -225 -225 835 -209 -209 -209 899 -225 895 891 897 -209 -193 375 374 376 897 900 -193 -193 -193 -209 -193 -193 -193 -193 -193 -193 -193 -177 559 -193 -209 -193 -193 -193 -193 -193 -193 290 291 291 -193 -193 -193 815 -193 630 -209 -209 -193 -193 -193 -193 867 295 298 296 297 295 294 294 295 296 296 296 296 295 296 298 299 -193 -193 -193 -193 910 -193 -193 -193 299 -193 291 293 -193 -193 -193 -193 292 292 297 298 -209 -209 -193 -193 -193 -193 -193 288 289 291 -193 293 -209 -209 -209 -209 -209 -209 -209 -193 -193 702 -177 -177 -209 298 299 -209 671 -193 -209 -193 -193 -193 -193 295 295 295 295 298 298 298 298 297 297 297 298 -193 293 -193 -209 -209 -209 -209 -209 -193 -193 -193 -209 -209 -209 -193 -209 -209 -209 -209 -193 293 288 289 290 292 292 291 292 0 0 0 0 0
    0 0 0 0 0 0 0 0 0 0 0 0 0 0 0 0 0 0 0 0 0 0 0 0 0 0 0 0 0 0 0 0 0 0 0 0 0 0 0 0 0 0 0 0 0 0 0 0 0 0 0 0 0 0 0 0 0 0 0 0 0 0 0 0 0 0 0 0 0 -209 -209 -209 -209 -193 -193 -209 -209 -193 -209 -193 -193 307 308 -225 -225 -193 -193 -193 -225 -225 -225 -225 -225 -225 -225 -225 -225 -225 -225 -225 -225 -225 -225 -225 -225 -225 -225 -225 443 -225 -225 -193 -193 -193 -209 -193 -193 -209 -209 -209 -209 -209 300 -193 -209 -193 -193 304 306 -193 303 -209 301 301 300 300 -209 -209 -209 -209 -193 -193 876 -209 832 -193 -193 828 826 828 830 831 -209 -193 -193 -209 -193 -193 -193 -193 -209 -193 374 373 375 895 -193 -193 301 -193 -193 571 -193 -193 302 -193 -193 -193 -193 -209 -209 -209 -193 -193 288 -193 289 290 289 290 290 -193 -193 -193 814 816 -193 -193 -209 -209 -209 -193 866 -193 296 298 298 298 297 295 295 295 296 296 296 295 295 295 298 298 299 300 300 300 -193 -193 300 300 299 298 293 293 292 -193 292 -193 293 294 297 298 296 295 294 295 292 293 291 290 290 292 292 293 293 297 -209 -193 294 -193 -193 294 294 -209 -193 -209 298 298 299 -209 -209 -193 -209 -193 -193 294 -193 294 294 295 295 297 298 298 298 297 297 297 298 297 293 294 -193 -193 294 293 293 293 293 294 293 294 -209 -209 -209 -193 -193 -193 294 294 293 294 296 297 296 294 295 0 0 0 0 0
    0 0 0 0 0 0 0 0 0 0 0 0 0 0 0 0 0 0 0 0 0 0 0 0 0 0 0 0 0 0 0 0 0 0 0 0 0 0 0 0 0 0 0 0 0 0 0 0 0 0 0 0 0 0 0 0 0 0 0 0 0 0 0 0 0 0 0 0 0 -209 -209 -209 -209 -193 -177 -209 -209 -209 -209 307 308 306 308 303 301 -193 -193 -193 -193 -225 -225 -225 -225 -225 -225 -225 -225 -225 -225 -225 370 -225 -225 -225 -225 -225 -225 -209 -209 -209 444 -193 -209 -209 -209 -209 -209 -209 -209 -209 -209 -193 300 300 -193 302 304 304 305 304 303 -209 301 301 301 300 300 -209 299 -209 299 303 -209 -209 -209 -209 -209 -209 -209 -209 -209 -209 -193 -209 300 301 -193 302 -193 -193 -193 -193 -193 -193 -209 -177 -193 301 300 -193 -193 -193 -193 302 301 301 300 299 299 -209 -209 -209 -193 290 289 288 290 291 290 290 290 289 -209 -193 815 817 -177 -209 -209 -209 -193 -193 -209 -209 296 298 298 299 298 296 296 296 296 296 296 295 295 296 298 299 299 301 300 300 300 300 300 300 299 298 294 294 292 -193 293 294 295 296 298 299 298 297 297 297 295 295 294 292 292 293 293 293 292 295 293 294 293 293 294 293 294 -193 295 297 298 299 300 -193 300 299 297 295 295 294 294 294 294 294 294 297 297 297 298 297 297 297 298 297 293 294 294 293 294 293 293 294 293 294 294 294 295 -209 -193 295 295 298 297 296 296 296 297 298 298 295 295 0 0 0 0 0
    0 0 0 0 0 0 0 0 0 0 0 0 0 0 0 0 0 0 0 0 0 0 0 0 0 0 0 0 0 0 0 0 0 0 0 0 0 0 0 0 0 0 0 0 0 0 0 0 0 0 0 0 0 0 0 0 0 0 0 0 0 0 0 0 0 0 0 0 0 -209 -209 -209 -193 -209 -209 -209 -209 -209 310 309 310 310 311 308 305 -193 -209 -193 -193 213 213 -225 -209 -209 -209 -225 -225 -209 -209 -209 -193 -193 -193 -225 -225 -209 -209 -193 -209 -209 444 -193 -209 -209 -209 -209 -209 -209 -209 -209 -193 -193 301 300 -193 302 305 304 306 304 303 -193 300 300 300 300 300 299 299 300 299 302 -193 -193 -193 -193 -193 301 -209 -209 -209 -193 299 299 300 302 302 302 300 302 301 300 299 -193 298 -209 -193 300 299 -193 -193 -193 301 302 301 301 301 300 299 299 297 -209 -193 292 291 290 292 292 291 291 291 289 287 -193 -209 -209 -209 -177 -193 -193 -193 -209 -209 -193 297 298 299 299 299 297 297 297 297 297 297 296 296 297 299 300 300 301 301 301 301 301 300 300 299 298 294 294 293 294 293 294 295 -193 299 299 299 298 298 298 297 297 296 294 294 -193 294 294 293 294 293 294 293 293 294 293 294 296 296 298 299 299 301 300 300 299 297 296 295 294 294 294 294 294 294 296 297 297 297 296 297 297 297 297 292 294 294 293 294 293 293 294 293 294 294 294 295 -193 297 296 297 298 298 297 296 296 297 298 297 294 294 0 0 0 0 0
    0 0 0 0 0 0 0 0 0 0 0 0 0 0 0 0 0 0 0 0 0 0 0 0 0 0 0 0 0 0 0 0 0 0 0 0 0 0 0 0 0 0 0 0 0 0 0 0 0 0 0 0 0 0 0 0 0 0 0 0 0 0 0 0 0 0 0 0 0 -209 -209 -193 -209 -193 -193 -209 -209 -193 309 307 310 309 311 308 307 -193 305 304 303 -193 -193 299 -193 -193 -193 303 303 308 -193 -193 309 308 -193 310 -193 -193 -209 298 -193 300 -209 -209 -209 -209 -209 -193 -193 -193 -209 -209 -193 -193 301 300 301 302 304 304 305 303 302 301 300 300 299 299 299 299 299 300 299 301 301 301 300 301 301 302 300 -193 -193 299 300 300 300 302 302 302 300 300 300 -193 -193 -193 -193 -193 -193 298 298 298 299 300 300 302 301 301 301 301 300 300 299 -193 -193 294 293 292 293 293 292 291 291 289 288 291 292 -209 -209 -177 -177 -177 -193 -209 -209 296 297 298 298 299 299 297 297 297 297 297 297 296 296 297 299 299 300 301 300 301 301 301 300 300 299 298 296 295 294 295 294 295 296 298 300 300 299 298 297 298 297 296 295 294 294 -193 294 294 292 293 292 293 292 292 293 293 294 296 296 298 299 300 301 300 300 298 297 296 295 295 294 294 294 293 294 295 296 296 296 295 295 295 297 295 291 293 293 293 294 293 293 293 293 294 294 294 295 -193 297 296 297 299 298 297 296 296 297 297 296 294 294 0 0 0 0 0
    0 0 0 0 0 0 0 0 0 0 0 0 0 0 0 0 0 0 0 0 0 0 0 0 0 0 0 0 0 0 0 0 0 0 0 0 0 0 0 0 0 0 0 0 0 0 0 0 0 0 0 0 0 0 0 0 0 0 0 0 0 0 0 0 0 0 0 0 0 295 -193 298 -193 299 302 -193 302 303 307 306 308 307 310 307 305 305 305 303 304 303 302 300 302 302 303 303 304 306 306 306 307 306 310 309 309 307 301 301 302 302 -193 -209 -209 -209 -209 -193 301 299 299 -193 -193 300 301 301 301 302 304 303 304 302 301 300 300 299 299 299 299 299 299 300 299 300 301 301 301 301 301 302 301 301 299 300 301 301 300 302 301 301 299 299 299 -193 -193 -193 -193 296 -209 298 298 299 299 300 301 302 301 301 301 301 300 300 300 299 296 295 294 293 293 293 292 292 292 290 289 292 293 -209 -209 -193 -193 -193 -193 -209 -209 296 297 298 298 299 299 298 297 297 298 297 297 296 296 297 298 299 300 300 300 300 301 301 300 300 298 298 296 296 295 295 294 295 297 298 300 300 300 299 298 298 297 296 296 293 294 294 294 293 292 293 292 292 292 292 292 293 294 296 297 299 300 301 302 301 301 299 297 296 295 -193 294 294 293 292 293 294 295 294 294 294 294 294 295 294 292 293 293 293 293 293 293 293 293 294 294 294 295 -193 297 296 297 298 297 296 296 296 296 297 296 294 294 0 0 0 0 0
    0 0 0 0 0 0 0 0 0 0 0 0 0 0 0 0 0 0 0 0 0 0 0 0 0 0 0 0 0 0 0 0 0 0 0 0 0 0 0 0 0 0 0 0 0 0 0 0 0 0 0 0 0 0 0 0 0 0 0 0 0 0 0 0 0 0 0 0 0 294 296 298 -193 300 303 302 303 304 306 305 306 305 309 305 303 302 303 303 303 303 303 301 302 303 303 303 304 305 304 304 305 304 308 307 308 306 303 304 306 305 308 306 -193 -209 -193 302 301 299 300 -193 301 301 302 301 302 302 303 303 303 301 300 300 299 299 299 299 299 299 299 300 300 301 302 302 301 302 302 302 300 300 300 300 301 301 300 301 301 300 299 299 299 -193 -193 -193 296 296 -193 298 299 300 300 301 301 303 301 301 301 301 300 300 300 299 296 296 295 294 294 294 292 293 292 292 291 294 294 296 -193 -209 -193 -193 -193 297 297 297 297 298 298 299 299 298 298 297 298 297 297 296 297 297 298 299 300 300 299 299 301 300 299 299 297 297 296 296 295 295 295 295 297 299 300 300 300 299 298 299 298 297 296 294 295 294 294 293 293 293 292 292 292 292 292 293 294 296 297 299 300 301 303 302 301 299 298 296 295 295 294 294 293 292 293 292 294 293 292 293 293 294 294 294 292 293 293 292 292 292 292 292 292 293 294 294 295 -209 -193 295 296 297 296 295 295 295 296 296 296 294 294 0 0 0 0 0
    0 0 0 0 0 0 0 0 0 0 0 0 0 0 0 0 0 0 0 0 0 0 0 0 0 0 0 0 0 0 0 0 0 0 0 0 0 0 0 0 0 0 0 0 0 0 0 0 0 0 0 0 0 0 0 0 0 0 0 0 0 0 0 0 0 0 0 0 0 295 296 297 300 300 302 302 303 303 305 304 304 303 307 303 302 301 303 302 303 303 303 301 302 303 303 302 303 302 302 302 303 302 305 305 306 304 303 304 304 303 303 303 302 300 301 301 301 300 300 -193 301 301 302 302 302 302 302 302 302 300 300 299 299 299 299 299 299 299 299 301 300 301 303 303 302 303 302 302 300 300 300 300 301 300 300 300 301 301 300 299 299 297 297 297 297 297 298 298 299 301 301 301 302 303 301 301 301 301 300 300 300 299 297 297 296 296 295 295 294 294 293 293 293 295 295 297 -193 -193 296 296 297 298 298 297 298 298 299 299 299 299 298 298 298 297 297 297 297 296 297 299 300 300 299 299 300 300 300 299 297 298 297 296 295 295 295 296 297 299 300 299 300 300 299 300 299 298 298 296 296 295 295 294 293 293 292 292 292 292 292 292 294 295 297 298 299 301 302 301 301 297 296 295 294 294 293 293 292 292 293 292 293 293 292 293 293 294 293 294 292 292 292 292 292 292 292 292 292 293 294 293 294 -193 -193 294 295 295 295 293 294 294 296 297 296 294 294 0 0 0 0 0
    0 0 0 0 0 0 0 0 0 0 0 0 0 0 0 0 0 0 0 0 0 0 0 0 0 0 0 0 0 0 0 0 0 0 0 0 0 0 0 0 0 0 0 0 0 0 0 0 0 0 0 0 0 0 0 0 0 0 0 0 0 0 0 0 0 0 0 0 0 295 296 297 299 299 301 302 302 303 304 303 303 302 306 303 301 301 302 302 303 303 303 301 302 302 302 301 302 301 301 301 302 301 302 303 303 302 303 304 302 301 300 300 301 300 301 301 301 301 301 -193 303 302 303 303 302 301 302 301 301 299 299 299 299 299 299 300 299 300 300 302 301 301 303 303 302 303 302 302 300 301 300 300 301 301 300 301 301 301 301 300 299 298 298 298 298 298 298 298 299 301 301 301 301 303 301 301 301 301 300 300 300 299 297 298 297 297 296 296 295 295 295 295 295 296 296 297 -193 297 296 297 297 298 298 298 298 299 299 299 299 299 298 298 298 297 297 296 296 296 297 298 299 300 299 299 301 301 301 300 297 298 298 298 297 296 296 296 297 299 300 299 300 300 300 300 299 299 298 297 297 296 296 295 293 293 292 292 291 292 291 291 293 294 296 297 298 300 301 301 301 296 296 294 294 294 293 293 292 292 292 292 293 293 292 294 293 294 293 294 293 292 293 293 292 293 292 292 292 293 294 293 294 294 294 293 294 294 294 293 294 294 296 297 296 294 294 0 0 0 0 0
    0 0 0 0 0 0 0 0 0 0 0 0 0 0 0 0 0 0 0 0 0 0 0 0 0 0 0 0 0 0 0 0 0 0 0 0 0 0 0 0 0 0 0 0 0 0 0 0 0 0 0 0 0 0 0 0 0 0 0 0 0 0 0 0 0 0 0 0 0 296 297 297 299 299 301 302 302 304 303 303 302 302 305 302 301 301 302 302 303 303 303 301 302 303 302 301 302 301 301 301 301 300 301 301 302 300 302 304 303 301 301 301 302 301 302 302 302 302 302 303 304 303 303 303 302 301 301 301 300 299 298 298 299 299 299 299 299 300 300 302 301 301 303 303 302 303 303 303 301 302 301 301 302 302 301 301 302 302 301 301 300 298 298 298 299 298 299 299 299 301 301 300 301 302 301 301 301 301 300 300 300 300 298 298 297 298 297 297 296 297 296 297 297 297 297 298 297 297 297 297 298 298 298 298 299 299 299 299 299 299 298 298 298 297 297 297 297 296 296 298 299 299 298 298 300 302 301 301 298 299 299 298 298 297 297 297 298 300 300 300 301 300 300 300 299 299 298 297 297 296 296 295 293 292 292 292 291 291 291 291 292 294 296 297 298 300 300 301 301 297 296 295 294 295 294 293 293 293 293 292 293 293 292 294 293 294 292 294 293 292 292 292 292 293 292 292 292 293 294 293 293 294 293 293 293 293 294 292 294 294 -209 296 296 294 294 0 0 0 0 0
    0 0 0 0 0 0 0 0 0 0 0 0 0 0 0 0 0 0 0 0 0 0 0 0 0 0 0 0 0 0 0 0 0 0 0 0 0 0 0 0 0 0 0 0 0 0 0 0 0 0 0 0 0 0 0 0 0 0 0 0 0 0 0 0 0 0 0 0 0 298 299 298 300 300 302 302 303 304 303 302 302 302 305 302 301 301 303 302 303 303 303 301 302 303 303 301 302 301 301 301 301 300 300 301 301 301 304 306 306 304 304 303 304 303 303 303 303 302 303 303 304 304 304 304 302 302 302 302 300 299 298 299 299 299 298 299 299 300 300 301 300 300 303 303 302 303 303 303 301 302 302 302 303 302 301 302 302 302 301 301 300 299 299 299 299 299 299 299 299 301 301 300 301 302 300 301 300 301 300 300 300 300 298 299 298 299 298 298 297 298 297 298 298 298 298 298 298 298 297 298 298 298 298 298 298 299 299 299 299 298 298 298 298 297 297 297 297 295 296 297 298 298 297 298 299 300 301 300 297 298 299 299 299 297 298 298 299 300 300 300 301 300 300 300 299 299 299 297 298 296 297 296 294 293 292 292 291 292 292 291 293 295 297 297 298 299 300 301 301 297 296 295 295 295 294 294 294 294 294 293 294 293 292 293 293 293 291 293 292 291 291 291 292 293 292 292 292 293 294 293 294 293 292 292 293 292 293 292 293 293 -193 295 295 294 293 0 0 0 0 0
    0 0 0 0 0 0 0 0 0 0 0 0 0 0 0 0 0 0 0 0 0 0 0 0 0 0 0 0 0 0 0 0 0 0 0 0 0 0 0 0 0 0 0 0 0 0 0 0 0 0 0 0 0 0 0 0 0 0 0 0 0 0 0 0 0 0 0 0 0 298 299 299 300 300 302 303 304 305 303 302 302 302 305 303 301 302 303 303 303 304 303 301 303 303 302 301 302 300 301 301 301 300 301 301 302 301 304 305 305 303 304 302 303 302 302 302 303 302 303 303 303 303 304 304 302 301 302 302 300 299 298 299 300 299 298 299 298 299 300 301 300 300 302 303 302 303 303 302 301 300 300 301 301 301 301 301 302 302 301 301 300 299 299 299 299 299 299 300 300 301 300 300 301 302 300 301 300 301 300 301 301 300 298 299 298 299 298 298 297 298 297 298 298 299 299 299 299 299 298 299 299 299 299 298 298 299 298 299 299 298 298 298 298 297 296 297 296 295 295 297 297 297 296 298 299 300 300 300 298 298 299 299 299 298 299 299 299 301 301 300 300 299 300 299 299 299 298 297 297 296 297 296 295 294 293 293 293 293 293 293 294 295 297 297 297 298 299 299 300 296 296 295 295 295 294 294 294 294 294 293 294 293 292 293 293 292 290 291 291 291 291 291 291 293 293 293 293 293 294 294 294 294 292 292 292 292 293 292 292 293 -193 295 295 294 293 0 0 0 0 0
    0 0 0 0 0 0 0 0 0 0 0 0 0 0 0 0 0 0 0 0 0 0 0 0 0 0 0 0 0 0 0 0 0 0 0 0 0 0 0 0 0 0 0 0 0 0 0 0 0 0 0 0 0 0 0 0 0 0 0 0 0 0 0 0 0 0 0 0 0 298 299 298 300 300 303 303 304 304 303 302 301 301 303 302 301 301 303 302 303 304 303 302 303 304 303 301 303 300 301 300 301 300 301 301 302 301 305 305 305 304 305 -193 303 301 302 302 302 302 303 303 304 303 304 304 302 301 301 302 300 299 298 299 300 298 298 299 298 299 300 301 300 300 303 303 302 303 303 301 300 300 300 300 301 301 300 301 302 301 301 301 301 299 299 298 299 299 300 300 300 301 301 300 301 301 300 301 300 300 299 300 300 300 298 298 297 298 297 297 297 298 297 298 299 299 299 299 299 299 299 300 300 300 299 298 299 299 298 298 298 298 297 297 297 297 296 296 296 293 294 295 295 295 295 297 298 299 300 300 298 299 300 300 300 299 300 300 300 301 301 300 300 299 299 298 298 298 297 296 296 295 297 296 295 294 293 294 293 293 293 292 293 294 295 295 294 297 297 298 298 295 296 295 295 295 295 294 294 295 294 293 294 293 293 293 293 292 289 291 291 291 291 291 292 294 293 293 294 294 295 295 295 294 292 293 292 292 293 291 291 292 -193 295 295 294 293 0 0 0 0 0
    0 0 0 0 0 0 0 0 0 0 0 0 0 0 0 0 0 0 0 0 0 0 0 0 0 0 0 0 0 0 0 0 0 0 0 0 0 0 0 0 0 0 0 0 0 0 0 0 0 0 0 0 0 0 0 0 0 0 0 0 0 0 0 0 0 0 0 0 0 297 298 298 300 300 304 303 304 304 303 302 301 300 302 301 300 301 302 302 303 304 303 302 303 304 303 301 302 300 300 300 300 299 300 301 302 301 305 305 305 304 305 -193 303 301 302 302 302 302 303 304 304 304 304 305 302 301 301 302 300 299 298 299 300 298 298 299 298 299 301 301 301 300 303 304 302 303 303 301 300 299 299 299 299 300 300 300 301 301 301 302 301 300 299 299 300 299 300 301 300 301 301 300 301 301 301 300 300 300 299 300 299 299 297 297 297 297 297 297 297 298 297 298 299 299 299 299 299 299 299 300 300 300 300 299 299 299 299 299 299 298 297 297 297 297 295 296 295 293 294 295 295 295 294 296 296 298 299 299 298 299 299 300 300 300 300 300 300 300 300 300 300 299 299 298 297 298 297 296 296 296 297 297 296 295 294 294 294 293 294 292 293 293 294 294 293 296 296 296 296 295 296 295 295 295 295 295 295 296 294 293 294 293 293 293 293 292 288 291 291 291 292 292 292 295 294 294 294 295 295 295 296 294 292 292 291 291 291 290 290 290 -193 -193 295 -193 293 0 0 0 0 0
    0 0 0 0 0 0 0 0 0 0 0 0 0 0 0 0 0 0 0 0 0 0 0 0 0 0 0 0 0 0 0 0 0 0 0 0 0 0 0 0 0 0 0 0 0 0 0 0 0 0 0 0 0 0 0 0 0 0 0 0 0 0 0 0 0 0 0 0 0 298 299 298 300 300 304 303 304 305 303 302 301 300 302 301 300 301 303 302 303 304 304 302 303 304 303 300 302 299 300 299 300 299 300 300 301 301 304 304 304 303 303 301 302 300 300 301 301 302 302 303 303 303 304 304 302 302 301 303 300 299 299 300 300 299 299 299 299 300 301 301 301 300 303 304 302 302 302 299 299 298 298 298 299 299 299 299 301 301 301 302 301 300 300 300 300 299 301 301 300 301 301 300 301 301 301 300 299 300 299 299 299 299 297 297 296 297 296 297 297 298 297 298 299 298 298 299 299 299 299 300 300 300 300 299 299 300 299 299 299 298 297 297 297 297 295 295 295 293 294 295 295 295 295 297 297 298 299 300 298 298 299 299 300 299 300 300 299 300 300 300 300 298 298 297 297 298 297 297 296 297 298 298 297 296 296 296 294 294 294 293 293 293 294 294 293 294 294 294 295 294 295 295 295 296 296 296 296 296 294 294 294 293 293 293 292 291 286 289 289 290 291 291 292 295 295 295 295 295 295 295 295 293 291 290 288 288 288 288 288 289 -193 -193 -193 -193 -193 0 0 0 0 0
    0 0 0 0 0 0 0 0 0 0 0 0 0 0 0 0 0 0 0 0 0 0 0 0 0 0 0 0 0 0 0 0 0 0 0 0 0 0 0 0 0 0 0 0 0 0 0 0 0 0 0 0 0 0 0 0 0 0 0 0 0 0 0 0 0 0 0 0 0 299 299 299 299 300 304 302 304 305 303 302 301 300 303 301 301 302 303 302 303 304 304 302 303 304 303 300 302 300 300 300 300 299 300 300 302 301 305 304 304 303 304 301 302 300 300 300 301 302 302 303 303 302 302 303 301 302 301 303 300 300 299 301 301 299 299 299 299 300 302 301 301 300 303 304 302 302 301 298 298 297 297 298 298 299 299 299 301 301 301 302 301 300 299 299 301 299 300 301 300 301 300 300 301 300 300 300 299 299 298 298 298 298 297 296 296 297 296 296 297 298 297 298 298 298 298 298 298 299 298 300 300 300 300 300 300 300 299 300 299 298 297 297 297 296 294 294 294 293 294 294 294 294 295 297 297 298 299 299 298 298 298 299 299 300 300 300 299 300 300 300 300 299 298 297 297 297 297 296 296 296 297 298 297 296 296 296 295 295 294 294 293 294 293 294 293 293 293 293 294 294 295 295 295 296 296 297 296 297 295 294 294 293 293 292 292 291 285 287 286 287 290 291 292 296 296 296 295 295 295 294 294 292 289 288 286 286 287 288 287 290 -193 -209 -193 -193 -193 0 0 0 0 0
    0 0 0 0 0 0 0 0 0 0 0 0 0 0 0 0 0 0 0 0 0 0 0 0 0 0 0 0 0 0 0 0 0 0 0 0 0 0 0 0 0 0 0 0 0 0 0 0 0 0 0 0 0 0 0 0 0 0 0 0 0 0 0 0 0 0 0 0 0 299 300 299 300 300 304 301 303 304 302 302 301 301 303 302 301 302 304 303 304 304 304 302 303 304 303 300 302 300 301 301 301 300 302 301 303 302 306 305 306 304 306 301 303 301 301 301 301 301 302 302 302 302 302 303 301 302 302 304 300 300 299 301 301 299 299 299 299 299 301 300 300 300 303 303 301 301 301 298 298 297 297 298 298 299 299 299 301 301 301 302 301 300 299 299 300 299 300 300 300 300 300 300 300 300 300 299 298 298 298 298 298 298 297 296 296 297 296 296 297 297 296 297 297 297 297 298 298 298 298 300 300 300 300 299 299 300 299 299 299 297 297 297 297 296 294 294 294 292 293 294 294 294 295 298 297 297 298 299 298 298 298 298 299 299 300 300 299 300 300 301 300 299 298 297 297 296 296 295 295 295 296 297 296 295 296 295 295 295 295 295 294 295 294 294 293 293 293 293 294 294 295 295 295 296 297 297 297 298 295 295 295 294 293 292 292 291 285 286 285 286 290 290 292 296 298 297 295 296 296 296 296 294 291 288 288 287 292 293 290 292 -193 -209 -209 -193 292 0 0 0 0 0
    0 0 0 0 0 0 0 0 0 0 0 0 0 0 0 0 0 0 0 0 0 0 0 0 0 0 0 0 0 0 0 0 0 0 0 0 0 0 0 0 0 0 0 0 0 0 0 0 0 0 0 0 0 0 0 0 0 0 0 0 0 0 0 0 0 0 0 0 0 299 300 299 300 300 304 301 303 303 302 302 301 301 303 302 302 303 304 303 304 304 304 302 303 304 303 300 303 302 303 304 303 300 304 302 305 303 306 306 307 305 307 303 304 301 302 302 301 301 301 301 302 301 301 302 301 302 302 305 301 301 300 302 301 299 298 299 298 299 300 300 300 299 301 301 300 299 299 297 297 296 296 298 297 298 298 299 301 300 301 301 300 299 299 298 299 298 300 300 299 300 300 300 300 300 300 299 298 298 298 298 298 298 297 296 296 297 296 296 297 297 296 297 296 296 297 297 298 298 298 299 300 301 300 299 299 300 300 300 299 298 297 297 297 296 294 293 294 293 293 294 294 295 296 299 298 297 298 298 298 298 298 298 299 299 300 300 300 300 300 300 300 299 298 297 296 294 294 293 294 294 295 295 295 295 296 296 296 295 295 295 294 295 294 294 293 293 293 293 294 294 295 295 295 296 298 298 297 298 296 295 295 294 293 293 292 291 285 287 286 287 290 290 292 296 298 296 295 296 296 297 297 295 293 291 294 294 296 299 292 -193 -193 -193 -209 -193 291 0 0 0 0 0
    0 0 0 0 0 0 0 0 0 0 0 0 0 0 0 0 0 0 0 0 0 0 0 0 0 0 0 0 0 0 0 0 0 0 0 0 0 0 0 0 0 0 0 0 0 0 0 0 0 0 0 0 0 0 0 0 0 0 0 0 0 0 0 0 0 0 0 0 0 300 301 299 300 300 304 301 302 303 302 302 302 301 303 302 302 303 304 303 304 304 304 302 303 304 303 300 302 302 303 304 304 301 305 303 307 304 305 305 305 304 307 304 305 301 302 304 301 301 301 301 301 301 301 302 301 302 302 304 301 301 300 301 301 298 298 299 298 299 300 300 300 299 301 300 299 298 297 295 296 295 295 297 297 298 298 299 301 300 300 300 299 298 298 297 298 297 299 299 299 300 300 300 301 300 301 300 299 298 298 298 298 298 296 295 295 296 295 296 297 297 296 297 296 296 297 297 298 298 298 299 299 301 299 299 299 300 300 300 299 298 297 298 297 297 295 294 295 294 294 295 295 296 297 299 299 297 298 298 298 298 298 298 298 299 300 300 300 300 300 300 300 299 298 297 296 294 294 293 294 295 295 295 295 295 296 296 296 295 295 295 294 294 293 294 293 293 293 293 294 294 294 295 295 296 298 298 298 298 295 295 295 294 293 292 292 291 286 288 287 288 291 290 292 296 297 296 295 296 296 296 297 295 293 290 294 -193 -193 298 291 291 -193 -193 -193 293 291 0 0 0 0 0
    0 0 0 0 0 0 0 0 0 0 0 0 0 0 0 0 0 0 0 0 0 0 0 0 0 0 0 0 0 0 0 0 0 0 0 0 0 0 0 0 0 0 0 0 0 0 0 0 0 0 0 0 0 0 0 0 0 0 0 0 0 0 0 0 0 0 0 0 0 300 301 299 300 300 305 301 303 303 302 303 302 302 303 302 302 303 304 303 303 304 304 302 303 303 303 300 302 302 303 304 304 300 304 302 305 302 302 302 303 302 305 302 301 299 301 304 300 301 301 301 301 300 301 301 300 301 300 302 299 299 299 300 300 298 298 298 298 299 300 299 299 299 301 300 299 298 297 294 -193 294 295 296 296 297 298 299 300 299 300 300 298 -193 -193 296 297 297 298 298 298 299 300 301 301 301 302 301 300 299 298 298 297 297 296 294 294 294 294 295 296 296 296 296 296 296 297 297 298 298 298 299 300 301 300 300 300 301 300 301 299 299 298 298 298 297 296 296 295 295 295 296 297 297 297 299 298 297 298 298 298 297 298 298 298 299 300 300 299 299 300 300 300 299 298 297 296 294 294 294 294 295 295 295 295 295 296 297 296 295 295 295 294 294 293 293 293 292 293 293 293 293 294 294 293 295 297 297 297 298 295 295 294 294 293 292 292 291 286 290 289 290 292 291 293 295 296 295 294 295 296 296 297 295 293 287 293 -209 -209 -193 291 291 -193 -193 295 293 292 0 0 0 0 0
    0 0 0 0 0 0 0 0 0 0 0 0 0 0 0 0 0 0 0 0 0 0 0 0 0 0 0 0 0 0 0 0 0 0 0 0 0 0 0 0 0 0 0 0 0 0 0 0 0 0 0 0 0 0 0 0 0 0 0 0 0 0 0 0 0 0 0 0 0 300 301 300 300 301 305 301 303 304 302 303 302 302 303 302 302 302 303 303 303 304 304 303 304 303 303 301 303 303 304 305 305 301 304 303 304 301 300 301 301 301 303 300 299 298 299 305 300 302 301 301 301 301 301 301 300 301 299 300 298 298 298 298 299 298 297 298 298 299 299 299 299 298 301 300 299 298 298 296 296 296 295 296 296 297 298 299 300 299 300 300 -193 -209 -209 -209 297 296 297 297 297 299 300 301 301 301 303 301 301 300 299 298 298 298 296 293 294 294 294 294 295 296 296 296 296 296 296 297 297 -193 298 299 299 301 300 301 301 302 301 302 300 299 298 298 298 298 296 296 296 296 296 297 297 297 297 298 298 297 298 298 298 297 298 298 298 298 299 299 299 299 300 300 299 299 298 296 295 294 294 294 294 295 295 295 295 295 297 297 297 296 295 296 294 295 294 294 294 293 293 293 293 293 293 293 293 294 297 297 297 298 295 295 294 294 293 292 292 291 286 292 291 292 293 292 293 294 296 294 294 294 296 296 297 295 293 289 -193 -209 -209 -193 292 292 -193 -193 295 293 292 0 0 0 0 0
    0 0 0 0 0 0 0 0 0 0 0 0 0 0 0 0 0 0 0 0 0 0 0 0 0 0 0 0 0 0 0 0 0 0 0 0 0 0 0 0 0 0 0 0 0 0 0 0 0 0 0 0 0 0 0 0 0 0 0 0 0 0 0 0 0 0 0 0 0 300 302 300 300 301 303 299 302 302 301 303 301 301 302 301 302 302 303 303 303 304 304 303 304 303 304 301 304 303 305 305 306 303 304 303 304 302 300 301 300 300 301 300 299 298 299 304 300 302 301 302 302 301 301 301 300 301 299 300 297 297 297 298 299 298 297 298 298 299 299 299 299 298 300 300 299 298 297 296 297 297 296 297 297 298 299 299 300 299 300 300 298 298 -209 296 -193 295 296 295 295 297 298 299 299 301 304 301 301 300 299 299 298 298 296 293 294 293 293 293 295 295 296 296 296 296 296 296 297 -193 298 298 299 301 300 301 301 303 302 303 301 300 299 299 299 298 297 297 296 296 296 297 298 297 298 299 299 298 298 -193 298 297 297 297 297 298 299 298 298 298 299 299 299 299 298 297 296 294 294 293 294 295 295 295 295 295 296 297 297 296 295 296 295 296 295 295 294 293 294 293 293 293 293 293 293 294 298 297 297 298 295 295 294 294 293 291 292 291 286 292 293 292 293 293 294 294 296 295 294 294 297 296 296 296 295 293 297 304 299 -193 295 294 -193 -193 296 294 292 0 0 0 0 0
    0 0 0 0 0 0 0 0 0 0 0 0 0 0 0 0 0 0 0 0 0 0 0 0 0 0 0 0 0 0 0 0 0 0 0 0 0 0 0 0 0 0 0 0 0 0 0 0 0 0 0 0 0 0 0 0 0 0 0 0 0 0 0 0 0 0 0 0 0 301 302 300 300 301 302 299 302 -193 302 303 301 302 302 301 302 301 302 302 302 303 303 303 304 303 304 302 304 303 305 305 306 303 303 303 304 303 301 302 301 301 301 301 300 299 300 304 300 302 302 301 302 301 301 301 300 301 299 299 -193 297 297 298 299 298 297 298 298 299 299 299 299 298 299 299 298 297 297 296 297 297 297 298 297 298 299 299 300 300 300 300 298 297 -193 -193 -193 295 295 294 294 295 296 298 298 301 304 302 302 301 300 300 299 299 297 293 293 292 292 293 294 295 295 295 295 296 296 296 297 -193 297 298 299 300 299 301 301 303 302 304 301 301 300 300 299 299 297 297 296 296 296 297 298 298 298 299 299 298 299 -193 297 297 -193 297 297 297 298 297 298 298 299 299 299 299 298 297 296 295 294 293 294 295 295 295 295 295 296 297 297 296 295 296 295 296 295 295 294 293 294 293 293 293 293 293 293 294 298 297 297 298 294 294 294 293 293 291 292 291 287 293 294 293 294 294 294 294 296 295 294 294 297 296 296 296 296 295 298 301 301 295 295 294 295 -193 296 294 292 0 0 0 0 0
    0 0 0 0 0 0 0 0 0 0 0 0 0 0 0 0 0 0 0 0 0 0 0 0 0 0 0 0 0 0 0 0 0 0 0 0 0 0 0 0 0 0 0 0 0 0 0 0 0 0 0 0 0 0 0 0 0 0 0 0 0 0 0 0 0 0 0 0 0 301 302 300 300 301 301 299 302 302 302 303 302 302 301 301 302 301 302 301 301 302 302 303 303 302 303 301 305 304 305 306 307 303 304 304 304 303 302 303 302 302 303 302 301 300 301 304 300 302 301 301 302 301 301 301 299 300 298 298 296 296 297 297 299 298 297 298 298 299 299 299 298 297 299 299 298 297 297 297 297 298 297 298 297 299 300 300 300 300 301 301 299 298 -193 -193 296 295 295 294 294 294 295 297 298 301 303 302 302 302 301 302 301 300 298 295 294 293 293 293 294 294 295 295 295 296 297 297 297 -209 297 298 299 300 299 301 301 303 302 304 301 301 300 300 300 299 298 298 296 296 296 297 298 298 298 299 299 298 298 298 297 297 297 297 296 297 297 297 298 298 300 299 299 299 299 297 -193 -193 -193 293 294 295 295 295 295 295 297 297 297 297 296 297 295 296 296 295 295 293 294 294 293 294 294 293 293 294 299 297 297 298 294 294 294 294 293 291 292 292 288 295 295 294 295 295 295 294 297 295 294 294 297 297 297 296 297 297 299 301 303 298 299 297 -193 -193 296 295 292 0 0 0 0 0
    0 0 0 0 0 0 0 0 0 0 0 0 0 0 0 0 0 0 0 0 0 0 0 0 0 0 0 0 0 0 0 0 0 0 0 0 0 0 0 0 0 0 0 0 0 0 0 0 0 0 0 0 0 0 0 0 0 0 0 0 0 0 0 0 0 0 0 0 0 300 302 300 300 301 301 299 301 302 302 302 301 302 301 301 302 301 301 300 301 302 302 302 303 302 303 301 304 303 305 306 307 303 303 304 303 303 302 302 302 302 303 302 301 301 302 304 300 302 301 302 302 302 302 302 300 301 298 298 296 296 297 297 299 298 298 298 298 299 299 299 298 297 298 298 298 298 297 297 298 298 298 298 298 300 300 300 301 300 301 301 300 299 297 296 297 296 296 295 295 295 296 297 299 301 303 302 303 303 302 303 301 301 298 296 295 294 295 294 294 294 295 295 295 297 297 297 297 -193 298 299 299 300 299 301 301 304 302 304 302 301 300 300 300 300 298 298 296 296 296 297 297 298 298 298 299 298 299 298 298 298 297 297 297 297 298 298 299 299 299 299 299 299 299 297 -193 -193 -193 -193 -193 -193 -193 -209 -209 -193 297 298 297 297 296 297 296 297 297 296 295 294 295 295 294 295 295 294 294 295 299 297 297 298 294 294 294 294 294 292 293 292 290 296 296 294 295 295 295 294 297 295 294 294 297 296 296 296 297 296 297 300 302 298 300 299 296 296 297 294 292 0 0 0 0 0
    0 0 0 0 0 0 0 0 0 0 0 0 0 0 0 0 0 0 0 0 0 0 0 0 0 0 0 0 0 0 0 0 0 0 0 0 0 0 0 0 0 0 0 0 0 0 0 0 0 0 0 0 0 0 0 0 0 0 0 0 0 0 0 0 0 0 0 0 0 300 302 299 299 300 300 299 300 302 302 302 301 301 301 301 302 302 301 301 301 303 303 303 304 302 303 301 304 303 304 305 306 302 303 303 302 302 301 302 301 302 303 302 302 301 301 303 300 303 301 301 302 302 302 302 300 301 298 298 297 297 297 298 300 298 298 299 299 300 300 299 298 297 298 299 298 298 297 298 298 299 298 299 299 301 301 300 300 300 301 301 300 299 298 297 297 297 297 296 296 296 296 298 299 301 302 302 303 303 302 303 301 301 298 296 295 295 295 294 294 295 295 295 296 297 298 298 298 -193 299 299 300 301 300 302 302 305 303 306 302 301 301 301 300 300 299 299 297 296 297 296 296 297 297 298 299 298 299 298 298 298 298 298 297 297 298 299 299 300 299 299 299 299 299 298 -193 0 -193 -193 -193 -193 -193 -209 -209 297 298 298 298 298 297 297 297 297 297 -193 295 294 295 295 294 295 294 294 294 294 -193 297 297 297 294 294 294 294 294 292 293 293 291 297 298 295 295 295 296 295 297 295 294 294 297 296 296 296 296 295 296 298 298 296 299 299 297 296 297 295 293 0 0 0 0 0
    0 0 0 0 0 0 0 0 0 0 0 0 0 0 0 0 0 0 0 0 0 0 0 0 0 0 0 0 0 0 0 0 0 0 0 0 0 0 0 0 0 0 0 0 0 0 0 0 0 0 0 0 0 0 0 0 0 0 0 0 0 0 0 0 0 0 0 0 0 300 302 299 300 301 301 300 301 302 302 302 301 301 301 300 302 302 301 301 302 303 303 303 304 302 302 301 303 301 302 302 305 302 302 303 302 302 302 302 302 302 303 301 302 301 301 302 300 302 301 301 303 302 302 303 300 301 297 298 297 297 298 298 299 299 298 299 299 300 300 299 299 298 299 299 299 299 298 299 299 300 299 299 300 301 301 299 -193 300 -193 301 301 300 299 298 299 298 298 296 296 296 296 297 298 300 301 301 303 304 302 304 301 301 298 297 296 295 295 295 294 295 295 296 296 298 299 299 299 299 299 300 300 301 300 302 303 306 303 306 303 302 301 301 300 300 299 299 297 296 296 295 295 296 296 297 297 298 298 298 298 298 298 298 298 297 298 299 299 300 300 300 300 300 300 299 -193 -193 -193 -193 -209 -193 298 298 298 297 298 298 298 298 297 298 297 298 299 -193 295 294 294 293 294 293 293 292 292 293 -209 296 297 297 295 294 294 294 294 292 293 293 292 297 299 296 296 296 297 296 298 297 295 295 297 296 296 295 295 294 296 297 296 295 299 300 299 297 298 296 294 0 0 0 0 0
    0 0 0 0 0 0 0 0 0 0 0 0 0 0 0 0 0 0 0 0 0 0 0 0 0 0 0 0 0 0 0 0 0 0 0 0 0 0 0 0 0 0 0 0 0 0 0 0 0 0 0 0 0 0 0 0 0 0 0 0 0 0 0 0 0 0 0 0 0 299 302 299 300 301 302 300 301 302 302 301 300 300 300 300 302 301 301 301 301 303 303 303 303 301 301 300 301 300 302 301 305 302 303 303 303 303 303 303 302 302 303 301 302 301 301 302 300 302 301 302 303 302 303 304 301 302 297 298 298 297 298 298 299 299 298 299 299 300 300 299 298 298 299 300 300 300 299 300 300 301 300 300 300 301 302 298 -193 -193 -193 303 303 302 301 299 301 300 299 297 297 297 297 297 298 299 300 300 302 303 302 303 301 301 299 297 296 295 295 295 294 295 294 296 297 298 299 299 299 300 300 300 301 301 301 304 303 306 304 306 303 302 301 301 300 300 299 299 295 294 294 293 294 296 296 296 297 297 298 298 -193 298 298 298 298 297 298 299 299 300 300 300 300 300 300 299 298 -193 -193 -193 297 298 298 299 299 298 299 298 298 298 297 299 298 299 300 -193 296 295 294 293 293 293 293 292 292 292 -209 -209 297 297 295 294 295 295 295 293 294 293 292 296 300 297 297 298 299 298 299 297 296 296 297 297 296 295 295 295 297 298 297 296 300 301 300 299 299 296 295 0 0 0 0 0
    0 0 0 0 0 0 0 0 0 0 0 0 0 0 0 0 0 0 0 0 0 0 0 0 0 0 0 0 0 0 0 0 0 0 0 0 0 0 0 0 0 0 0 0 0 0 0 0 0 0 0 0 0 0 0 0 0 0 0 0 0 0 0 0 0 0 0 0 0 299 302 299 300 300 300 300 300 301 302 301 300 300 300 300 302 302 301 301 301 303 303 303 303 301 300 300 301 300 301 300 305 302 303 303 303 303 303 303 303 302 303 301 302 302 302 302 301 303 302 302 304 303 304 305 302 304 299 300 299 298 298 298 300 299 298 299 299 299 300 299 298 298 299 300 300 300 300 300 300 302 301 301 301 302 303 298 300 301 -193 302 303 303 302 301 303 301 301 298 298 297 297 297 298 298 300 299 301 301 301 303 300 300 299 298 296 296 296 295 294 295 294 295 296 298 298 299 299 300 300 300 300 301 301 304 303 306 304 306 302 301 301 300 299 299 298 298 294 293 293 292 294 296 296 296 297 297 298 298 -193 298 298 298 298 298 299 299 300 301 300 300 300 300 300 299 298 -193 298 298 298 299 299 299 299 299 299 298 297 298 297 299 298 299 299 -193 296 -193 295 294 294 293 294 293 293 294 -193 298 298 298 296 295 295 296 296 294 294 294 293 297 302 299 299 299 299 298 299 296 295 296 297 296 295 295 295 294 297 299 297 296 299 300 299 299 299 296 295 0 0 0 0 0
    0 0 0 0 0 0 0 0 0 0 0 0 0 0 0 0 0 0 0 0 0 0 0 0 0 0 0 0 0 0 0 0 0 0 0 0 0 0 0 0 0 0 0 0 0 0 0 0 0 0 0 0 0 0 0 0 0 0 0 0 0 0 0 0 0 0 0 0 0 299 302 298 300 299 -193 -193 -193 301 302 300 300 300 300 300 302 303 302 301 302 303 303 303 303 301 300 300 300 300 300 300 303 301 302 303 302 303 303 304 303 302 304 302 303 303 302 303 301 303 302 302 304 303 304 305 304 306 300 301 300 298 299 299 300 299 299 299 299 299 300 299 298 298 299 300 300 300 300 300 300 301 301 302 301 302 301 298 300 300 300 301 302 302 301 301 303 302 302 299 298 297 297 297 299 298 299 299 300 300 300 302 299 299 298 298 297 296 296 296 295 295 294 296 297 298 299 299 299 300 300 300 300 301 301 303 302 305 303 305 302 301 300 299 298 299 298 297 294 293 293 291 294 296 297 296 297 297 298 297 -193 -193 298 298 298 298 299 300 300 301 300 299 299 299 300 299 299 299 298 299 299 300 300 299 299 298 298 298 295 296 294 296 296 296 296 295 295 296 294 294 294 294 294 294 294 -193 -209 299 298 298 297 296 296 297 296 295 295 295 295 297 301 299 298 298 298 297 298 295 294 295 295 295 294 293 294 293 296 297 296 297 298 299 298 299 299 297 296 0 0 0 0 0
    0 0 0 0 0 0 0 0 0 0 0 0 0 0 0 0 0 0 0 0 0 0 0 0 0 0 0 0 0 0 0 0 0 0 0 0 0 0 0 0 0 0 0 0 0 0 0 0 0 0 0 0 0 0 0 0 0 0 0 0 0 0 0 0 0 0 0 0 0 299 302 299 301 300 301 301 300 301 302 301 300 300 301 300 302 304 302 302 302 304 303 303 303 301 299 299 298 299 299 299 301 300 302 302 302 302 303 305 304 304 306 303 304 303 303 303 302 303 302 303 305 303 305 306 305 307 301 302 301 299 299 299 300 299 298 299 299 299 300 299 299 299 299 301 301 301 300 300 300 301 301 302 301 302 301 299 300 301 301 301 302 302 303 303 306 305 305 302 302 300 299 299 300 299 299 299 300 299 299 300 298 299 298 299 297 297 297 296 295 295 294 296 297 299 300 300 -193 301 301 301 301 301 301 302 302 303 302 304 301 300 300 299 298 298 297 297 293 292 292 288 294 296 296 296 296 296 297 297 -193 -193 298 298 298 299 300 301 301 301 300 299 298 299 300 299 299 299 298 299 299 300 301 300 299 299 299 298 296 297 294 294 295 294 294 294 294 296 294 293 294 294 295 295 295 296 -193 299 299 299 298 296 297 297 297 297 296 295 295 297 299 298 298 298 297 296 297 295 294 294 294 293 292 292 291 291 293 295 294 295 297 298 297 298 299 298 297 0 0 0 0 0
    0 0 0 0 0 0 0 0 0 0 0 0 0 0 0 0 0 0 0 0 0 0 0 0 0 0 0 0 0 0 0 0 0 0 0 0 0 0 0 0 0 0 0 0 0 0 0 0 0 0 0 0 0 0 0 0 0 0 0 0 0 0 0 0 0 0 0 0 0 299 301 299 301 301 303 301 301 302 302 301 301 301 301 301 303 305 303 303 303 304 303 304 303 301 299 299 298 298 298 298 300 299 301 301 301 302 303 305 305 304 307 303 304 304 303 304 302 304 303 303 305 304 305 306 305 307 302 303 301 299 300 299 300 299 298 299 299 299 300 299 299 299 300 301 301 301 301 301 301 302 301 302 301 302 301 300 301 301 300 301 301 303 304 305 307 307 308 306 306 305 303 301 302 299 298 298 299 298 298 299 298 299 298 299 298 298 298 298 296 296 295 297 297 299 300 300 300 301 301 301 301 302 301 302 302 302 301 303 301 300 299 298 297 297 297 297 292 292 292 286 294 296 296 296 296 297 297 297 299 299 299 299 299 299 301 301 301 301 300 299 298 299 299 299 299 299 299 300 300 301 302 301 300 299 299 299 297 298 295 294 296 295 293 294 294 294 293 292 295 294 295 295 295 297 297 299 299 299 299 297 297 298 298 298 297 296 296 296 298 298 299 298 297 296 297 295 293 293 293 291 290 290 288 288 289 292 292 294 297 298 297 298 299 298 299 0 0 0 0 0
    0 0 0 0 0 0 0 0 0 0 0 0 0 0 0 0 0 0 0 0 0 0 0 0 0 0 0 0 0 0 0 0 0 0 0 0 0 0 0 0 0 0 0 0 0 0 0 0 0 0 0 0 0 0 0 0 0 0 0 0 0 0 0 0 0 0 0 0 0 299 301 299 301 301 302 301 300 301 301 301 300 301 301 301 303 305 303 304 303 305 304 305 304 302 299 299 298 297 297 297 299 298 300 300 300 301 302 304 304 304 306 303 305 304 304 305 303 304 303 303 305 304 305 306 305 305 301 301 300 298 299 299 299 299 298 298 298 299 300 299 299 299 300 301 302 301 301 300 301 301 300 302 301 301 301 299 300 300 300 300 301 303 303 305 306 306 309 307 308 307 306 304 304 301 299 298 298 297 297 298 297 298 298 299 298 298 298 298 297 297 295 297 297 299 299 300 300 301 302 301 301 302 302 302 302 302 301 303 301 300 299 298 298 297 298 297 293 294 293 289 295 297 298 297 296 297 297 297 299 299 299 300 299 300 302 301 301 301 300 299 298 299 299 299 299 299 299 299 299 301 302 300 299 298 298 298 297 298 295 295 297 297 296 296 296 -193 -193 293 295 294 294 295 296 297 296 298 299 299 299 298 298 298 298 298 297 297 296 297 299 300 301 300 298 298 298 296 294 294 293 291 290 290 288 287 289 292 293 294 296 296 295 297 298 297 299 0 0 0 0 0
    0 0 0 0 0 0 0 0 0 0 0 0 0 0 0 0 0 0 0 0 0 0 0 0 0 0 0 0 0 0 0 0 0 0 0 0 0 0 0 0 0 0 0 0 0 0 0 0 0 0 0 0 0 0 0 0 0 0 0 0 0 0 0 0 0 0 0 0 0 299 302 299 301 301 302 300 300 301 301 301 300 301 301 301 303 305 304 305 304 306 305 306 304 302 300 299 298 297 297 297 298 298 299 299 300 301 301 304 304 303 305 303 304 304 304 305 303 304 304 304 305 304 305 306 304 304 300 300 300 298 298 298 298 298 298 298 298 298 299 298 298 299 299 301 301 301 301 300 301 302 300 302 301 301 301 299 300 299 299 300 300 302 302 304 306 307 310 308 309 308 307 307 307 306 301 299 299 297 297 298 296 298 298 298 297 297 298 298 297 296 295 296 295 298 298 299 299 300 302 301 301 303 302 302 302 301 300 302 300 300 299 298 298 297 298 298 293 295 294 291 296 299 299 298 297 297 298 297 298 298 299 300 299 300 302 300 301 302 302 300 298 299 300 300 300 299 299 299 299 301 301 300 299 298 298 297 298 -209 -193 296 297 298 -209 -209 -209 -209 -209 -193 295 293 293 295 296 297 296 297 298 299 300 298 298 298 298 298 298 297 297 297 299 303 304 303 301 300 300 299 296 296 294 293 293 292 291 290 293 296 296 296 297 296 295 297 298 297 298 0 0 0 0 0
    0 0 0 0 0 0 0 0 0 0 0 0 0 0 0 0 0 0 0 0 0 0 0 0 0 0 0 0 0 0 0 0 0 0 0 0 0 0 0 0 0 0 0 0 0 0 0 0 0 0 0 0 0 0 0 0 0 0 0 0 0 0 0 0 0 0 0 0 0 300 303 299 301 302 302 300 300 302 301 302 301 302 301 301 303 305 303 304 303 306 304 306 304 302 300 300 298 296 296 296 297 297 299 299 300 301 301 304 304 303 304 303 304 304 304 306 304 305 306 305 307 306 306 307 305 304 301 300 299 298 298 298 298 298 298 298 297 298 299 298 298 299 299 300 301 301 300 300 300 301 299 301 300 300 300 299 300 299 299 300 299 302 300 303 305 306 309 307 308 307 305 307 306 307 302 300 300 298 298 299 297 298 298 299 297 297 298 299 297 296 295 296 296 298 299 299 300 300 303 302 302 304 302 302 302 300 300 301 300 299 299 298 297 297 298 298 294 295 294 -193 -193 299 302 302 298 299 299 297 299 298 299 300 300 301 303 301 302 303 305 302 298 299 300 300 300 299 299 298 299 300 301 300 299 298 298 -193 298 -193 -209 -209 298 300 300 -209 -209 -209 -209 -209 -209 294 294 -193 297 298 296 298 298 300 300 298 298 298 298 299 298 298 296 297 299 305 306 306 304 302 303 302 298 298 -193 294 293 293 292 291 295 298 300 298 300 300 298 298 298 298 299 0 0 0 0 0
    0 0 0 0 0 0 0 0 0 0 0 0 0 0 0 0 0 0 0 0 0 0 0 0 0 0 0 0 0 0 0 0 0 0 0 0 0 0 0 0 0 0 0 0 0 0 0 0 0 0 0 0 0 0 0 0 0 0 0 0 0 0 0 0 0 0 0 0 0 301 304 300 301 302 302 301 300 303 302 303 301 302 301 301 302 304 302 303 302 304 304 306 305 303 301 301 300 297 297 296 297 296 298 299 299 300 301 304 304 303 304 304 304 304 304 306 305 306 307 306 308 307 307 307 305 305 302 301 300 298 299 299 299 299 298 298 298 299 299 299 299 299 299 301 301 301 300 300 300 301 299 301 299 300 299 299 300 300 299 300 299 302 300 303 306 307 309 309 309 308 306 309 308 308 305 302 302 300 300 301 298 299 299 300 298 298 300 300 298 297 295 296 297 299 300 300 300 301 304 303 303 304 303 302 302 301 300 301 300 299 299 298 298 297 298 298 295 297 -193 -193 -209 -209 -193 308 303 302 304 300 -193 -193 301 302 302 303 306 304 304 304 308 303 297 299 299 299 299 299 298 298 299 300 301 -209 -193 -209 -209 -209 -209 -209 -209 -209 -209 -209 -209 -209 -209 -209 -193 -209 -209 -209 -209 -209 299 299 297 298 298 300 301 298 298 298 298 299 298 298 296 297 298 306 306 306 304 302 303 302 299 299 -209 295 294 294 292 290 294 298 300 298 301 301 298 298 298 299 299 0 0 0 0 0
    0 0 0 0 0 0 0 0 0 0 0 0 0 0 0 0 0 0 0 0 0 0 0 0 0 0 0 0 0 0 0 0 0 0 0 0 0 0 0 0 0 0 0 0 0 0 0 0 0 0 0 0 0 0 0 0 0 0 0 0 0 0 0 0 0 0 0 0 0 301 303 300 300 301 300 300 299 302 301 303 302 302 301 302 303 305 303 303 303 305 305 307 305 303 301 301 300 298 297 296 297 296 298 298 299 -193 301 305 305 304 305 304 304 305 304 307 305 307 308 307 308 307 307 306 304 304 302 301 300 299 300 299 301 300 299 299 299 300 300 300 300 300 300 302 302 302 301 301 300 301 300 301 299 300 299 299 300 300 299 301 300 302 300 304 307 307 309 310 310 309 307 310 308 308 306 304 303 301 301 302 299 301 300 301 299 299 300 300 298 297 295 296 298 301 301 302 302 303 305 304 304 305 304 303 303 301 300 301 300 300 299 298 298 297 298 299 297 298 -193 -209 -209 -209 -209 -209 -209 308 -209 -209 -209 -209 305 306 306 307 -193 -209 306 305 309 304 296 298 299 299 299 299 298 298 298 300 301 -209 -209 -209 -209 -209 -209 -209 -209 -209 -209 -209 -209 -209 -209 -209 -177 -193 -209 -209 -209 -209 -193 300 298 297 298 300 301 298 297 298 298 298 298 297 295 296 297 305 304 304 302 302 302 302 300 -193 -209 -209 -193 -193 293 291 -209 -209 -193 298 302 304 -209 298 299 300 300 0 0 0 0 0
    0 0 0 0 0 0 0 0 0 0 0 0 0 0 0 0 0 0 0 0 0 0 0 0 0 0 0 0 0 0 0 0 0 0 0 0 0 0 0 0 0 0 0 0 0 0 0 0 0 0 0 0 0 0 0 0 0 0 0 0 0 0 0 0 0 0 0 0 0 300 302 299 301 301 300 300 300 304 302 303 302 302 302 302 303 305 303 304 304 305 305 306 305 303 301 301 300 298 297 296 297 296 298 299 300 -193 303 307 306 306 307 306 305 305 305 308 306 308 308 307 308 308 307 306 304 305 303 302 302 301 302 301 302 302 300 300 299 300 300 301 301 301 301 303 303 303 303 301 301 302 300 301 300 300 299 300 301 301 300 302 301 303 301 305 308 307 308 310 309 309 307 310 -193 308 306 305 303 301 301 303 300 302 301 302 300 300 300 300 298 297 295 297 299 302 302 303 303 304 306 305 305 306 304 303 303 301 300 301 300 300 299 298 298 298 299 300 297 299 -193 -209 -209 -209 -209 -209 -209 -209 -209 -209 -209 -209 309 309 -193 -193 -209 -209 -193 306 309 305 296 298 299 299 299 299 -193 -193 -193 300 -209 -209 -209 -209 -209 -209 -209 -209 -209 -209 -209 -209 -209 -209 -209 -209 -193 -193 -209 -209 -209 -209 -209 -209 -209 296 298 300 300 298 297 297 297 298 298 297 295 295 296 303 302 303 302 303 303 304 302 -193 -209 -209 -193 -193 -193 -209 -209 -193 -209 -193 306 -209 -209 -209 302 303 303 0 0 0 0 0
    0 0 0 0 0 0 0 0 0 0 0 0 0 0 0 0 0 0 0 0 0 0 0 0 0 0 0 0 0 0 0 0 0 0 0 0 0 0 0 0 0 0 0 0 0 0 0 0 0 0 0 0 0 0 0 0 0 0 0 0 0 0 0 0 0 0 0 0 0 301 302 300 301 302 301 302 301 305 303 304 302 302 302 303 304 305 303 305 304 305 305 306 305 302 301 301 300 297 297 296 296 295 299 300 -193 -193 303 308 308 308 309 309 307 307 307 309 308 309 309 308 308 308 307 306 304 305 304 304 304 304 303 303 304 305 302 301 300 300 300 302 302 302 302 304 304 305 304 302 301 302 300 301 299 300 299 300 301 302 301 304 302 305 302 306 308 307 307 310 308 309 307 -193 -193 -193 307 306 304 302 302 305 301 304 302 303 300 300 300 -209 -193 297 295 297 300 303 304 305 305 306 308 306 306 307 305 303 303 301 300 301 300 300 299 299 299 298 299 301 297 300 -193 -209 -209 -209 -209 -209 -209 -209 -209 -209 -209 -209 -193 -193 -209 -209 -209 -193 -193 306 310 308 298 299 299 299 299 -193 -209 -209 -209 -209 -209 -209 -209 -209 -209 -209 -209 -209 -209 -209 -209 -209 -209 -209 -209 -209 -209 -193 -209 -209 -209 -209 -209 -209 -209 -209 -209 300 301 298 -193 297 297 298 297 297 293 293 295 302 302 303 304 305 304 305 304 305 -193 -193 -193 -193 -209 -209 776 781 -209 -209 -209 -209 -209 -209 -209 309 311 0 0 0 0 0
    0 0 0 0 0 0 0 0 0 0 0 0 0 0 0 0 0 0 0 0 0 0 0 0 0 0 0 0 0 0 0 0 0 0 0 0 0 0 0 0 0 0 0 0 0 0 0 0 0 0 0 0 0 0 0 0 0 0 0 0 0 0 0 0 0 0 0 0 0 302 304 301 302 304 303 306 304 306 304 306 304 304 304 304 306 307 305 306 305 305 305 306 305 302 301 301 300 297 296 295 295 295 299 300 302 -193 305 309 309 310 310 311 308 308 308 310 309 310 310 308 308 309 307 306 304 305 304 305 304 305 305 304 305 306 304 302 300 301 300 303 302 303 303 304 305 305 304 302 301 302 300 300 299 299 299 299 301 302 301 305 303 305 303 306 307 307 306 309 306 308 306 -193 -193 -193 308 307 305 304 305 307 302 306 304 304 300 301 300 -209 -193 298 295 297 300 304 304 305 305 305 308 306 306 307 305 304 304 301 300 301 300 300 300 300 300 299 300 303 298 304 -193 -209 -209 -209 -209 -209 -209 -209 -209 -209 -209 -209 305 -193 -209 -193 -193 -193 -193 307 311 -193 301 301 -193 -193 -193 -193 -209 -209 -209 -209 -209 -209 -209 -209 -209 -209 -209 -209 -209 -209 -209 -209 -209 -209 -209 -209 -209 -209 -209 -209 -209 -209 -209 -209 -209 -209 -209 -209 -209 -209 -209 -209 -209 -209 -209 -209 -209 -209 293 305 305 306 307 307 306 306 307 308 303 304 305 -193 -209 776 777 781 -209 -209 -209 790 793 -209 -209 -209 316 0 0 0 0 0
    0 0 0 0 0 0 0 0 0 0 0 0 0 0 0 0 0 0 0 0 0 0 0 0 0 0 0 0 0 0 0 0 0 0 0 0 0 0 0 0 0 0 0 0 0 0 0 0 0 0 0 0 0 0 0 0 0 0 0 0 0 0 0 0 0 0 0 0 0 -193 305 -193 -193 -209 -209 -193 303 306 305 306 306 306 306 306 307 308 306 -193 306 306 306 305 305 302 301 300 300 297 295 295 294 294 298 -209 -193 -209 306 311 311 311 311 312 309 309 309 311 310 311 310 309 309 309 308 306 304 305 305 305 305 307 306 306 307 308 306 304 301 301 301 304 302 304 304 305 306 307 306 302 301 302 300 300 299 299 299 299 301 302 302 306 304 306 303 306 308 307 306 309 -193 308 305 -193 -193 -193 308 309 307 306 306 308 303 308 307 306 301 303 303 -209 -193 299 295 296 301 305 305 306 306 306 308 306 307 307 306 304 304 302 301 301 300 301 300 300 301 300 301 304 300 308 -193 -209 -209 -209 -209 -209 -209 -209 -209 -209 -209 -209 -209 306 -209 -209 -209 -193 -209 308 312 -209 -209 -209 -209 -209 -209 -209 -209 -209 -209 -209 -209 -209 -209 -209 -209 -209 -209 -209 -209 -209 -209 -209 -209 -209 -209 -209 -209 -209 -209 -209 -209 -209 -209 -209 -209 -209 -209 -209 -209 -209 -209 -209 -209 -209 -209 -209 -209 -209 -209 309 308 308 309 309 308 308 308 309 307 308 310 310 -209 -193 777 778 776 775 -209 -209 -209 -209 -209 -209 318 0 0 0 0 0
    0 0 0 0 0 0 0 0 0 0 0 0 0 0 0 0 0 0 0 0 0 0 0 0 0 0 0 0 0 0 0 0 0 0 0 0 0 0 0 0 0 0 0 0 0 0 0 0 0 0 0 0 0 0 0 0 0 0 0 0 0 0 0 0 0 0 0 0 0 -193 305 301 303 304 302 306 302 305 306 306 307 306 307 307 307 308 -193 -193 -193 306 306 304 304 301 -193 300 300 296 296 295 295 294 299 -209 -209 -209 309 312 312 312 312 314 309 310 309 311 310 312 311 310 309 310 309 307 305 306 306 307 307 308 307 307 308 309 308 306 303 303 302 307 305 306 307 306 307 308 307 304 301 303 301 300 299 299 -193 -193 -193 -193 302 307 305 307 305 308 309 309 307 310 -193 308 -193 -193 -193 -193 -193 308 306 305 306 308 303 308 308 308 -177 -177 309 -209 -209 -209 295 297 305 307 307 307 307 307 309 308 308 308 307 305 304 302 300 300 299 300 -193 299 300 -193 301 305 301 309 -193 -209 -209 -209 -209 -193 -209 -209 -209 -209 1008 1008 -193 -209 -209 -209 -209 -209 -209 -193 -193 -209 -209 -209 -209 -209 -209 -209 -209 -209 -209 -209 -209 -209 -209 -209 -209 -209 -209 -209 -209 -209 -209 -209 -209 -209 -209 -209 -209 -209 -209 -209 -209 -209 -209 -209 -209 -209 -209 -209 -209 -209 -209 -209 -209 -209 -209 -209 -209 265 -209 309 309 309 310 310 308 308 309 310 310 310 312 312 -209 -209 773 774 768 772 -209 796 -209 -209 -209 -209 320 0 0 0 0 0
    0 0 0 0 0 0 0 0 0 0 0 0 0 0 0 0 0 0 0 0 0 0 0 0 0 0 0 0 0 0 0 0 0 0 0 0 0 0 0 0 0 0 0 0 0 0 0 0 0 0 0 0 0 0 0 0 0 0 0 0 0 0 0 0 0 0 0 0 0 304 305 302 305 306 303 308 306 307 307 307 308 306 307 307 307 308 -193 -193 -193 304 304 302 -193 -193 -193 -209 300 -209 296 296 296 295 302 -193 -209 -209 -193 314 315 315 315 316 311 312 311 312 313 313 312 310 310 311 310 307 306 307 307 308 308 309 308 308 309 310 310 309 307 307 -193 -193 308 309 309 308 308 309 309 305 301 303 301 300 299 299 -193 -193 -193 -193 304 308 307 308 308 309 310 309 308 311 -193 -209 -193 -193 -193 -193 -193 -193 -193 305 306 308 302 308 308 308 -177 -177 -209 -193 -209 309 -193 307 310 310 309 309 308 309 310 309 309 309 308 306 305 304 301 300 299 -193 -209 -209 -209 978 -193 -209 -209 -209 -209 -209 -209 -225 -209 -209 334 -209 -209 1008 1008 1008 -193 -209 -209 -209 -209 -209 -209 -209 -193 -209 -209 -209 -209 -209 -209 -209 -209 -209 -209 -209 -209 -209 -209 -209 -209 -209 -209 -209 -209 -209 -209 -209 -209 -209 -209 -209 -209 -209 -209 -209 -209 -209 -209 -209 -209 -209 -209 -209 -209 -209 -209 -209 -209 -209 -209 -209 -209 -209 -209 -209 -209 309 309 310 308 308 310 311 311 311 314 316 -209 -209 -209 -209 -209 -209 -209 -209 -209 -209 -209 319 322 0 0 0 0 0
    0 0 0 0 0 0 0 0 0 0 0 0 0 0 0 0 0 0 0 0 0 0 0 0 0 0 0 0 0 0 0 0 0 0 0 0 0 0 0 0 0 0 0 0 0 0 0 0 0 0 0 0 0 0 0 0 0 0 0 0 0 0 0 0 0 0 0 0 0 305 306 304 307 308 305 311 -193 308 307 308 309 307 308 -193 -193 308 -193 -193 -193 -193 304 302 302 -193 -193 -209 -193 -209 297 298 298 297 -193 -193 -209 -209 -209 316 318 318 317 318 314 314 314 315 316 316 314 -193 310 311 310 307 306 307 308 309 309 310 309 309 310 311 -193 -209 308 -193 -177 -193 -193 311 311 310 310 310 310 307 303 304 302 301 300 300 76 -193 -193 -193 306 309 309 309 309 311 312 311 310 -193 507 -209 504 -177 -177 -177 -193 -193 -209 305 -193 -193 303 309 308 308 -177 -193 -209 819 -209 -209 -209 -209 -193 310 309 309 309 309 310 310 311 309 311 308 308 307 305 302 -193 -209 -209 -209 -193 975 -193 -209 -209 -209 -209 -209 -225 -225 -225 -225 -225 -225 -225 1008 1008 1008 -193 599 608 616 616 616 -225 -225 -225 -209 -209 -209 -177 -177 -209 -209 -209 -209 -209 -209 -209 -209 -209 -209 -209 -209 -209 -209 -209 -209 -209 -209 -209 -209 -209 -209 -209 -209 -209 -209 -209 -209 -209 -209 -209 -209 -209 -209 -209 -209 -209 -209 -209 -209 -209 -209 -209 -209 -209 -209 -209 -209 -209 -209 303 305 309 311 312 312 316 325 -209 -209 -209 -209 -209 -209 -209 -209 -209 -209 -209 323 324 0 0 0 0 0
    0 0 0 0 0 0 0 0 0 0 0 0 0 0 0 0 0 0 0 0 0 0 0 0 0 0 0 0 0 0 0 0 0 0 0 0 0 0 0 0 0 0 0 0 0 0 0 0 0 0 0 0 0 0 0 0 0 0 0 0 0 0 0 0 0 0 0 0 0 -209 306 304 307 309 305 312 -209 308 308 309 310 -193 310 -209 -193 -193 -193 -193 -193 -209 304 302 301 -209 -209 -209 -209 -209 297 298 298 -193 -193 347 -209 -209 -209 -209 323 323 319 320 316 316 317 318 319 318 -193 -209 -193 311 310 307 307 309 -209 -209 -193 313 -193 -209 -193 312 -209 -193 -209 -209 -177 -209 -209 312 312 311 311 311 311 -193 305 306 304 301 301 -193 75 -225 -193 -209 309 311 311 310 311 313 313 -209 -193 -209 -177 -193 505 -177 -177 -193 -209 -193 -193 -193 -209 -177 -177 -209 -225 -225 -193 -209 -209 817 823 -209 -209 -193 309 310 306 308 310 310 -225 -225 -225 -225 -225 -225 -225 -225 -225 -225 -209 615 -193 -209 968 971 -209 -209 -225 -225 -225 -225 -225 -225 -225 -225 -225 -225 -225 -225 -225 -225 -225 -225 -225 -225 -225 -225 -225 -225 -225 -225 -225 -209 930 -209 -209 -209 -209 -209 -209 -209 -209 -209 -209 -209 -209 -209 -209 -209 -209 -209 -209 -209 -209 -209 -209 -209 -209 -209 -209 -209 -209 -209 -209 -209 -209 -209 -209 -209 -209 -209 -209 -209 -209 -209 -209 -209 -209 -209 -209 -209 -209 -209 -209 -209 -209 -209 -193 320 316 314 319 329 -209 -209 -193 -209 -209 -209 -209 -209 -209 -209 -209 324 325 0 0 0 0 0
    0 0 0 0 0 0 0 0 0 0 0 0 0 0 0 0 0 0 0 0 0 0 0 0 0 0 0 0 0 0 0 0 0 0 0 0 0 0 0 0 0 0 0 0 0 0 0 0 0 0 0 0 0 0 0 0 0 0 0 0 0 0 0 0 0 0 0 0 0 -209 -209 -209 310 -193 311 316 -193 -209 309 312 -193 -209 -209 -209 -209 -209 -209 436 -193 437 -209 -209 -209 -209 -209 -209 -193 -209 -209 -209 -209 -193 347 346 344 338 -193 -209 327 325 320 322 -225 -225 317 317 319 316 -209 -193 -193 -193 311 310 -209 -193 859 859 -209 -193 -209 945 -193 -209 -209 -193 622 -209 -209 -209 -209 -193 -193 311 312 312 -193 -193 305 307 -225 -225 -225 -225 -225 -225 -225 -225 -225 -225 -225 -225 -225 -225 -225 -209 -209 495 505 -209 506 507 503 -193 987 -193 643 -225 -225 -225 -225 -225 -225 -225 -225 -225 -225 -225 -225 -225 -225 -225 -225 -225 -225 -225 -225 -225 -225 -225 -225 -225 -225 -225 -225 -225 -225 -225 -225 -225 -225 -225 -225 -225 -225 -225 -225 -225 -225 -225 -225 -225 -225 -225 -225 -225 -225 -225 -225 -225 -225 -225 -225 -225 -225 -225 -225 -225 -225 -225 -225 -209 -209 -209 -209 -209 -209 -209 -209 -209 -209 -209 -209 -209 -209 -209 -209 -209 -209 -209 -209 -209 -209 -209 -209 -209 -209 -209 -209 -209 -209 -193 -193 -193 -209 -209 -209 -209 -209 -193 -209 -209 -209 -209 -209 -209 -209 -209 -209 -209 -209 -209 -209 -209 -209 -209 -209 -209 327 321 327 334 -209 -209 -209 -209 -209 -209 -209 -209 -209 325 327 325 325 0 0 0 0 0
    0 0 0 0 0 0 0 0 0 0 0 0 0 0 0 0 0 0 0 0 0 0 0 0 0 0 0 0 0 0 0 0 0 0 0 0 0 0 0 0 0 0 0 0 0 0 0 0 0 0 0 0 0 0 0 0 0 0 0 0 0 0 0 0 0 0 0 0 0 -193 -209 -193 -209 -209 -209 -209 -193 -177 308 -193 -209 459 -209 -209 -209 -209 -209 -209 -193 -209 -193 587 -193 485 -209 -193 -193 -177 267 264 -209 -209 346 345 -209 335 332 -177 -193 -225 -225 -225 -225 -225 316 315 316 316 -193 -209 907 909 909 907 -193 -209 -193 -209 699 -209 -209 -209 -193 -193 -193 -193 624 -193 -209 630 629 -209 899 896 -193 -209 -225 -225 -225 -225 -225 -225 -225 -225 -225 -225 -225 -225 -225 -225 -225 -225 -225 -225 -225 -225 -225 -225 -225 -225 -225 -225 -225 -225 -225 -225 -225 -225 -225 -225 -225 -225 -225 -225 -225 -225 -225 -225 -225 -225 -225 -225 -225 -225 -225 -225 -225 -225 -225 -225 -225 -225 -225 -225 -225 -225 -225 -225 -225 -225 -225 -225 -225 -225 -225 -225 -225 -225 -225 -225 -225 -225 -225 -225 -225 -225 -225 -225 -225 -225 -225 -225 -225 -225 -225 -225 -225 -225 -225 -225 -225 -209 -209 -209 -209 -209 -209 -209 -209 -209 -209 -209 -209 -209 -209 -209 -209 -209 -209 -209 -209 -209 -209 -209 -209 -209 -209 -209 -209 -209 -209 -193 -193 -209 -209 -209 -209 -209 142 146 150 -209 -209 -209 -209 -209 -209 -209 -209 -209 -209 -209 -209 -209 342 343 342 337 330 326 330 341 346 -209 -209 -209 -209 -209 -209 -193 -193 327 329 327 327 0 0 0 0 0</data></disparity>
</opencv_storage>
