<?xml version="1.0"?>
<opencv_storage>
<gps_time_stamp>30241</gps_time_stamp>
<gps_x>-8.1229934692382812e+000</gps_x>
<gps_y>9.5031893253326416e-001</gps_y>
<gps_z>-2.0247855186462402e+000</gps_z>
<image_time_stamp>18166</image_time_stamp>
<disparity type_id="opencv-matrix">
  <rows>84</rows>
  <cols>320</cols>
  <dt>s</dt>
  <data>
    0 0 0 0 0 0 0 0 0 0 0 0 0 0 0 0 0 0 0 0 0 0 0 0 0 0 0 0 0 0 0 0 0 0 0 0 0 0 0 0 0 0 0 0 0 0 0 0 0 0 0 0 0 0 0 0 0 0 0 0 0 0 0 0 0 0 0 0 0 91 92 92 93 91 92 92 91 93 93 90 91 89 89 89 89 89 95 92 93 94 94 94 94 94 93 90 91 91 90 90 90 90 90 91 91 91 91 93 91 97 93 93 94 94 94 93 93 94 90 93 93 92 91 90 89 88 85 86 85 86 88 88 88 92 91 91 92 92 91 91 93 92 90 91 90 90 90 90 89 89 89 88 87 88 87 91 89 88 89 88 88 87 87 88 84 86 86 84 84 85 87 88 87 87 86 86 86 87 87 87 87 88 88 90 89 90 91 88 86 86 86 87 86 87 87 84 85 87 87 87 88 89 93 91 92 92 91 92 90 89 -193 -193 -193 -193 -193 87 84 86 87 84 85 83 86 86 87 88 90 -193 -193 89 90 89 88 87 87 85 82 -209 -209 -209 83 -209 -193 -209 -209 -209 -209 -209 -209 -193 -193 -193 -209 87 88 89 89 90 90 92 94 95 94 94 94 96 92 90 93 96 96 99 99 99 99 99 100 100 99 98 98 95 96 -193 -193 -193 32 30 30 31 32 34 35 37 37 -193 -193 -209 -209 -209 122 121 127 124 125 125 125 124 124 124 124 125 126 126 126 0 0 0 0 0
    0 0 0 0 0 0 0 0 0 0 0 0 0 0 0 0 0 0 0 0 0 0 0 0 0 0 0 0 0 0 0 0 0 0 0 0 0 0 0 0 0 0 0 0 0 0 0 0 0 0 0 0 0 0 0 0 0 0 0 0 0 0 0 0 0 0 0 0 0 91 92 92 93 91 92 92 91 93 93 91 92 89 92 91 90 90 98 94 94 95 94 94 94 95 94 91 92 93 92 92 92 92 91 92 91 91 91 93 91 -193 -193 -193 -193 94 94 93 93 94 90 93 94 92 91 90 89 88 87 87 87 87 89 89 89 94 92 92 92 92 92 91 93 93 90 91 91 91 90 91 91 90 91 90 89 90 88 93 90 89 90 -193 89 89 88 89 85 87 87 85 85 86 88 89 88 88 87 87 87 88 87 -193 89 89 90 92 92 92 92 90 86 87 87 87 86 87 87 85 87 88 89 89 90 91 95 92 93 93 92 93 91 90 90 89 90 89 88 88 85 86 86 84 85 84 85 86 87 89 90 91 -193 89 90 89 88 87 87 85 83 86 82 80 85 -193 89 89 95 98 -193 -193 -193 -193 -209 -209 -209 88 88 89 88 89 90 91 93 94 93 93 95 97 94 92 94 98 97 99 98 97 96 96 97 98 96 96 97 95 97 97 96 -193 -209 -193 29 30 31 34 35 38 -209 -177 -193 -193 -193 -209 121 121 126 123 124 124 124 124 124 124 124 126 126 126 126 0 0 0 0 0
    0 0 0 0 0 0 0 0 0 0 0 0 0 0 0 0 0 0 0 0 0 0 0 0 0 0 0 0 0 0 0 0 0 0 0 0 0 0 0 0 0 0 0 0 0 0 0 0 0 0 0 0 0 0 0 0 0 0 0 0 0 0 0 0 0 0 0 0 0 91 91 92 93 90 92 91 90 93 93 92 93 91 95 93 91 91 99 94 94 94 94 94 94 95 95 91 93 93 93 93 94 93 92 93 92 92 92 94 91 -193 -193 -193 -193 93 93 93 92 93 89 92 94 92 91 90 89 87 87 87 87 87 90 89 89 94 93 92 92 92 92 91 94 93 91 92 92 92 92 92 92 91 92 91 90 91 89 95 91 90 91 -193 90 90 89 90 86 88 88 86 86 88 89 90 88 89 87 87 87 89 88 91 90 91 92 95 93 93 92 91 87 87 87 87 87 87 88 86 88 90 90 91 91 93 96 93 94 94 92 93 91 91 91 89 90 89 88 88 85 86 86 85 86 84 86 86 87 90 91 91 89 89 89 89 88 88 87 86 84 87 86 86 87 89 90 89 93 95 92 93 93 93 -193 90 90 89 89 89 89 90 90 91 93 94 94 94 95 98 96 96 98 100 98 100 99 98 96 96 96 98 97 96 97 95 97 98 98 94 91 90 -209 26 28 33 36 -209 -177 -177 -193 -193 -193 -193 122 122 126 123 124 124 124 124 124 124 124 127 127 127 127 0 0 0 0 0
    0 0 0 0 0 0 0 0 0 0 0 0 0 0 0 0 0 0 0 0 0 0 0 0 0 0 0 0 0 0 0 0 0 0 0 0 0 0 0 0 0 0 0 0 0 0 0 0 0 0 0 0 0 0 0 0 0 0 0 0 0 0 0 0 0 0 0 0 0 91 91 92 93 89 91 91 90 93 94 94 95 -193 100 96 92 93 100 94 94 94 94 93 93 94 94 90 93 93 93 93 94 93 93 93 93 93 94 96 93 99 94 -193 94 94 94 93 92 93 89 92 94 92 91 90 89 87 86 87 87 87 90 90 89 95 93 92 92 92 92 92 94 94 91 93 93 94 93 93 93 92 93 92 91 93 90 97 92 91 92 91 91 91 90 91 88 90 90 88 88 89 90 92 89 90 88 88 88 91 90 93 92 92 93 96 94 94 93 92 88 88 88 88 87 88 88 87 88 90 90 91 92 94 96 94 94 94 93 94 92 92 91 90 91 90 89 89 86 87 87 86 87 86 87 88 89 91 92 92 91 90 91 90 89 89 89 88 86 89 88 87 88 90 90 89 92 93 91 93 92 92 91 90 90 90 90 90 90 90 90 92 94 95 94 93 95 99 97 99 99 100 98 99 98 97 95 95 96 96 96 96 96 96 98 99 98 96 94 93 -193 -209 -209 31 -193 100 102 104 -193 -193 -193 -177 122 123 125 123 123 124 123 124 124 124 124 128 127 127 127 0 0 0 0 0
    0 0 0 0 0 0 0 0 0 0 0 0 0 0 0 0 0 0 0 0 0 0 0 0 0 0 0 0 0 0 0 0 0 0 0 0 0 0 0 0 0 0 0 0 0 0 0 0 0 0 0 0 0 0 0 0 0 0 0 0 0 0 0 0 0 0 0 0 0 92 91 92 93 89 91 92 90 96 100 100 101 -193 104 101 96 97 101 94 95 95 94 94 93 95 94 90 93 92 93 93 94 94 93 94 94 95 96 98 94 100 95 94 95 94 94 94 93 93 90 92 95 93 92 91 91 87 87 88 88 87 91 90 90 96 93 93 93 93 93 92 94 94 92 93 94 95 94 94 94 94 95 93 92 94 91 99 93 92 92 92 91 92 91 92 89 91 92 90 90 92 94 95 92 91 88 89 90 92 91 95 93 93 94 96 94 94 93 93 88 88 89 89 88 88 89 88 89 90 90 92 93 95 97 95 95 95 93 94 93 93 92 91 92 90 90 90 87 88 89 89 89 89 89 91 91 93 95 94 92 92 92 91 91 90 90 89 88 90 90 89 89 92 91 90 94 93 92 93 93 93 92 91 92 91 91 92 91 91 91 92 95 96 94 94 95 99 97 99 100 100 96 97 97 95 93 94 94 94 95 95 96 96 98 100 99 98 96 95 96 97 97 96 95 96 99 102 105 109 119 -209 122 124 124 123 123 123 123 123 124 124 123 128 128 128 127 0 0 0 0 0
    0 0 0 0 0 0 0 0 0 0 0 0 0 0 0 0 0 0 0 0 0 0 0 0 0 0 0 0 0 0 0 0 0 0 0 0 0 0 0 0 0 0 0 0 0 0 0 0 0 0 0 0 0 0 0 0 0 0 0 0 0 0 0 0 0 0 0 0 0 92 91 92 92 89 91 93 90 100 103 103 104 105 105 104 99 100 102 94 95 94 94 93 93 95 95 91 95 94 95 96 96 95 94 97 97 98 100 100 97 101 96 95 95 95 95 94 93 94 90 94 96 95 93 91 92 88 87 88 88 88 92 91 91 96 94 93 93 93 93 93 94 94 92 94 94 95 94 94 94 94 96 94 94 96 93 100 94 93 93 93 92 92 92 93 90 92 93 91 92 94 98 98 96 95 89 90 91 92 91 97 94 94 94 96 95 94 93 93 89 89 90 89 89 89 90 90 90 92 91 94 94 96 97 95 96 95 94 95 93 93 92 91 93 91 91 92 89 90 92 91 92 91 91 93 92 95 96 94 94 93 93 93 92 92 91 90 90 91 91 90 90 93 93 91 96 93 92 93 95 95 93 92 93 92 94 93 93 92 92 93 97 97 95 94 97 100 98 100 101 100 95 98 97 96 93 94 93 94 95 97 97 98 100 101 100 100 99 99 99 100 99 98 97 96 99 101 104 107 118 -209 121 123 122 122 122 122 122 123 124 124 123 129 128 128 128 0 0 0 0 0
    0 0 0 0 0 0 0 0 0 0 0 0 0 0 0 0 0 0 0 0 0 0 0 0 0 0 0 0 0 0 0 0 0 0 0 0 0 0 0 0 0 0 0 0 0 0 0 0 0 0 0 0 0 0 0 0 0 0 0 0 0 0 0 0 0 0 0 0 0 91 90 91 91 88 91 93 91 100 104 104 104 106 106 104 101 102 103 95 96 95 94 93 94 96 95 91 96 94 97 98 98 96 96 99 100 101 102 102 99 102 98 96 96 96 95 94 93 95 91 96 98 98 97 94 97 -193 -209 -193 90 90 94 92 92 97 95 94 94 94 94 93 95 95 93 94 95 96 95 95 95 95 97 96 96 98 95 101 96 94 95 94 94 93 93 93 90 93 95 93 94 97 101 100 99 100 92 92 92 93 91 98 94 94 94 95 95 94 94 94 89 90 90 90 89 90 91 91 92 93 93 95 95 97 97 95 96 95 94 95 94 94 93 92 95 93 92 96 93 92 94 92 92 91 92 93 93 95 97 94 94 94 94 94 93 93 92 91 91 92 91 91 91 93 93 92 97 94 93 94 96 96 95 94 95 93 96 96 96 94 94 96 99 99 98 97 99 101 99 101 102 101 98 101 100 101 97 96 96 94 97 98 98 99 101 102 102 101 101 101 102 102 103 101 101 100 102 102 104 106 117 118 119 122 121 121 121 122 122 122 124 125 123 129 128 128 128 0 0 0 0 0
    0 0 0 0 0 0 0 0 0 0 0 0 0 0 0 0 0 0 0 0 0 0 0 0 0 0 0 0 0 0 0 0 0 0 0 0 0 0 0 0 0 0 0 0 0 0 0 0 0 0 0 0 0 0 0 0 0 0 0 0 0 0 0 0 0 0 0 0 0 91 91 90 91 89 92 94 93 100 104 104 104 105 105 105 103 104 104 95 97 96 94 93 94 96 96 92 97 94 98 98 98 96 97 99 100 101 102 102 100 103 99 98 97 97 97 96 94 96 91 98 100 100 99 97 101 -193 -193 98 96 94 98 94 94 98 96 95 95 95 95 94 96 96 94 96 97 98 96 97 97 97 99 98 99 100 98 102 97 96 96 96 95 95 94 95 91 95 97 95 96 98 101 100 100 101 95 95 95 95 93 98 94 94 95 95 95 94 94 94 89 91 91 90 90 90 91 91 92 93 92 95 94 97 97 94 96 95 94 94 94 95 93 93 98 94 96 100 101 95 96 93 92 92 92 93 92 95 98 95 95 96 95 95 94 94 93 91 93 94 92 93 93 94 95 95 99 95 95 96 98 97 97 97 98 96 99 99 99 98 99 100 101 100 99 100 101 101 100 103 104 104 -193 105 -193 107 -193 -209 102 102 99 99 99 100 102 102 102 101 101 102 103 103 103 102 102 102 103 102 104 106 116 116 118 122 121 121 121 122 122 122 124 125 123 130 128 128 128 0 0 0 0 0
    0 0 0 0 0 0 0 0 0 0 0 0 0 0 0 0 0 0 0 0 0 0 0 0 0 0 0 0 0 0 0 0 0 0 0 0 0 0 0 0 0 0 0 0 0 0 0 0 0 0 0 0 0 0 0 0 0 0 0 0 0 0 0 0 0 0 0 0 0 92 91 90 90 89 94 96 95 100 104 104 104 105 105 105 105 105 105 97 100 98 95 93 95 96 96 92 97 95 98 98 97 96 98 100 101 101 102 102 100 103 100 99 97 97 97 -193 95 96 92 99 101 101 101 99 102 -193 102 101 99 98 101 98 97 99 97 96 97 97 97 95 97 98 95 97 99 99 98 98 98 99 100 100 101 101 100 103 99 98 98 97 97 97 96 97 92 98 100 98 99 99 103 102 103 104 102 102 101 99 97 100 96 95 97 97 96 95 95 96 91 94 94 91 91 91 92 92 93 94 93 96 95 98 97 94 95 95 94 94 94 95 93 94 100 98 100 103 105 100 98 96 93 93 93 93 93 96 98 95 95 97 96 95 95 95 94 92 95 95 92 94 94 94 95 97 98 96 95 97 99 98 98 99 99 99 101 102 102 101 102 103 103 102 102 102 102 102 102 104 105 105 105 106 107 108 -193 -193 105 105 102 101 101 102 103 103 103 102 101 102 102 103 102 102 101 101 103 102 104 105 116 114 117 121 121 121 121 122 122 122 124 125 123 131 128 128 128 0 0 0 0 0
    0 0 0 0 0 0 0 0 0 0 0 0 0 0 0 0 0 0 0 0 0 0 0 0 0 0 0 0 0 0 0 0 0 0 0 0 0 0 0 0 0 0 0 0 0 0 0 0 0 0 0 0 0 0 0 0 0 0 0 0 0 0 0 0 0 0 0 0 0 92 92 90 90 91 95 98 97 101 104 103 104 105 105 105 105 105 106 100 102 100 97 94 96 95 96 93 97 95 98 98 97 97 99 101 101 102 102 102 101 102 100 99 97 97 97 -193 95 97 93 100 101 101 101 100 102 103 101 101 99 100 102 100 99 101 99 98 99 99 99 97 99 100 98 99 101 100 99 100 100 101 102 102 102 103 102 104 100 99 99 99 98 98 98 98 93 101 102 100 101 101 104 104 105 106 106 105 105 102 101 102 97 97 98 98 98 97 97 98 93 99 98 92 93 92 94 94 94 96 95 98 97 100 97 94 96 95 94 95 94 96 94 96 101 100 102 105 105 102 100 98 95 95 95 94 93 96 98 95 95 97 95 95 95 96 95 93 96 96 93 96 96 95 95 98 98 95 95 96 98 98 99 100 99 100 103 103 103 103 105 105 105 104 104 103 103 104 103 105 105 105 105 106 109 109 108 107 106 107 105 104 105 104 105 104 104 103 102 102 102 103 102 102 102 102 103 103 105 106 116 114 117 -193 121 121 121 122 122 122 125 125 123 131 129 129 129 0 0 0 0 0
    0 0 0 0 0 0 0 0 0 0 0 0 0 0 0 0 0 0 0 0 0 0 0 0 0 0 0 0 0 0 0 0 0 0 0 0 0 0 0 0 0 0 0 0 0 0 0 0 0 0 0 0 0 0 0 0 0 0 0 0 0 0 0 0 0 0 0 0 0 93 93 92 92 93 97 99 98 101 104 103 104 105 105 105 105 106 106 104 105 105 103 97 99 95 97 94 97 96 100 98 98 98 100 101 102 102 102 102 102 103 101 100 98 98 99 -193 97 97 95 100 101 101 101 100 102 102 102 101 100 102 104 102 102 102 101 101 101 102 101 99 101 101 100 102 102 101 101 102 101 102 104 103 104 104 103 105 101 100 100 100 100 99 99 100 94 102 103 102 102 102 105 106 106 107 106 105 105 103 103 102 99 98 100 99 99 98 99 99 95 101 101 94 97 97 98 97 98 98 98 100 99 101 98 95 96 96 95 96 96 97 95 98 102 101 103 105 105 103 101 100 97 97 96 95 93 96 98 95 95 97 96 96 96 97 97 95 98 98 94 98 98 97 96 99 98 95 95 97 99 98 99 100 100 101 103 104 104 104 106 106 105 104 104 104 103 105 104 105 106 106 106 107 110 111 109 107 107 108 107 107 107 106 107 105 105 103 103 103 103 103 103 102 103 103 104 104 106 107 116 114 117 -193 122 122 122 123 123 122 125 126 123 132 130 130 130 0 0 0 0 0
    0 0 0 0 0 0 0 0 0 0 0 0 0 0 0 0 0 0 0 0 0 0 0 0 0 0 0 0 0 0 0 0 0 0 0 0 0 0 0 0 0 0 0 0 0 0 0 0 0 0 0 0 0 0 0 0 0 0 0 0 0 0 0 0 0 0 0 0 0 93 93 92 92 94 98 99 99 101 103 103 103 104 105 105 105 106 106 105 107 108 107 105 105 101 103 99 100 100 101 100 100 99 101 102 102 102 102 102 102 103 102 102 100 100 -193 -193 100 99 98 101 101 102 102 101 102 103 102 102 101 103 105 104 103 103 102 103 103 103 103 102 103 103 103 104 104 102 102 103 103 103 104 104 104 105 104 106 102 102 101 101 101 101 101 101 95 103 104 103 103 103 105 105 106 106 106 105 105 103 103 102 100 99 101 99 100 100 100 100 98 102 103 98 101 101 101 100 101 100 101 102 100 102 99 96 97 97 96 97 97 99 98 100 103 103 104 105 106 105 103 102 100 100 99 96 94 96 98 95 96 98 96 97 97 99 99 97 100 100 96 100 99 98 97 99 98 96 96 98 99 98 99 100 100 102 104 104 104 104 106 106 106 105 105 104 103 105 105 106 106 107 106 108 110 110 109 107 107 108 108 108 108 107 108 106 105 104 103 103 103 103 103 103 104 104 105 105 106 108 116 113 118 -193 122 122 122 123 123 123 126 126 124 134 131 131 131 0 0 0 0 0
    0 0 0 0 0 0 0 0 0 0 0 0 0 0 0 0 0 0 0 0 0 0 0 0 0 0 0 0 0 0 0 0 0 0 0 0 0 0 0 0 0 0 0 0 0 0 0 0 0 0 0 0 0 0 0 0 0 0 0 0 0 0 0 0 0 0 0 0 0 93 94 93 92 94 99 99 98 101 103 102 103 104 105 105 105 106 106 105 107 109 108 105 106 105 105 103 103 103 103 102 102 101 102 102 102 102 101 101 102 103 102 103 101 103 -209 -209 103 102 101 103 102 103 103 102 103 103 104 103 102 103 106 104 104 104 103 104 104 104 104 103 104 104 104 105 105 104 104 104 104 104 105 104 105 105 104 106 102 102 102 102 102 102 101 102 97 104 105 104 104 103 106 106 106 107 107 105 105 104 104 103 101 101 102 101 102 102 102 102 101 103 105 101 103 104 103 103 104 103 104 103 102 103 99 96 98 97 97 99 99 100 101 102 105 105 105 106 106 105 105 103 102 101 100 97 95 96 99 95 96 99 97 97 98 100 100 99 101 101 98 101 100 99 97 99 98 97 97 98 99 99 100 101 100 102 104 104 105 105 106 107 106 106 106 105 105 106 108 108 108 109 108 108 110 110 108 107 107 108 108 108 109 107 108 106 106 105 104 104 104 104 104 104 105 105 105 105 106 108 -193 113 118 123 123 123 123 124 124 124 126 127 125 134 132 132 132 0 0 0 0 0
    0 0 0 0 0 0 0 0 0 0 0 0 0 0 0 0 0 0 0 0 0 0 0 0 0 0 0 0 0 0 0 0 0 0 0 0 0 0 0 0 0 0 0 0 0 0 0 0 0 0 0 0 0 0 0 0 0 0 0 0 0 0 0 0 0 0 0 0 0 97 97 96 95 97 100 100 98 101 103 102 103 104 105 105 105 106 106 105 107 109 108 106 106 105 106 104 105 106 105 105 104 103 103 103 102 101 100 100 101 102 102 103 101 -193 107 -209 105 -193 -193 -193 -193 104 103 103 104 104 105 103 103 104 107 105 105 105 105 105 105 105 105 104 105 105 105 106 106 105 105 105 105 105 105 105 105 105 104 105 103 103 102 102 103 102 102 102 99 104 104 105 104 104 107 108 108 109 108 107 107 106 106 104 103 102 104 102 103 104 104 103 104 105 106 103 105 106 104 104 105 105 106 106 104 104 100 97 98 97 98 100 100 102 102 103 105 105 106 106 106 105 105 103 102 101 100 97 95 96 99 95 96 100 98 98 100 101 101 101 102 102 100 102 101 100 98 100 98 98 98 99 100 99 100 101 101 103 105 105 105 105 107 107 107 107 107 106 107 108 111 111 111 111 110 111 112 111 109 108 107 108 108 108 109 108 107 106 106 105 105 105 105 104 104 105 106 105 106 106 107 109 -193 114 118 124 123 124 124 125 124 124 126 127 125 135 133 133 -193 0 0 0 0 0
    0 0 0 0 0 0 0 0 0 0 0 0 0 0 0 0 0 0 0 0 0 0 0 0 0 0 0 0 0 0 0 0 0 0 0 0 0 0 0 0 0 0 0 0 0 0 0 0 0 0 0 0 0 0 0 0 0 0 0 0 0 0 0 0 0 0 0 0 0 103 102 101 101 101 104 102 100 102 104 103 104 104 105 105 105 106 106 105 108 111 110 107 109 108 111 108 110 111 109 108 107 106 105 104 103 101 100 100 101 102 102 103 -193 105 108 -193 107 105 106 106 106 104 104 104 105 105 105 104 103 104 107 105 105 105 105 105 106 106 106 105 106 106 106 106 106 105 105 105 104 104 105 104 105 105 104 105 103 104 103 103 103 103 103 103 100 105 104 105 105 105 108 109 108 109 109 108 108 107 107 105 104 104 105 104 105 105 105 105 106 106 107 105 105 106 104 105 106 107 108 108 106 106 102 100 100 99 99 101 101 103 104 104 106 106 106 106 106 105 105 103 103 102 101 98 97 98 100 97 98 101 100 100 101 103 103 103 103 104 102 103 102 101 99 101 99 98 99 100 100 99 101 101 101 104 105 105 105 106 108 108 108 108 108 106 108 110 112 112 112 111 113 113 114 112 111 108 108 109 110 109 110 109 107 106 106 106 104 104 104 104 104 105 106 105 106 106 107 111 -193 115 119 125 124 124 124 125 125 125 127 127 126 136 135 135 -177 0 0 0 0 0
    0 0 0 0 0 0 0 0 0 0 0 0 0 0 0 0 0 0 0 0 0 0 0 0 0 0 0 0 0 0 0 0 0 0 0 0 0 0 0 0 0 0 0 0 0 0 0 0 0 0 0 0 0 0 0 0 0 0 0 0 0 0 0 0 0 0 0 0 0 107 107 104 105 104 106 104 103 104 105 103 104 104 106 105 106 106 106 106 108 113 112 108 110 112 116 113 116 116 113 112 111 110 108 106 105 102 101 101 101 102 102 -193 -193 105 109 107 108 106 108 107 107 106 106 106 107 106 107 105 105 105 109 107 106 105 105 105 106 106 106 105 106 106 106 106 106 105 105 104 104 104 104 104 104 104 104 105 104 104 103 -193 -193 -193 -193 103 101 104 103 104 104 105 107 108 108 109 109 108 108 108 107 106 105 105 106 105 106 106 106 106 106 106 107 105 105 106 104 106 106 108 109 109 108 108 106 -193 102 101 100 103 103 104 105 105 106 106 106 107 106 105 106 104 105 104 103 100 99 100 101 100 100 102 101 102 104 105 106 105 105 105 104 104 103 102 100 101 99 100 100 101 101 101 102 103 102 105 107 106 106 106 108 109 109 109 110 107 110 112 114 113 112 112 114 114 114 113 112 110 109 111 112 110 112 111 109 108 108 108 107 107 106 104 103 104 105 105 105 106 107 113 -193 117 120 126 125 125 125 126 125 125 127 127 127 136 135 -193 -177 0 0 0 0 0
    0 0 0 0 0 0 0 0 0 0 0 0 0 0 0 0 0 0 0 0 0 0 0 0 0 0 0 0 0 0 0 0 0 0 0 0 0 0 0 0 0 0 0 0 0 0 0 0 0 0 0 0 0 0 0 0 0 0 0 0 0 0 0 0 0 0 0 0 0 111 111 109 109 107 109 105 104 105 105 104 105 105 106 106 106 106 106 106 109 114 113 109 111 116 119 117 118 117 116 115 115 115 112 110 110 103 102 102 103 102 102 -193 -193 105 108 108 109 -193 109 108 108 106 106 107 -193 108 109 107 106 107 112 109 107 107 107 106 107 107 107 106 107 106 106 106 106 105 105 105 104 104 104 104 104 104 105 106 104 105 -193 -193 -193 -193 -193 103 101 104 104 104 105 106 108 109 109 110 110 108 108 109 108 106 106 106 107 106 106 107 106 106 107 106 107 105 105 106 105 106 107 108 109 110 110 111 110 109 -209 104 103 104 104 105 106 105 106 106 107 107 106 106 106 105 106 105 104 102 101 101 102 102 102 103 103 104 106 107 108 106 106 106 105 105 104 103 101 102 99 101 101 102 102 103 103 104 104 106 108 107 107 107 108 108 109 109 110 108 111 112 114 113 112 111 114 114 113 113 113 111 111 113 114 112 114 115 112 111 112 114 112 112 112 107 104 105 106 106 106 108 110 117 -209 119 120 127 125 125 125 126 126 126 127 127 128 136 136 -193 -177 0 0 0 0 0
    0 0 0 0 0 0 0 0 0 0 0 0 0 0 0 0 0 0 0 0 0 0 0 0 0 0 0 0 0 0 0 0 0 0 0 0 0 0 0 0 0 0 0 0 0 0 0 0 0 0 0 0 0 0 0 0 0 0 0 0 0 0 0 0 0 0 0 0 0 113 114 113 112 109 112 106 105 106 106 104 105 105 107 106 106 107 106 107 110 115 115 111 116 119 121 120 120 118 117 117 117 117 115 113 114 104 103 103 105 104 105 -209 105 106 109 108 111 -193 -193 110 110 108 108 -193 -193 109 112 108 108 110 115 111 110 109 109 107 108 109 108 107 108 107 107 106 107 105 105 105 104 104 104 104 105 105 105 107 105 106 105 105 105 105 -193 -193 101 104 105 106 108 108 110 110 109 110 110 109 108 109 108 107 106 106 107 106 106 107 106 106 107 107 107 105 106 107 105 107 107 109 110 111 111 113 112 113 110 108 106 107 106 106 107 106 107 107 107 107 107 106 107 105 106 106 105 103 102 101 102 103 102 104 104 106 108 109 110 108 107 107 106 106 105 104 102 102 100 102 104 104 104 105 105 106 105 106 109 107 107 107 108 109 109 109 110 108 112 113 114 114 114 113 116 116 114 115 114 113 112 114 115 113 115 117 114 114 116 118 117 117 117 114 107 110 111 109 109 112 115 119 122 121 122 128 125 125 125 126 126 126 127 127 128 136 136 -193 -177 0 0 0 0 0
    0 0 0 0 0 0 0 0 0 0 0 0 0 0 0 0 0 0 0 0 0 0 0 0 0 0 0 0 0 0 0 0 0 0 0 0 0 0 0 0 0 0 0 0 0 0 0 0 0 0 0 0 0 0 0 0 0 0 0 0 0 0 0 0 0 0 0 0 0 115 116 115 115 112 115 108 107 109 108 105 106 106 107 107 106 108 107 108 112 116 117 116 118 119 121 119 120 119 118 117 117 117 116 115 116 106 107 107 112 112 113 111 110 110 113 112 115 -193 114 112 113 112 111 -193 113 112 115 113 113 115 117 115 113 113 112 109 111 111 109 108 108 108 107 107 107 106 105 105 104 104 104 105 105 105 105 108 106 107 106 106 106 106 106 105 104 106 107 108 112 112 113 113 111 112 112 109 109 110 108 107 106 106 107 106 106 107 106 107 108 108 108 107 107 108 106 108 108 110 110 111 110 113 112 114 112 109 106 108 108 106 107 107 107 107 108 108 107 106 108 105 106 106 104 102 102 102 102 103 103 105 105 107 110 110 111 108 108 107 106 106 106 105 103 102 101 105 106 107 106 107 107 107 106 107 110 107 107 107 108 109 109 109 110 108 113 113 114 114 115 116 118 118 116 118 117 117 116 117 117 116 117 119 115 117 118 119 118 118 118 116 111 115 114 113 111 116 118 120 124 122 124 129 125 126 126 127 126 127 128 127 129 135 135 -193 -177 0 0 0 0 0
    0 0 0 0 0 0 0 0 0 0 0 0 0 0 0 0 0 0 0 0 0 0 0 0 0 0 0 0 0 0 0 0 0 0 0 0 0 0 0 0 0 0 0 0 0 0 0 0 0 0 0 0 0 0 0 0 0 0 0 0 0 0 0 0 0 0 0 0 0 116 116 116 116 115 117 114 114 117 117 110 109 108 109 109 108 110 108 111 114 118 119 118 121 120 121 120 120 119 118 117 117 117 117 116 117 108 111 111 115 115 115 114 113 113 114 114 116 113 116 115 114 114 113 115 115 115 117 116 116 117 118 117 116 116 115 111 112 112 110 110 109 108 108 108 108 106 105 105 104 104 104 105 105 105 106 110 107 108 107 108 107 107 108 107 106 110 111 113 117 116 117 116 114 114 114 111 111 111 109 107 107 107 107 106 107 109 107 108 109 109 109 108 109 110 107 109 109 111 111 113 113 116 116 117 117 112 107 110 109 107 108 108 108 108 109 109 109 107 110 106 108 108 105 103 102 102 102 103 103 105 106 107 111 111 112 109 108 108 107 106 106 105 104 103 104 108 109 110 110 110 110 109 108 108 111 108 108 107 108 109 109 110 110 109 114 114 115 115 116 118 119 119 118 120 119 120 119 118 118 116 117 119 116 118 118 119 117 117 117 116 113 116 115 115 114 118 120 122 124 123 125 128 125 125 126 126 126 127 127 127 130 134 134 134 -193 0 0 0 0 0
    0 0 0 0 0 0 0 0 0 0 0 0 0 0 0 0 0 0 0 0 0 0 0 0 0 0 0 0 0 0 0 0 0 0 0 0 0 0 0 0 0 0 0 0 0 0 0 0 0 0 0 0 0 0 0 0 0 0 0 0 0 0 0 0 0 0 0 0 0 116 116 117 117 116 118 -193 118 120 120 118 117 114 115 114 113 116 114 116 118 120 121 121 122 121 122 121 121 119 118 118 117 117 117 116 117 109 113 112 116 115 115 115 114 114 115 115 116 -193 116 116 115 115 115 116 116 116 118 117 118 119 119 118 118 117 117 113 114 114 111 113 112 109 109 109 109 108 107 105 104 105 105 106 106 106 107 113 109 110 109 109 109 109 110 110 109 116 117 117 120 119 119 119 117 116 115 113 112 112 110 108 108 108 108 107 108 110 108 110 111 110 110 110 111 112 108 110 111 113 114 115 116 118 118 119 119 114 109 111 111 107 109 108 108 109 110 111 110 109 112 108 110 111 108 104 103 102 103 104 103 106 106 108 112 112 113 110 109 108 107 107 107 106 105 105 108 111 112 113 112 112 112 111 109 109 111 108 108 108 108 109 110 110 111 110 115 115 115 116 117 119 120 120 119 121 121 121 120 119 119 116 117 119 116 118 118 119 118 117 118 117 117 120 119 120 119 121 123 123 124 124 125 127 125 125 125 126 125 127 126 127 130 133 133 133 134 0 0 0 0 0
    0 0 0 0 0 0 0 0 0 0 0 0 0 0 0 0 0 0 0 0 0 0 0 0 0 0 0 0 0 0 0 0 0 0 0 0 0 0 0 0 0 0 0 0 0 0 0 0 0 0 0 0 0 0 0 0 0 0 0 0 0 0 0 0 0 0 0 0 0 116 117 117 117 116 118 -193 118 121 120 120 120 118 119 119 119 120 120 120 120 121 122 121 122 120 121 121 121 119 118 118 118 117 117 116 117 110 115 114 116 116 116 116 115 115 116 116 117 -193 -193 116 116 116 116 117 117 118 119 118 118 119 119 119 119 118 118 116 116 116 115 117 116 113 112 112 112 111 110 109 106 107 108 110 110 109 110 116 111 112 112 112 112 112 113 114 113 120 120 120 122 121 121 120 118 117 116 115 114 113 110 108 109 109 108 108 109 111 109 111 112 112 111 111 113 113 110 112 114 115 116 117 118 119 119 119 119 115 111 112 112 108 109 109 109 109 112 113 112 111 115 112 114 115 113 105 104 104 104 105 103 106 106 109 114 114 115 111 110 109 108 108 107 106 106 106 111 113 114 115 114 114 114 113 110 109 112 108 108 108 108 110 110 110 110 110 115 115 115 115 116 118 119 120 120 122 122 121 120 119 120 118 119 120 117 119 119 120 119 119 119 119 120 122 122 123 122 124 124 124 124 125 125 126 124 125 125 126 126 128 126 127 131 132 132 132 133 0 0 0 0 0
    0 0 0 0 0 0 0 0 0 0 0 0 0 0 0 0 0 0 0 0 0 0 0 0 0 0 0 0 0 0 0 0 0 0 0 0 0 0 0 0 0 0 0 0 0 0 0 0 0 0 0 0 0 0 0 0 0 0 0 0 0 0 0 0 0 0 0 0 0 117 117 117 117 116 119 -193 118 121 121 120 121 120 120 121 -193 123 121 120 -193 -193 120 120 119 119 119 119 120 118 118 118 118 117 -193 -193 -193 110 116 116 117 117 117 116 116 116 116 117 118 -193 -193 117 117 117 118 118 118 119 119 119 119 119 119 119 119 119 118 118 117 118 118 119 118 117 115 114 114 115 114 115 111 114 114 117 116 116 117 119 114 115 115 115 114 115 116 116 116 121 121 121 123 123 122 121 -209 118 117 116 115 114 110 109 109 110 109 108 110 113 110 112 114 113 113 113 115 114 111 114 116 117 117 118 119 119 119 119 119 115 113 114 114 110 111 111 110 111 115 116 116 115 117 116 117 117 117 107 106 105 105 107 104 108 108 111 116 115 116 113 111 110 109 109 108 107 107 108 116 116 116 117 117 116 116 115 113 111 114 109 108 108 109 110 110 110 110 110 114 115 115 116 117 120 121 121 121 123 123 122 121 121 119 119 119 121 118 120 120 120 120 120 120 119 121 123 123 124 123 124 125 124 125 125 125 126 124 124 125 125 126 128 126 127 132 132 132 132 132 0 0 0 0 0
    0 0 0 0 0 0 0 0 0 0 0 0 0 0 0 0 0 0 0 0 0 0 0 0 0 0 0 0 0 0 0 0 0 0 0 0 0 0 0 0 0 0 0 0 0 0 0 0 0 0 0 0 0 0 0 0 0 0 0 0 0 0 0 0 0 0 0 0 0 117 117 117 117 117 119 -193 120 122 122 122 122 123 122 123 -193 -193 -209 120 -209 -209 120 118 118 117 117 118 119 117 117 117 117 117 117 -193 117 110 116 116 117 117 117 116 116 116 116 117 117 116 116 116 117 117 118 119 119 119 120 120 120 119 119 119 119 119 119 118 118 118 119 120 119 119 118 117 116 116 117 118 117 119 118 120 120 120 120 121 117 117 117 116 116 117 117 117 117 121 121 121 124 124 124 123 122 120 120 119 118 116 111 109 110 110 109 109 112 115 113 114 115 115 115 115 116 115 113 116 118 -193 119 119 119 120 120 120 119 116 115 115 116 114 114 114 113 115 119 119 119 118 119 118 118 118 118 109 109 106 106 110 107 114 112 115 118 117 118 115 113 111 110 110 110 109 109 111 118 118 118 118 118 118 117 117 115 112 115 110 109 108 109 111 110 111 111 111 115 115 116 117 118 121 121 122 122 123 123 122 121 121 119 119 119 120 118 119 119 120 119 120 120 120 122 124 123 125 124 125 125 124 124 125 125 125 124 124 125 125 126 128 126 127 132 131 131 131 132 0 0 0 0 0
    0 0 0 0 0 0 0 0 0 0 0 0 0 0 0 0 0 0 0 0 0 0 0 0 0 0 0 0 0 0 0 0 0 0 0 0 0 0 0 0 0 0 0 0 0 0 0 0 0 0 0 0 0 0 0 0 0 0 0 0 0 0 0 0 0 0 0 0 0 117 117 117 117 117 119 -193 121 123 123 124 127 129 128 -209 -209 -209 -209 -209 -209 -209 -209 -193 118 117 116 117 119 116 117 117 117 116 116 116 116 109 116 115 116 116 116 116 116 116 116 117 117 116 117 117 118 118 119 119 119 120 120 120 120 119 119 119 119 119 118 118 118 118 119 120 120 121 120 -193 117 118 118 119 119 120 119 121 120 121 121 122 118 118 118 117 117 117 118 118 117 121 122 121 124 124 125 124 124 122 122 121 121 119 117 112 113 112 111 111 115 117 115 116 117 117 117 117 117 116 114 117 119 121 121 120 120 120 121 121 119 117 116 117 117 116 116 117 117 118 121 121 120 120 119 119 119 119 118 112 113 108 108 113 114 118 117 117 119 118 119 117 116 113 113 112 112 112 112 115 120 119 119 119 119 119 118 118 116 113 115 111 110 109 110 111 111 111 111 111 115 115 117 118 120 122 122 123 123 123 123 123 121 122 121 122 121 122 120 121 121 121 120 120 121 121 123 124 124 124 124 124 124 123 123 124 124 124 123 124 125 126 126 129 126 127 133 131 131 131 131 0 0 0 0 0
    0 0 0 0 0 0 0 0 0 0 0 0 0 0 0 0 0 0 0 0 0 0 0 0 0 0 0 0 0 0 0 0 0 0 0 0 0 0 0 0 0 0 0 0 0 0 0 0 0 0 0 0 0 0 0 0 0 0 0 0 0 0 0 0 0 0 0 0 0 117 117 117 117 117 119 119 121 124 123 125 131 133 133 -209 -209 131 -209 -209 -209 -209 -193 117 117 117 115 116 119 116 116 116 116 116 116 116 116 108 116 115 116 116 116 116 117 116 117 117 117 117 118 118 119 119 119 120 120 121 121 121 120 119 119 119 119 119 118 119 118 118 119 120 120 121 120 -209 118 119 119 119 120 120 119 121 120 121 121 122 118 118 118 118 118 118 118 119 118 122 122 122 124 124 125 125 124 123 123 122 123 121 120 115 115 114 113 113 117 118 117 117 117 118 118 118 118 117 115 118 121 122 122 122 122 122 122 122 121 119 117 118 118 118 118 118 118 119 122 122 121 121 120 120 120 120 120 115 116 112 111 117 118 120 121 119 120 119 120 119 119 117 116 114 116 116 116 118 -209 119 119 119 120 119 119 119 117 115 116 112 111 110 112 112 111 112 112 113 116 116 117 119 121 123 123 124 123 124 124 124 122 124 123 125 124 126 124 124 124 122 121 122 121 121 123 124 123 124 123 123 123 123 122 123 123 123 123 124 125 126 127 130 127 129 133 131 130 130 131 0 0 0 0 0
    0 0 0 0 0 0 0 0 0 0 0 0 0 0 0 0 0 0 0 0 0 0 0 0 0 0 0 0 0 0 0 0 0 0 0 0 0 0 0 0 0 0 0 0 0 0 0 0 0 0 0 0 0 0 0 0 0 0 0 0 0 0 0 0 0 0 0 0 0 117 117 116 117 117 119 119 121 124 124 128 133 134 136 139 138 134 -193 124 123 120 119 118 117 117 116 116 118 115 116 116 116 116 115 116 116 108 116 114 116 116 116 117 117 117 117 118 118 118 119 119 120 119 120 120 120 122 121 121 121 120 120 119 119 119 118 118 118 118 119 120 121 121 121 -193 120 120 119 119 119 119 119 121 121 121 121 122 118 118 119 118 118 118 118 119 119 122 122 122 124 124 125 124 124 122 123 122 123 121 121 116 116 116 115 116 119 119 118 117 118 118 118 119 119 117 116 119 122 124 123 123 123 122 123 123 121 120 118 119 118 118 119 119 119 120 124 123 122 121 121 121 120 120 120 117 118 115 116 120 121 122 122 120 121 120 122 121 120 119 118 116 118 118 118 119 -209 120 119 120 120 120 119 119 118 115 117 114 113 112 114 114 113 113 113 114 117 117 118 121 121 123 123 124 124 124 124 124 123 124 124 129 127 130 128 128 126 123 123 123 122 122 124 124 124 124 123 123 123 122 122 123 124 123 124 125 126 128 128 131 128 131 134 131 131 131 131 0 0 0 0 0
    0 0 0 0 0 0 0 0 0 0 0 0 0 0 0 0 0 0 0 0 0 0 0 0 0 0 0 0 0 0 0 0 0 0 0 0 0 0 0 0 0 0 0 0 0 0 0 0 0 0 0 0 0 0 0 0 0 0 0 0 0 0 0 0 0 0 0 0 0 117 116 116 116 117 119 119 121 124 -209 130 135 135 137 140 139 136 136 132 130 128 122 120 120 119 117 116 119 116 116 116 117 116 115 116 116 108 116 114 115 116 116 117 118 118 118 120 120 -193 -193 121 122 121 122 123 122 124 123 122 122 120 121 120 120 119 118 118 118 118 120 120 121 122 122 122 121 122 120 120 120 120 120 122 121 122 122 122 119 119 119 118 118 119 119 119 119 122 122 122 125 124 125 124 124 122 123 122 122 121 120 117 118 118 117 118 119 119 118 118 118 118 119 119 118 117 117 119 122 124 123 123 123 123 123 123 121 120 118 119 118 119 120 119 120 121 125 122 122 121 121 120 120 120 120 117 119 116 117 120 121 121 122 122 123 122 123 123 122 121 120 118 120 120 120 120 123 121 121 121 121 120 120 120 120 117 118 116 116 114 115 115 114 115 115 115 117 117 119 122 122 123 123 124 124 124 124 124 123 125 126 132 130 132 131 131 129 124 125 125 123 123 126 125 124 125 124 124 123 123 122 124 123 123 124 125 127 129 129 131 129 133 134 131 131 131 131 0 0 0 0 0
    0 0 0 0 0 0 0 0 0 0 0 0 0 0 0 0 0 0 0 0 0 0 0 0 0 0 0 0 0 0 0 0 0 0 0 0 0 0 0 0 0 0 0 0 0 0 0 0 0 0 0 0 0 0 0 0 0 0 0 0 0 0 0 0 0 0 0 0 0 117 116 116 117 117 120 120 121 126 -193 132 135 135 137 139 138 136 137 134 133 133 127 125 122 120 118 117 119 116 116 116 116 116 115 116 116 109 117 116 116 117 118 120 -193 120 120 122 123 -193 -193 124 127 126 130 128 127 129 126 124 124 121 122 121 120 120 118 119 118 118 120 121 122 123 124 124 123 125 122 122 121 121 121 122 122 122 122 123 120 120 120 119 119 119 119 119 120 122 123 122 125 124 125 124 124 122 123 122 122 121 120 118 119 119 118 119 120 120 119 118 118 118 119 119 118 117 117 119 121 123 122 123 123 123 124 123 121 120 119 119 118 119 119 119 119 121 125 122 122 121 121 120 120 120 119 117 118 116 116 120 120 121 123 123 125 124 125 125 124 123 123 121 122 122 122 122 125 122 122 121 122 121 121 121 121 118 119 118 118 116 117 116 116 116 116 116 118 118 120 124 122 123 123 124 124 124 124 124 122 125 128 133 131 133 133 132 131 128 128 128 124 126 128 127 126 126 125 124 123 123 122 124 124 125 125 127 130 132 132 133 131 134 134 131 131 131 132 0 0 0 0 0
    0 0 0 0 0 0 0 0 0 0 0 0 0 0 0 0 0 0 0 0 0 0 0 0 0 0 0 0 0 0 0 0 0 0 0 0 0 0 0 0 0 0 0 0 0 0 0 0 0 0 0 0 0 0 0 0 0 0 0 0 0 0 0 0 0 0 0 0 0 118 117 117 117 118 121 121 123 130 129 133 135 135 137 138 138 136 136 135 134 135 132 131 125 124 120 117 119 116 116 116 117 116 115 117 117 110 119 -209 -209 -193 -193 123 -193 123 124 125 126 -193 -193 128 131 132 133 132 132 133 130 127 128 122 122 121 120 120 119 119 119 119 121 121 123 125 126 126 125 127 124 123 122 122 121 124 123 123 123 124 121 120 120 120 119 120 119 120 120 122 123 123 126 125 126 125 124 123 124 123 123 122 121 120 120 120 118 118 119 119 119 119 118 118 118 118 118 117 117 119 121 123 122 123 123 123 123 123 121 120 119 119 118 118 118 118 118 121 125 122 122 121 121 120 120 120 119 116 118 115 115 119 120 120 122 124 124 125 125 125 124 123 123 122 122 123 123 123 126 122 122 122 122 122 122 121 121 119 121 120 119 118 118 118 117 117 117 118 119 120 121 129 124 124 123 124 124 123 124 124 122 125 129 133 131 133 132 132 130 129 129 128 125 128 128 127 126 127 125 124 123 123 123 124 125 126 127 130 133 134 133 133 132 134 134 132 132 132 132 0 0 0 0 0
    0 0 0 0 0 0 0 0 0 0 0 0 0 0 0 0 0 0 0 0 0 0 0 0 0 0 0 0 0 0 0 0 0 0 0 0 0 0 0 0 0 0 0 0 0 0 0 0 0 0 0 0 0 0 0 0 0 0 0 0 0 0 0 0 0 0 0 0 0 118 118 118 118 120 122 123 126 133 133 135 136 136 137 139 137 136 136 135 135 135 134 134 130 132 -193 117 119 116 117 116 117 116 115 117 118 113 121 -209 -209 -193 125 128 129 127 129 130 129 133 -193 131 134 135 135 134 134 134 133 131 132 125 125 123 122 121 120 120 120 120 122 123 125 128 130 131 130 131 127 127 123 123 123 125 124 124 125 126 121 121 121 120 120 120 120 120 120 122 123 123 127 126 127 127 125 125 126 125 126 123 124 122 123 123 120 119 120 120 119 119 119 119 119 119 118 117 118 120 121 123 122 123 123 123 123 122 120 120 119 118 118 119 119 118 119 121 125 122 122 121 120 120 120 119 119 115 118 116 115 118 118 119 121 123 124 125 125 125 125 124 123 122 122 124 124 124 126 122 122 122 122 122 122 121 121 119 120 120 120 119 119 119 119 119 119 120 122 122 124 132 125 124 124 124 124 123 124 125 122 126 130 132 131 132 132 132 130 128 129 127 124 126 126 125 125 126 125 123 124 124 124 125 130 133 133 134 136 136 134 134 133 134 134 132 132 132 132 0 0 0 0 0
    0 0 0 0 0 0 0 0 0 0 0 0 0 0 0 0 0 0 0 0 0 0 0 0 0 0 0 0 0 0 0 0 0 0 0 0 0 0 0 0 0 0 0 0 0 0 0 0 0 0 0 0 0 0 0 0 0 0 0 0 0 0 0 0 0 0 0 0 0 121 121 120 121 122 125 126 132 136 136 137 137 138 138 139 138 136 136 135 135 135 134 134 132 134 132 120 120 117 118 117 117 117 116 118 119 -193 123 -209 -193 -193 132 133 133 131 132 132 132 134 -193 133 135 136 136 135 135 135 135 134 134 129 128 126 124 123 122 122 122 121 124 125 128 132 133 135 133 133 130 132 129 125 125 127 126 126 127 128 122 123 122 121 120 120 120 120 121 123 126 125 130 129 131 131 128 128 129 126 127 124 126 124 127 127 124 122 124 122 122 121 121 121 120 120 119 119 119 121 122 125 -193 -193 -193 124 124 123 121 -193 119 119 119 120 119 118 120 122 126 121 121 121 121 120 120 119 119 116 118 116 115 117 117 119 121 124 124 126 125 126 126 124 123 122 122 124 124 124 125 122 122 122 122 122 121 121 121 119 120 120 120 118 119 119 118 118 119 120 122 122 124 132 124 123 123 123 123 123 123 124 122 126 132 132 131 132 132 131 130 130 130 128 124 127 127 127 126 127 125 123 123 124 126 128 133 134 134 135 136 136 134 133 133 135 134 133 133 133 133 0 0 0 0 0
    0 0 0 0 0 0 0 0 0 0 0 0 0 0 0 0 0 0 0 0 0 0 0 0 0 0 0 0 0 0 0 0 0 0 0 0 0 0 0 0 0 0 0 0 0 0 0 0 0 0 0 0 0 0 0 0 0 0 0 0 0 0 0 0 0 0 0 0 0 130 129 128 129 131 131 132 136 136 137 138 138 138 138 139 138 136 136 135 135 135 134 134 133 135 135 123 125 118 120 119 119 119 116 120 121 -209 -193 -209 -193 -193 135 134 134 133 133 133 133 134 135 135 136 136 137 136 136 136 136 135 135 132 131 129 128 126 125 125 124 122 126 128 130 133 134 136 133 134 133 -193 -209 129 128 128 127 128 129 130 123 124 123 122 122 122 122 122 122 126 130 129 132 132 133 133 131 131 131 127 127 125 127 125 129 130 127 124 128 125 125 123 123 123 122 121 120 120 121 125 124 -193 -193 -193 -193 125 125 124 122 -209 -193 -193 119 120 121 119 121 122 127 122 122 122 122 121 121 120 119 117 119 118 116 117 118 119 120 125 124 125 124 125 125 124 123 123 122 124 125 126 126 122 122 122 122 122 121 121 120 119 119 119 120 118 118 118 118 118 118 120 123 122 124 132 124 122 122 123 123 123 123 124 122 126 133 133 131 131 131 132 131 130 131 128 126 131 130 -193 -193 135 133 127 128 127 131 134 135 136 135 136 136 136 135 134 134 135 133 133 133 134 134 0 0 0 0 0
    0 0 0 0 0 0 0 0 0 0 0 0 0 0 0 0 0 0 0 0 0 0 0 0 0 0 0 0 0 0 0 0 0 0 0 0 0 0 0 0 0 0 0 0 0 0 0 0 0 0 0 0 0 0 0 0 0 0 0 0 0 0 0 0 0 0 0 0 0 134 134 134 134 136 135 135 137 136 138 139 139 139 138 139 138 136 136 136 135 135 135 135 134 135 135 128 131 123 124 122 121 123 118 -193 -193 -209 -209 139 138 137 136 136 136 135 135 135 134 135 136 136 136 137 137 137 136 137 137 136 136 133 132 132 131 131 130 130 127 126 130 131 132 134 135 137 133 134 134 -209 -209 131 130 129 128 129 130 131 125 125 125 124 124 125 124 125 125 131 133 133 135 134 136 135 135 134 133 129 128 125 127 125 130 131 130 126 131 128 129 126 125 126 125 125 123 124 129 131 130 -193 -193 128 126 127 126 124 122 -193 -193 -193 121 122 123 122 124 124 130 124 123 123 122 121 121 120 119 119 120 120 119 119 -193 129 130 129 126 125 123 124 124 124 123 123 122 124 126 128 127 123 123 122 122 122 121 121 120 119 119 119 120 119 118 119 119 119 120 121 124 123 124 132 123 122 122 123 123 123 123 124 123 127 133 133 131 131 131 132 131 132 131 130 129 134 135 139 140 141 139 138 137 135 136 137 137 137 137 137 136 136 136 134 134 135 132 133 133 134 134 0 0 0 0 0
    0 0 0 0 0 0 0 0 0 0 0 0 0 0 0 0 0 0 0 0 0 0 0 0 0 0 0 0 0 0 0 0 0 0 0 0 0 0 0 0 0 0 0 0 0 0 0 0 0 0 0 0 0 0 0 0 0 0 0 0 0 0 0 0 0 0 0 0 0 135 135 135 135 137 136 136 138 136 137 138 138 138 138 138 137 136 137 136 135 135 135 135 135 135 136 133 134 133 132 131 129 133 -209 -209 -193 -209 -209 138 138 137 137 136 137 137 136 137 136 136 137 137 138 138 137 138 137 137 137 136 136 134 134 133 133 133 133 134 132 131 134 135 135 136 138 139 135 136 136 -193 -193 135 133 132 131 132 133 134 127 128 128 127 129 129 129 129 127 134 135 135 136 137 138 138 138 137 136 134 133 128 130 129 132 132 132 129 133 130 132 129 127 129 129 130 129 130 134 134 133 135 132 132 129 129 129 125 123 124 -193 123 123 124 127 125 132 128 133 126 124 124 123 122 122 121 119 119 121 123 122 123 126 133 132 131 127 127 124 125 125 125 125 125 123 126 126 129 127 124 123 122 122 123 122 121 121 120 120 120 122 121 120 121 121 122 122 122 126 124 124 132 123 122 122 122 123 123 124 124 123 128 133 133 131 131 131 132 132 133 132 131 132 137 138 141 142 142 140 140 140 138 138 139 138 138 137 137 137 137 136 135 134 135 133 135 135 136 137 0 0 0 0 0
    0 0 0 0 0 0 0 0 0 0 0 0 0 0 0 0 0 0 0 0 0 0 0 0 0 0 0 0 0 0 0 0 0 0 0 0 0 0 0 0 0 0 0 0 0 0 0 0 0 0 0 0 0 0 0 0 0 0 0 0 0 0 0 0 0 0 0 0 0 135 135 135 135 136 136 135 137 135 136 137 137 138 138 138 137 136 137 136 136 136 136 136 136 136 137 136 137 137 137 136 136 137 -209 -209 137 137 -193 137 137 136 136 136 137 136 136 137 136 136 138 137 138 138 137 138 137 137 137 137 137 134 134 135 134 135 135 136 135 135 137 138 138 138 140 140 138 137 138 138 -193 137 135 134 134 134 135 136 132 132 132 133 -193 -193 134 133 131 135 136 136 138 138 138 139 139 138 138 137 136 132 133 133 134 134 134 132 134 133 134 132 131 132 132 133 134 134 137 136 136 137 137 135 134 132 133 125 125 126 125 126 126 127 131 129 134 132 134 130 127 127 126 125 124 123 121 123 128 134 132 137 137 138 137 135 133 132 129 129 129 128 129 129 126 129 128 132 128 124 123 123 123 123 122 122 121 121 122 123 126 126 127 126 128 129 128 128 131 126 125 132 123 122 121 122 123 123 124 124 123 128 133 132 131 131 131 132 133 134 133 132 133 137 138 140 140 140 139 139 139 139 137 139 138 138 138 138 137 137 137 137 134 135 133 135 135 137 138 0 0 0 0 0
    0 0 0 0 0 0 0 0 0 0 0 0 0 0 0 0 0 0 0 0 0 0 0 0 0 0 0 0 0 0 0 0 0 0 0 0 0 0 0 0 0 0 0 0 0 0 0 0 0 0 0 0 0 0 0 0 0 0 0 0 0 0 0 0 0 0 0 0 0 135 135 134 134 135 135 134 136 135 135 136 -193 138 138 138 137 135 137 136 136 137 136 136 136 137 138 137 138 139 138 138 138 140 140 139 140 139 139 138 138 137 136 136 137 137 136 138 -193 137 139 138 139 138 137 137 137 137 137 -193 -193 134 135 136 136 136 137 137 136 136 138 138 139 139 140 140 139 139 139 139 138 138 136 136 136 136 136 138 136 136 136 137 137 -193 137 136 133 137 137 138 138 138 139 139 140 139 138 137 137 135 135 135 136 136 136 136 137 135 136 135 134 135 135 135 136 137 138 138 138 138 -193 137 137 136 136 128 130 130 130 131 131 131 134 133 136 134 135 133 131 133 131 130 127 127 127 132 136 137 137 138 138 138 138 137 137 135 134 134 134 133 134 134 132 133 132 134 130 125 124 123 123 124 123 122 121 122 124 127 133 133 135 133 134 134 134 133 134 130 129 132 123 122 122 122 123 123 124 124 123 128 133 133 132 131 132 132 134 136 135 135 137 140 141 142 142 141 139 140 139 140 137 139 138 138 138 138 138 138 139 139 137 138 137 141 139 141 141 0 0 0 0 0
    0 0 0 0 0 0 0 0 0 0 0 0 0 0 0 0 0 0 0 0 0 0 0 0 0 0 0 0 0 0 0 0 0 0 0 0 0 0 0 0 0 0 0 0 0 0 0 0 0 0 0 0 0 0 0 0 0 0 0 0 0 0 0 0 0 0 0 0 0 135 134 133 133 134 134 133 135 134 135 136 136 138 -193 -193 137 135 137 136 136 136 136 136 136 137 138 137 139 139 139 139 140 141 141 140 140 140 -193 139 139 137 137 137 138 138 -193 139 -193 138 141 139 141 138 137 137 137 137 137 -193 -193 133 135 136 136 136 137 137 136 136 138 138 140 139 140 140 140 139 140 139 139 137 136 135 136 136 136 139 137 138 138 139 140 139 139 138 137 139 139 139 139 139 139 140 140 139 139 138 137 137 137 137 137 138 138 138 138 138 138 137 136 136 136 137 138 138 139 139 139 139 138 138 138 137 137 133 134 134 134 134 133 134 135 136 137 135 136 134 134 135 133 133 130 131 134 135 138 138 138 139 139 139 139 138 138 137 137 137 137 136 138 137 136 136 135 137 132 127 125 123 123 125 123 123 122 124 130 132 137 136 139 137 137 137 137 136 136 133 133 132 124 122 122 122 124 124 125 124 124 130 134 133 133 132 133 134 135 137 136 138 139 142 142 142 142 142 140 141 139 140 137 139 137 138 138 138 138 138 138 139 137 138 139 143 140 141 142 0 0 0 0 0
    0 0 0 0 0 0 0 0 0 0 0 0 0 0 0 0 0 0 0 0 0 0 0 0 0 0 0 0 0 0 0 0 0 0 0 0 0 0 0 0 0 0 0 0 0 0 0 0 0 0 0 0 0 0 0 0 0 0 0 0 0 0 0 0 0 0 0 0 0 135 134 133 133 134 134 133 135 133 134 136 136 138 -193 -193 138 135 137 136 136 136 136 136 136 136 138 137 139 139 139 140 140 142 141 141 140 139 140 139 139 138 137 137 138 138 -193 139 -193 139 142 139 142 138 138 137 137 137 -193 -193 683 132 135 135 136 136 137 137 136 136 138 138 140 139 140 140 140 140 140 139 138 137 135 134 135 135 136 139 138 139 139 140 141 140 140 140 138 140 140 140 140 139 140 140 140 140 139 138 138 137 138 138 138 138 139 139 139 139 139 137 137 138 137 137 138 138 139 139 139 139 138 138 139 139 139 138 138 138 137 137 136 136 136 137 137 137 136 135 135 137 135 135 134 135 137 137 139 139 139 139 139 139 139 138 139 138 138 139 139 139 140 139 138 138 137 138 134 130 128 125 125 127 125 125 123 126 134 135 140 139 142 139 140 139 139 138 138 135 136 133 125 123 123 122 124 125 126 125 125 132 135 134 134 133 134 135 137 139 138 140 140 142 142 142 142 141 140 141 138 140 137 139 137 138 138 139 138 138 139 139 138 139 140 143 141 141 142 0 0 0 0 0
    0 0 0 0 0 0 0 0 0 0 0 0 0 0 0 0 0 0 0 0 0 0 0 0 0 0 0 0 0 0 0 0 0 0 0 0 0 0 0 0 0 0 0 0 0 0 0 0 0 0 0 0 0 0 0 0 0 0 0 0 0 0 0 0 0 0 0 0 0 135 135 134 134 135 135 134 135 134 134 136 136 138 139 138 139 135 136 136 136 136 136 136 135 136 137 137 139 138 138 139 140 142 141 140 139 139 140 139 139 138 137 138 139 140 -193 140 140 141 142 140 144 139 138 138 137 137 137 -193 683 132 135 135 136 136 136 137 136 136 138 138 140 138 140 140 139 140 141 139 138 136 135 134 136 136 136 139 138 139 140 140 141 140 140 140 138 140 140 140 140 140 140 140 140 140 139 138 138 138 138 138 138 139 140 140 140 139 139 138 137 139 138 137 138 138 138 138 139 139 138 138 140 140 140 140 140 140 139 139 138 137 138 139 138 138 138 137 137 139 138 137 136 138 139 139 141 140 140 140 140 140 140 139 139 138 139 140 140 139 140 138 138 138 137 138 135 132 131 129 128 130 129 128 125 131 137 138 142 140 142 141 141 140 140 139 139 137 137 134 126 123 123 122 126 126 127 126 127 134 136 135 135 134 135 136 138 141 139 142 141 143 143 142 142 141 140 141 138 140 137 139 138 139 139 140 139 139 140 140 139 140 142 144 142 142 143 0 0 0 0 0
    0 0 0 0 0 0 0 0 0 0 0 0 0 0 0 0 0 0 0 0 0 0 0 0 0 0 0 0 0 0 0 0 0 0 0 0 0 0 0 0 0 0 0 0 0 0 0 0 0 0 0 0 0 0 0 0 0 0 0 0 0 0 0 0 0 0 0 0 0 135 134 133 133 134 134 133 135 134 133 135 135 137 138 138 139 136 136 136 136 137 136 136 136 136 137 137 138 138 138 139 139 141 141 140 139 138 139 139 139 139 137 139 140 141 141 141 141 142 141 140 144 139 138 138 137 137 137 -193 683 131 134 134 135 135 136 136 136 135 137 138 139 138 139 139 139 140 141 139 138 136 135 134 136 136 136 140 138 139 140 140 141 140 140 140 137 140 140 140 140 140 140 140 141 140 139 139 139 139 139 139 139 140 141 143 140 139 139 138 138 140 138 138 138 138 138 138 139 139 138 138 140 140 140 140 140 140 140 140 139 138 139 139 139 139 139 138 138 140 139 139 138 140 140 140 143 140 140 140 140 140 140 139 139 138 139 140 139 139 139 137 137 137 -209 137 135 134 133 132 131 132 133 133 130 135 139 139 143 141 143 142 141 141 140 139 139 137 138 135 128 124 125 124 131 131 131 130 132 136 137 137 136 136 136 137 139 142 140 143 142 143 143 143 143 142 140 141 139 141 138 140 141 141 141 142 141 141 141 141 140 141 144 146 143 143 144 0 0 0 0 0
    0 0 0 0 0 0 0 0 0 0 0 0 0 0 0 0 0 0 0 0 0 0 0 0 0 0 0 0 0 0 0 0 0 0 0 0 0 0 0 0 0 0 0 0 0 0 0 0 0 0 0 0 0 0 0 0 0 0 0 0 0 0 0 0 0 0 0 0 0 135 134 133 133 134 134 134 136 135 134 135 135 136 139 138 140 136 136 136 137 137 137 136 136 136 137 137 138 137 137 139 138 140 140 140 139 138 139 139 139 139 138 140 141 142 142 142 142 143 141 140 144 139 138 138 137 137 137 137 -193 130 133 132 134 134 135 136 135 135 137 138 139 138 139 140 139 140 140 139 138 137 135 135 137 137 136 141 139 140 140 140 141 140 140 140 137 140 140 141 141 140 141 141 141 141 140 139 139 140 140 140 140 140 142 144 141 140 140 138 138 141 138 138 138 138 138 138 139 139 138 139 140 140 140 140 140 140 140 140 139 138 139 140 139 139 139 139 139 141 141 140 140 141 141 141 143 140 140 140 140 140 140 140 139 138 139 139 139 139 138 138 137 138 -193 138 136 136 135 135 135 135 136 136 135 138 142 141 144 141 143 142 142 141 141 140 140 138 139 137 133 127 130 134 136 137 136 135 137 139 139 139 137 137 137 138 141 144 140 144 142 143 143 142 142 141 140 141 139 142 140 145 151 148 146 147 147 145 143 142 142 144 146 147 144 144 145 0 0 0 0 0
    0 0 0 0 0 0 0 0 0 0 0 0 0 0 0 0 0 0 0 0 0 0 0 0 0 0 0 0 0 0 0 0 0 0 0 0 0 0 0 0 0 0 0 0 0 0 0 0 0 0 0 0 0 0 0 0 0 0 0 0 0 0 0 0 0 0 0 0 0 134 134 133 133 134 135 135 137 138 136 136 135 137 141 140 140 136 136 136 137 138 137 137 136 136 137 137 139 137 137 139 139 140 140 141 140 139 140 140 139 140 139 141 142 143 143 143 143 143 141 139 144 139 139 138 137 137 137 137 138 131 133 132 134 134 135 136 135 135 137 138 140 139 140 140 139 140 141 139 138 137 136 135 137 138 136 142 139 140 140 140 141 140 140 140 137 140 140 141 141 141 141 141 141 141 140 139 140 140 140 141 141 141 142 145 142 141 141 139 138 143 139 138 138 138 139 139 139 139 138 139 140 140 140 140 141 140 140 140 139 139 139 140 139 139 140 139 140 141 141 140 140 142 141 142 143 140 141 140 141 140 140 140 139 138 139 139 139 139 139 138 138 138 138 138 137 137 137 -193 -193 138 139 139 139 141 145 143 145 142 144 143 142 141 141 140 140 139 140 137 137 136 138 139 140 142 141 140 141 141 141 141 139 138 138 139 142 145 141 144 142 143 143 142 142 141 139 141 139 144 143 151 156 153 152 152 151 150 147 146 147 148 149 148 145 146 146 0 0 0 0 0
    0 0 0 0 0 0 0 0 0 0 0 0 0 0 0 0 0 0 0 0 0 0 0 0 0 0 0 0 0 0 0 0 0 0 0 0 0 0 0 0 0 0 0 0 0 0 0 0 0 0 0 0 0 0 0 0 0 0 0 0 0 0 0 0 0 0 0 0 0 134 133 133 133 134 135 136 139 141 140 138 -193 137 143 146 147 136 136 136 137 138 138 136 136 136 137 137 140 138 137 139 -193 141 -193 142 -193 141 -193 -193 -193 -193 -193 -193 -193 -193 144 -193 -193 -193 -193 139 144 139 139 138 138 138 137 138 138 132 134 133 134 135 135 136 136 135 137 138 140 139 140 140 139 140 141 139 139 137 136 136 138 138 137 142 139 140 140 140 140 140 140 140 137 140 139 140 141 140 140 140 140 140 139 138 139 139 140 141 141 141 142 143 142 141 141 139 139 144 139 139 138 139 139 139 139 140 -193 140 140 141 140 140 141 141 141 140 140 139 140 141 140 139 140 139 140 141 141 140 140 142 141 142 143 141 141 140 141 140 140 140 139 139 139 139 139 139 139 138 138 138 138 139 137 138 138 139 -193 140 140 141 142 143 146 144 145 142 145 143 143 142 142 141 141 140 141 138 139 141 144 145 146 148 147 147 148 146 145 145 142 141 141 143 144 147 143 145 143 144 143 143 143 142 139 142 140 147 147 152 155 154 154 154 154 152 150 150 150 151 151 148 146 148 148 0 0 0 0 0
    0 0 0 0 0 0 0 0 0 0 0 0 0 0 0 0 0 0 0 0 0 0 0 0 0 0 0 0 0 0 0 0 0 0 0 0 0 0 0 0 0 0 0 0 0 0 0 0 0 0 0 0 0 0 0 0 0 0 0 0 0 0 0 0 0 0 0 0 0 135 135 133 135 136 136 140 143 148 -209 -209 144 139 145 -193 159 -209 -209 136 138 139 138 137 136 137 137 138 142 138 136 -209 -209 -193 -209 -209 -209 -209 -209 -193 -193 -193 -193 -193 -193 -193 -193 258 256 256 253 -193 -193 139 139 138 138 138 138 138 139 133 135 133 134 134 135 135 135 135 136 138 140 139 140 -193 139 140 140 139 139 137 137 136 138 138 138 142 139 140 139 139 140 139 139 139 137 139 139 139 140 140 140 139 139 140 139 138 139 139 140 140 141 140 141 142 141 140 140 140 139 144 139 139 139 139 139 139 140 140 -193 140 141 141 140 141 141 141 141 140 140 139 140 141 140 139 140 139 140 140 141 140 140 142 141 142 143 141 141 141 141 140 140 140 139 138 139 139 139 139 139 138 138 138 138 138 137 138 138 138 138 139 140 141 143 144 146 144 146 142 145 144 143 142 142 141 141 140 142 139 140 142 145 146 146 148 147 148 148 147 148 148 147 147 147 148 147 148 144 146 144 144 144 143 143 143 140 144 141 148 149 152 154 154 154 154 155 154 151 152 152 153 152 149 147 148 149 0 0 0 0 0
    0 0 0 0 0 0 0 0 0 0 0 0 0 0 0 0 0 0 0 0 0 0 0 0 0 0 0 0 0 0 0 0 0 0 0 0 0 0 0 0 0 0 0 0 0 0 0 0 0 0 0 0 0 0 0 0 0 0 0 0 0 0 0 0 0 0 0 0 0 137 -193 -193 -209 -209 -209 152 -209 154 159 -209 -193 -209 149 157 166 -193 177 136 139 139 139 136 136 136 137 138 143 137 -209 -209 -209 -209 -209 246 250 -193 249 250 249 250 252 253 254 255 256 257 256 257 254 -193 -193 -193 139 137 138 137 137 139 139 133 134 132 132 132 133 135 135 -193 -193 -193 -177 0 0 0 -209 73 -209 -193 -193 -209 -209 -209 -193 139 139 143 139 140 139 139 139 139 139 138 137 138 138 139 139 139 139 139 138 139 138 137 138 138 139 139 139 139 139 140 139 139 139 139 139 144 139 139 139 139 140 139 140 140 -193 140 140 141 140 141 141 141 141 141 141 140 141 141 140 139 140 139 139 139 140 139 140 141 141 142 143 141 141 141 141 140 141 141 139 138 139 139 139 139 138 138 137 137 137 137 136 137 137 137 137 138 139 140 141 143 144 144 145 143 146 144 144 142 142 142 141 141 142 139 141 142 145 146 146 148 148 148 148 147 148 148 148 147 147 147 147 148 144 145 143 144 143 143 143 143 140 144 142 148 149 153 155 155 155 155 156 155 153 154 154 154 153 151 149 150 151 0 0 0 0 0
    0 0 0 0 0 0 0 0 0 0 0 0 0 0 0 0 0 0 0 0 0 0 0 0 0 0 0 0 0 0 0 0 0 0 0 0 0 0 0 0 0 0 0 0 0 0 0 0 0 0 0 0 0 0 0 0 0 0 0 0 0 0 0 0 0 0 0 0 0 140 147 -209 159 158 159 160 161 161 164 162 162 159 159 163 165 -193 -209 136 141 139 139 136 135 136 136 -177 -177 -193 -193 -209 -209 -209 249 248 251 250 250 251 249 251 253 253 254 254 256 258 258 258 257 -193 -209 -209 -193 -193 138 137 137 139 139 133 134 -193 -193 -193 -193 -193 -193 0 0 0 -177 0 0 0 -193 72 -177 -193 -209 -209 -209 -209 -209 141 142 147 140 141 140 139 139 138 138 -193 135 137 137 138 138 138 138 138 138 -193 -193 136 137 137 138 139 138 137 137 139 138 138 138 138 138 143 139 140 139 139 140 139 140 140 -193 140 140 141 140 140 141 141 141 141 141 140 142 142 140 140 140 139 139 139 140 138 139 141 140 142 143 141 141 140 141 140 141 141 139 139 139 139 138 139 138 137 137 136 136 136 134 136 134 134 134 137 138 138 138 141 142 144 144 143 146 144 144 142 142 142 141 141 142 139 141 142 146 147 147 149 148 148 149 147 148 148 146 146 144 146 145 148 143 144 143 144 143 143 143 143 140 144 145 149 150 153 155 155 155 155 156 154 153 155 155 155 154 153 152 153 153 0 0 0 0 0
    0 0 0 0 0 0 0 0 0 0 0 0 0 0 0 0 0 0 0 0 0 0 0 0 0 0 0 0 0 0 0 0 0 0 0 0 0 0 0 0 0 0 0 0 0 0 0 0 0 0 0 0 0 0 0 0 0 0 0 0 0 0 0 0 0 0 0 0 0 146 154 156 163 162 163 163 163 163 164 162 163 160 162 163 164 167 -193 -209 148 144 144 139 136 137 137 -177 -177 -193 -209 -209 -209 -209 250 251 257 260 257 253 250 252 254 255 -193 -193 -193 -193 -193 -193 -209 -193 -193 -193 -209 -193 137 137 138 140 -193 -209 -209 -193 -193 0 0 0 0 0 0 0 0 -177 0 -193 -193 70 75 -193 -193 -209 -209 -209 -209 145 146 -193 142 -193 -193 140 139 -193 -209 -177 133 -193 135 136 136 -193 -193 -193 0 0 -193 -193 -193 137 137 139 138 -177 136 137 137 137 138 137 137 142 139 140 139 140 140 139 140 140 -193 140 140 140 139 139 140 139 139 140 141 140 142 142 141 140 141 140 139 139 140 139 139 141 140 142 142 141 141 140 141 140 140 141 139 139 139 139 138 139 138 138 137 136 135 136 134 135 132 132 133 136 137 137 138 141 141 144 143 142 147 143 143 142 141 141 140 141 142 139 142 141 146 147 147 149 148 148 148 147 147 147 145 145 143 146 145 148 143 144 143 144 143 143 143 143 139 145 147 149 150 153 155 155 155 155 156 154 154 156 156 156 156 156 155 155 155 0 0 0 0 0
    0 0 0 0 0 0 0 0 0 0 0 0 0 0 0 0 0 0 0 0 0 0 0 0 0 0 0 0 0 0 0 0 0 0 0 0 0 0 0 0 0 0 0 0 0 0 0 0 0 0 0 0 0 0 0 0 0 0 0 0 0 0 0 0 0 0 0 0 0 153 158 159 164 163 163 163 163 163 164 163 163 161 162 164 165 167 165 -209 154 150 152 151 144 143 -177 -177 -193 -209 -209 -209 -209 248 250 253 260 -209 260 255 250 252 252 255 -209 151 154 -193 -193 -193 -209 -209 -209 -193 -209 136 137 138 139 143 -209 -209 -193 0 0 0 0 0 -193 0 0 0 0 -177 0 -209 -209 69 76 -209 -209 -209 -209 -209 -193 -209 -209 -209 -193 -193 -193 -193 -193 -193 -209 -193 131 133 -193 132 -193 -193 0 0 0 0 -193 134 136 -193 -209 -209 -209 -177 132 -209 134 135 137 137 136 140 139 140 139 140 140 140 140 141 -193 -193 139 139 138 138 -193 138 137 139 140 140 142 141 140 139 140 139 138 138 138 138 138 140 139 141 141 140 141 140 140 140 140 141 138 139 139 139 138 139 138 138 137 137 136 136 133 134 132 132 133 135 137 137 139 141 141 143 142 141 147 142 143 141 141 141 140 141 142 139 142 141 145 146 146 148 148 147 147 146 146 146 146 146 144 147 145 149 143 143 143 144 143 143 142 143 139 145 149 -193 150 153 155 155 155 155 156 155 155 157 156 156 156 157 156 157 157 0 0 0 0 0
    0 0 0 0 0 0 0 0 0 0 0 0 0 0 0 0 0 0 0 0 0 0 0 0 0 0 0 0 0 0 0 0 0 0 0 0 0 0 0 0 0 0 0 0 0 0 0 0 0 0 0 0 0 0 0 0 0 0 0 0 0 0 0 0 0 0 0 0 0 157 160 161 164 164 164 164 164 164 164 163 164 162 163 164 166 167 166 162 160 157 159 158 155 153 -193 -193 -177 -209 -209 -193 248 249 251 254 258 258 259 257 -193 252 251 -193 -193 155 161 161 162 160 158 -193 -209 -209 -209 138 140 142 146 150 -209 0 0 0 0 0 0 0 -209 0 -193 0 -177 0 -193 -209 -209 72 -209 -209 -209 -209 -209 -209 -209 -209 -209 -209 -209 -193 -193 141 139 138 -209 -193 131 132 -209 129 -193 -193 0 0 0 0 -209 133 135 -209 -209 -209 -209 -209 -209 -209 -193 133 136 135 135 139 139 140 139 140 140 140 140 141 -193 -193 -193 -193 -193 -209 -193 -209 135 138 139 139 141 141 140 139 139 138 137 137 138 137 137 138 138 140 140 140 141 140 140 140 140 141 138 139 139 139 138 139 139 139 137 137 136 136 133 133 132 132 133 136 137 137 139 140 141 142 141 141 147 141 143 141 141 142 141 141 142 139 144 142 146 147 146 147 148 147 147 145 146 146 145 146 145 148 145 149 143 143 143 144 143 143 142 143 139 144 149 149 148 151 154 155 155 156 156 154 155 157 156 156 156 157 157 157 157 0 0 0 0 0
    0 0 0 0 0 0 0 0 0 0 0 0 0 0 0 0 0 0 0 0 0 0 0 0 0 0 0 0 0 0 0 0 0 0 0 0 0 0 0 0 0 0 0 0 0 0 0 0 0 0 0 0 0 0 0 0 0 0 0 0 0 0 0 0 0 0 0 0 0 159 161 161 164 164 164 164 164 164 164 162 163 161 162 164 166 167 166 165 166 166 166 166 165 162 163 166 167 167 -209 -193 -177 -177 -193 -209 -209 -209 -193 -209 -209 -209 -193 -193 159 160 164 164 165 164 163 161 162 -209 156 147 149 -193 -193 -209 -193 0 0 0 0 0 0 0 -193 -193 -193 -193 -177 0 -209 -209 -209 75 -209 -209 -209 -209 -209 -209 -209 -209 -209 -209 -209 -209 -209 147 144 141 -193 133 131 -209 -209 -209 -209 -193 0 0 0 0 -209 130 -193 -209 -209 -209 -209 -193 -193 -209 -209 -193 135 134 135 138 138 140 140 140 140 140 140 141 -193 -193 138 138 -209 -209 -193 117 134 137 138 139 140 140 139 139 139 138 137 137 137 136 136 138 137 139 139 140 141 141 140 140 140 140 139 141 140 141 138 139 139 139 137 136 133 133 131 132 132 133 134 136 136 137 138 139 140 141 141 139 147 141 142 141 141 142 141 142 142 139 145 143 146 147 146 148 148 147 146 146 146 147 145 146 145 147 145 150 143 143 143 144 144 143 142 143 139 145 149 149 148 151 154 155 155 156 156 154 155 157 156 156 156 157 157 157 157 0 0 0 0 0
    0 0 0 0 0 0 0 0 0 0 0 0 0 0 0 0 0 0 0 0 0 0 0 0 0 0 0 0 0 0 0 0 0 0 0 0 0 0 0 0 0 0 0 0 0 0 0 0 0 0 0 0 0 0 0 0 0 0 0 0 0 0 0 0 0 0 0 0 0 159 162 161 164 164 164 163 163 163 163 162 163 161 161 163 166 167 167 166 167 168 169 169 169 167 167 169 169 168 167 -193 -193 -209 -209 -209 -209 -209 -193 326 -193 -193 163 162 160 162 165 165 165 164 164 164 165 164 164 156 160 -209 -209 -209 -209 -209 0 0 0 0 0 0 -209 -209 -193 -209 -193 0 -209 -209 -209 -209 -209 -209 -209 -209 -209 -209 -209 -209 -209 -209 -193 157 157 155 154 -193 -209 134 132 -209 -209 -209 -209 -209 -209 10 -209 -209 -209 -209 -209 -193 59 56 56 57 57 55 -177 -209 -209 -193 134 137 138 140 140 141 140 139 140 -193 -193 -193 -209 -209 -209 -209 -209 117 133 138 138 139 140 140 140 139 139 138 136 136 136 134 135 136 136 139 139 141 142 142 141 140 141 141 138 145 143 144 138 139 138 137 135 133 129 130 127 130 130 132 134 136 136 136 137 138 138 141 140 139 145 140 142 141 141 142 142 142 142 139 144 142 145 147 145 146 147 147 146 146 146 147 146 146 145 147 146 150 143 143 142 144 143 143 142 143 139 146 149 149 149 152 154 155 154 155 156 155 155 155 154 154 155 156 156 156 156 0 0 0 0 0
    0 0 0 0 0 0 0 0 0 0 0 0 0 0 0 0 0 0 0 0 0 0 0 0 0 0 0 0 0 0 0 0 0 0 0 0 0 0 0 0 0 0 0 0 0 0 0 0 0 0 0 0 0 0 0 0 0 0 0 0 0 0 0 0 0 0 0 0 0 160 162 162 164 164 163 163 163 163 163 161 163 160 161 163 165 165 166 166 167 168 169 168 169 168 168 169 169 169 167 166 -193 168 -209 -209 -177 -209 319 -193 -193 164 162 162 161 162 165 164 164 164 164 164 165 165 165 161 165 165 -209 -209 -209 -209 -209 0 0 0 0 0 -209 -209 -193 -209 -209 -193 -209 -209 -209 -209 -209 -209 -209 -209 -209 -209 -209 -209 -209 -193 164 163 163 162 163 162 158 -209 -209 -209 -209 -209 -209 -209 -209 -209 -209 -209 -209 -209 -209 -209 54 52 53 54 52 50 -177 -193 -193 -193 135 136 138 140 140 142 141 140 140 142 -193 -193 -209 -209 -209 -209 -209 -193 134 140 140 140 142 141 140 141 140 139 135 136 136 135 135 136 136 140 139 143 144 144 143 141 142 143 140 150 153 152 142 141 139 137 136 134 131 132 129 131 131 132 134 136 136 136 136 137 138 140 141 139 145 139 141 141 141 142 142 142 141 138 142 -193 -193 -209 -209 -193 144 147 147 147 146 147 147 147 146 148 145 150 143 142 143 144 144 144 143 144 140 147 150 150 150 152 154 154 154 155 155 154 155 154 154 154 155 157 157 156 157 0 0 0 0 0
    0 0 0 0 0 0 0 0 0 0 0 0 0 0 0 0 0 0 0 0 0 0 0 0 0 0 0 0 0 0 0 0 0 0 0 0 0 0 0 0 0 0 0 0 0 0 0 0 0 0 0 0 0 0 0 0 0 0 0 0 0 0 0 0 0 0 0 0 0 160 162 161 164 163 163 163 163 163 163 161 163 160 161 162 163 163 165 165 166 167 167 167 167 167 168 168 168 168 166 166 167 168 167 167 -193 -209 -193 164 164 164 162 162 160 162 165 163 164 163 164 163 164 164 164 162 165 165 163 164 -193 -209 -193 -209 -209 -193 0 -193 -193 -209 -193 -193 -209 -209 -209 -209 -209 -209 -209 157 -209 -209 -209 -209 -209 -193 -209 165 166 165 165 165 166 166 164 162 169 -209 -209 -209 -209 -209 -209 -209 -209 -209 -209 -209 -209 -209 47 45 47 45 45 44 -177 -177 -209 -193 -193 -193 139 143 143 147 141 137 140 141 -209 140 -193 -209 -209 -209 -209 -193 137 144 147 146 146 144 142 143 142 141 136 138 138 138 141 147 145 150 143 147 148 147 147 144 146 147 147 153 154 154 152 148 145 141 140 136 134 134 131 133 133 134 135 -209 -209 -209 -209 -209 -209 -193 142 139 143 139 141 141 141 142 143 143 141 138 -209 62 67 -209 -209 -193 -209 -193 149 149 147 149 149 -193 -193 -193 145 149 143 143 143 144 144 144 143 144 141 148 151 151 151 152 153 154 154 155 155 153 155 154 154 154 154 157 157 157 159 0 0 0 0 0
    0 0 0 0 0 0 0 0 0 0 0 0 0 0 0 0 0 0 0 0 0 0 0 0 0 0 0 0 0 0 0 0 0 0 0 0 0 0 0 0 0 0 0 0 0 0 0 0 0 0 0 0 0 0 0 0 0 0 0 0 0 0 0 0 0 0 0 0 0 160 162 160 164 163 163 162 163 162 162 161 163 160 161 161 162 161 164 164 164 165 166 165 166 166 167 168 168 168 167 166 167 168 166 166 164 164 162 163 163 163 161 162 160 163 165 163 163 163 163 163 164 165 164 161 165 165 163 164 165 -209 -193 -209 -209 -209 -209 -193 163 162 163 164 165 162 160 159 158 156 156 159 161 160 -209 -209 164 167 167 166 166 165 165 165 166 166 165 163 167 166 -209 -209 -209 -209 -209 -209 -209 -209 -209 -209 163 -193 -193 41 42 40 -177 -177 -177 -193 -177 -177 158 157 155 156 162 160 167 -209 -193 -209 -209 -209 -209 -193 -209 -209 -209 -209 -209 150 153 153 153 150 147 148 149 149 141 147 152 152 156 157 158 158 156 153 154 151 153 149 149 149 150 154 156 158 158 153 154 151 153 152 141 137 132 135 -209 -209 -209 -209 -209 -209 -209 -209 -209 -209 145 -193 140 138 140 140 140 142 143 144 -193 -209 -209 65 -193 -209 -193 -193 -209 -193 -193 151 149 -193 -193 -209 -209 -209 -193 150 144 143 144 145 145 146 144 145 141 147 151 150 151 151 153 154 153 155 155 154 155 155 154 154 155 157 157 158 161 0 0 0 0 0
    0 0 0 0 0 0 0 0 0 0 0 0 0 0 0 0 0 0 0 0 0 0 0 0 0 0 0 0 0 0 0 0 0 0 0 0 0 0 0 0 0 0 0 0 0 0 0 0 0 0 0 0 0 0 0 0 0 0 0 0 0 0 0 0 0 0 0 0 0 159 162 160 163 162 162 162 162 162 162 160 162 159 160 160 161 161 164 163 163 164 165 165 166 166 167 167 168 168 167 166 167 167 165 165 162 163 161 162 163 162 161 162 160 163 165 163 163 163 164 164 164 165 164 161 164 164 162 163 164 163 160 160 159 161 162 163 162 161 162 163 164 162 161 160 159 157 158 161 163 162 165 164 165 167 167 166 165 165 165 164 165 165 163 162 166 165 165 166 -193 -193 -209 -209 -209 -209 165 162 162 164 165 -193 -193 -177 -177 -193 -193 158 159 160 160 160 158 159 164 162 166 168 161 163 165 165 164 163 164 162 -209 -193 159 156 158 159 159 157 158 156 157 160 161 158 159 157 162 162 163 163 162 158 157 156 160 154 152 151 152 155 158 163 163 157 159 158 159 158 157 157 -209 143 -209 -209 156 -209 -209 -209 -209 -209 -209 -209 -209 -193 136 136 138 139 141 143 147 148 -209 -209 -209 67 -193 -209 -209 -209 -209 -193 -193 152 150 -193 154 156 -193 -209 150 151 145 143 144 145 146 146 144 145 141 147 151 151 151 151 152 154 154 155 156 155 157 156 155 156 157 161 162 162 165 0 0 0 0 0
    0 0 0 0 0 0 0 0 0 0 0 0 0 0 0 0 0 0 0 0 0 0 0 0 0 0 0 0 0 0 0 0 0 0 0 0 0 0 0 0 0 0 0 0 0 0 0 0 0 0 0 0 0 0 0 0 0 0 0 0 0 0 0 0 0 0 0 0 0 160 162 160 163 162 162 162 162 162 161 160 162 159 160 160 161 160 163 163 162 163 165 165 166 166 167 167 168 168 167 166 166 167 165 165 161 163 161 162 162 162 161 162 161 164 165 164 164 164 165 164 165 165 163 162 163 163 161 161 162 162 159 159 158 161 162 163 163 162 162 163 164 163 162 161 160 159 160 161 163 163 165 164 165 167 167 165 165 164 164 164 165 164 163 162 165 165 165 165 165 164 166 -209 -193 164 166 164 163 164 165 164 164 -193 162 159 161 160 161 161 161 162 159 160 164 162 165 167 162 163 164 165 165 164 165 164 161 165 164 162 163 164 164 162 165 162 164 166 167 166 164 161 164 164 165 164 164 163 161 161 164 159 155 154 155 156 159 164 164 160 161 162 162 162 164 163 159 154 162 165 163 162 164 -209 -209 -209 -209 -209 -209 -209 131 135 136 139 143 148 -193 -209 -209 -209 -209 -193 -209 -209 -209 -209 -209 -193 162 164 155 -209 162 165 -209 158 154 154 146 144 146 147 148 148 146 145 142 148 151 152 152 151 153 154 154 156 157 156 159 157 156 159 162 166 168 167 169 0 0 0 0 0
    0 0 0 0 0 0 0 0 0 0 0 0 0 0 0 0 0 0 0 0 0 0 0 0 0 0 0 0 0 0 0 0 0 0 0 0 0 0 0 0 0 0 0 0 0 0 0 0 0 0 0 0 0 0 0 0 0 0 0 0 0 0 0 0 0 0 0 0 0 161 163 160 163 162 162 162 162 162 162 160 162 159 160 159 159 158 162 163 161 162 163 164 166 166 167 167 167 168 167 166 166 167 165 164 160 162 160 162 162 162 160 162 161 164 165 163 163 164 165 164 165 165 163 162 163 163 161 160 161 161 159 159 158 161 162 163 164 163 163 163 164 164 163 163 161 159 160 160 163 163 164 164 164 167 167 165 165 164 164 164 165 164 163 162 166 165 165 166 165 165 166 -193 167 167 167 165 165 165 166 165 164 164 163 161 163 162 162 162 162 163 160 161 163 162 165 167 162 164 164 165 166 165 166 165 163 166 165 164 165 165 165 163 165 163 165 166 166 166 165 164 165 165 165 165 165 165 163 163 165 162 157 158 157 158 159 165 165 162 162 163 164 163 166 165 163 159 166 169 167 166 167 -209 -209 -209 -209 -209 -209 -209 -193 125 -209 140 -209 162 167 166 -209 -209 -209 -209 -209 -209 -209 -209 -209 159 166 167 164 166 165 166 166 162 162 163 149 148 148 149 150 150 149 148 145 150 153 153 153 153 153 155 155 156 157 157 160 156 156 162 166 169 170 168 170 0 0 0 0 0
    0 0 0 0 0 0 0 0 0 0 0 0 0 0 0 0 0 0 0 0 0 0 0 0 0 0 0 0 0 0 0 0 0 0 0 0 0 0 0 0 0 0 0 0 0 0 0 0 0 0 0 0 0 0 0 0 0 0 0 0 0 0 0 0 0 0 0 0 0 162 164 161 164 162 162 162 162 162 162 160 162 158 160 158 159 158 161 163 162 162 163 163 166 165 167 166 166 166 166 165 165 166 165 164 160 162 161 163 163 162 160 162 161 165 165 163 163 164 165 164 164 165 162 162 163 163 161 160 162 161 160 160 159 162 163 165 165 165 164 165 165 165 165 164 161 160 160 161 162 163 164 164 163 166 167 165 165 164 164 164 165 164 163 162 165 165 165 165 165 165 166 167 167 167 167 166 166 166 166 165 165 164 163 162 163 163 163 162 163 164 162 162 163 163 165 167 163 165 164 166 166 166 167 166 165 167 166 166 166 166 166 163 165 162 165 165 165 166 166 165 166 166 166 166 166 165 163 164 165 163 159 159 160 160 160 165 165 163 163 164 165 164 166 166 164 161 167 168 168 167 167 -209 -209 -209 -209 -209 -209 -209 -209 -209 -209 -209 165 166 167 166 -193 -209 -193 -193 -209 -209 -209 -209 -209 163 167 168 167 167 166 167 167 164 164 164 154 152 151 152 152 154 153 151 149 153 154 155 156 157 155 156 157 158 160 160 162 158 158 165 168 170 171 169 170 0 0 0 0 0
    0 0 0 0 0 0 0 0 0 0 0 0 0 0 0 0 0 0 0 0 0 0 0 0 0 0 0 0 0 0 0 0 0 0 0 0 0 0 0 0 0 0 0 0 0 0 0 0 0 0 0 0 0 0 0 0 0 0 0 0 0 0 0 0 0 0 0 0 0 162 164 162 164 162 162 162 162 162 161 159 162 158 162 159 160 159 161 163 162 161 162 162 164 164 165 165 165 165 165 165 165 166 165 164 162 161 162 163 162 160 159 161 159 165 164 163 163 164 165 164 164 165 162 163 163 163 161 160 161 161 158 160 157 161 163 165 166 166 166 166 167 167 165 165 161 161 160 161 162 164 164 164 164 166 167 165 166 165 164 164 165 165 163 162 165 164 164 165 165 165 166 167 167 167 167 167 166 166 167 165 165 165 163 163 164 163 163 163 163 165 163 164 164 164 166 168 164 166 165 166 166 166 167 166 165 167 166 166 166 166 166 164 165 161 164 164 165 166 166 165 166 166 166 166 166 166 164 164 165 164 161 160 161 161 160 165 166 163 164 165 165 165 167 166 166 163 168 168 168 167 167 168 -209 -209 -209 -209 -209 -209 -209 -209 -193 166 167 167 168 167 168 -209 -209 -209 -193 -209 162 -193 -193 165 167 169 168 168 167 168 168 165 166 166 163 159 156 156 155 157 159 155 153 155 157 161 164 166 160 159 161 162 163 164 164 161 162 168 170 171 173 169 170 0 0 0 0 0
    0 0 0 0 0 0 0 0 0 0 0 0 0 0 0 0 0 0 0 0 0 0 0 0 0 0 0 0 0 0 0 0 0 0 0 0 0 0 0 0 0 0 0 0 0 0 0 0 0 0 0 0 0 0 0 0 0 0 0 0 0 0 0 0 0 0 0 0 0 162 164 162 164 162 161 162 161 162 161 159 162 158 163 160 160 160 161 163 161 160 161 161 163 163 164 164 165 164 165 165 165 166 165 164 162 159 162 162 160 159 158 161 158 165 164 163 163 164 165 164 164 165 162 163 163 163 161 159 160 160 158 160 157 -193 -193 -193 -193 -209 167 167 168 167 165 165 161 161 161 162 162 164 165 165 164 167 168 166 166 165 165 164 165 165 163 162 165 164 164 165 165 165 166 166 167 167 167 167 166 166 167 165 165 165 163 163 164 164 164 163 164 166 164 165 165 165 166 169 166 167 166 167 166 166 167 166 165 167 165 166 166 166 166 164 166 163 165 165 166 167 167 166 166 166 166 166 166 165 163 163 165 163 160 159 160 161 160 165 166 163 164 165 165 165 166 166 165 162 168 167 167 167 167 167 168 168 169 -193 -209 -209 -209 -193 169 169 169 169 168 167 167 167 -193 -193 165 165 163 163 166 166 168 169 168 168 167 168 168 166 167 167 165 165 162 163 158 161 165 160 157 159 161 166 167 170 167 166 166 167 166 166 166 166 167 169 171 172 174 170 171 0 0 0 0 0
    0 0 0 0 0 0 0 0 0 0 0 0 0 0 0 0 0 0 0 0 0 0 0 0 0 0 0 0 0 0 0 0 0 0 0 0 0 0 0 0 0 0 0 0 0 0 0 0 0 0 0 0 0 0 0 0 0 0 0 0 0 0 0 0 0 0 0 0 0 163 164 162 164 161 161 162 161 162 161 160 162 159 164 161 161 161 161 162 161 160 160 161 163 163 164 164 164 164 165 165 165 166 164 163 161 159 161 161 158 158 157 162 158 165 165 163 164 164 165 165 164 165 162 164 164 163 162 159 160 160 158 161 158 -193 -193 -193 171 170 169 168 168 167 165 164 160 161 160 162 162 164 164 166 165 167 168 166 166 165 165 164 164 165 163 162 164 163 164 164 165 165 166 165 166 167 167 167 166 166 167 165 165 164 164 164 165 164 164 164 164 166 165 165 166 165 166 169 166 167 166 167 167 167 167 166 165 166 165 166 166 166 166 164 166 164 166 165 167 167 167 166 167 166 166 166 166 165 163 163 164 163 160 159 160 160 159 165 166 164 164 165 165 165 166 166 164 160 167 166 167 166 167 167 167 168 170 169 170 -193 170 170 170 170 170 170 169 167 167 167 168 168 167 166 164 164 167 167 168 168 168 168 167 168 168 166 167 167 166 166 165 166 161 163 166 163 160 162 163 166 168 171 170 168 168 169 169 169 168 169 169 170 173 172 174 171 171 0 0 0 0 0
    0 0 0 0 0 0 0 0 0 0 0 0 0 0 0 0 0 0 0 0 0 0 0 0 0 0 0 0 0 0 0 0 0 0 0 0 0 0 0 0 0 0 0 0 0 0 0 0 0 0 0 0 0 0 0 0 0 0 0 0 0 0 0 0 0 0 0 0 0 163 163 162 163 161 161 161 161 161 161 160 161 159 164 162 162 162 161 162 161 161 160 161 162 162 164 164 164 164 165 165 165 165 164 162 160 159 159 160 156 156 156 161 157 165 165 164 164 165 165 165 165 166 163 164 164 164 162 159 160 160 160 161 160 -193 -193 -193 170 170 169 168 168 167 165 164 161 161 161 162 162 164 164 166 165 167 167 166 166 165 165 164 164 164 162 162 163 161 163 163 164 164 165 165 166 167 166 167 166 166 166 166 165 165 164 165 166 166 165 165 165 167 166 165 166 164 166 170 167 168 166 167 167 167 168 167 165 166 165 167 167 167 166 165 167 165 166 165 166 167 167 166 166 166 166 166 166 165 163 163 164 163 160 159 161 161 158 166 166 164 164 165 165 164 165 166 163 159 166 163 165 165 166 166 166 168 169 168 169 -193 169 169 169 169 169 169 168 167 166 166 166 167 166 166 164 164 167 167 168 168 168 168 168 168 168 167 167 167 167 167 166 167 166 167 169 169 167 167 168 168 169 171 170 169 169 170 169 170 170 170 170 171 175 173 175 171 172 0 0 0 0 0
    0 0 0 0 0 0 0 0 0 0 0 0 0 0 0 0 0 0 0 0 0 0 0 0 0 0 0 0 0 0 0 0 0 0 0 0 0 0 0 0 0 0 0 0 0 0 0 0 0 0 0 0 0 0 0 0 0 0 0 0 0 0 0 0 0 0 0 0 0 164 164 162 164 161 161 161 161 161 161 160 161 160 165 163 163 164 162 163 162 162 160 161 162 162 164 163 164 163 164 165 164 165 164 162 161 160 160 160 156 156 156 162 157 165 165 164 164 165 165 165 164 166 163 164 164 164 162 159 160 161 162 162 162 163 -193 -209 170 169 169 167 168 167 166 165 162 162 162 162 162 164 164 165 164 167 166 165 166 165 164 164 164 164 162 162 163 161 162 163 164 164 164 164 165 166 166 166 166 166 166 166 165 165 165 166 167 167 166 166 166 167 166 165 165 163 166 170 167 168 166 167 167 167 168 167 165 166 166 167 166 167 166 165 166 165 166 165 166 166 166 166 166 166 166 166 166 165 163 164 163 163 160 160 160 160 158 166 166 164 165 165 165 164 165 165 162 158 165 162 165 165 166 166 167 169 170 169 -193 -193 -193 169 169 168 168 168 168 167 167 166 166 166 167 166 165 165 167 167 168 168 168 168 168 168 168 167 167 167 167 167 167 167 167 169 170 170 169 169 170 170 171 172 170 170 170 170 170 170 171 171 172 172 177 173 175 172 172 0 0 0 0 0
    0 0 0 0 0 0 0 0 0 0 0 0 0 0 0 0 0 0 0 0 0 0 0 0 0 0 0 0 0 0 0 0 0 0 0 0 0 0 0 0 0 0 0 0 0 0 0 0 0 0 0 0 0 0 0 0 0 0 0 0 0 0 0 0 0 0 0 0 0 166 165 163 165 162 162 162 161 162 162 161 162 161 166 164 164 165 163 164 163 163 161 162 162 163 164 163 164 163 164 165 164 165 164 162 162 161 162 162 156 157 158 163 159 165 165 164 164 165 165 165 164 165 162 163 164 163 162 160 160 161 162 161 162 162 165 168 169 169 169 167 168 166 167 166 163 163 162 162 161 164 165 166 164 167 166 165 165 164 164 164 163 164 161 162 164 160 163 164 164 165 164 164 165 166 166 166 165 165 166 166 165 165 165 167 167 167 167 166 166 167 166 166 -193 163 166 171 168 168 167 168 168 168 169 168 166 166 166 167 167 167 167 165 166 165 166 165 166 166 166 166 166 167 166 166 166 165 164 164 164 163 161 160 160 161 158 165 166 164 165 165 165 164 165 165 162 158 164 162 166 166 167 167 168 170 171 169 -193 -193 -193 168 168 168 167 168 167 167 167 165 165 166 167 167 165 165 167 167 168 168 168 168 168 168 168 167 168 167 167 167 167 167 167 169 170 169 169 169 170 170 170 171 170 170 170 170 170 170 171 170 172 173 178 173 175 172 172 0 0 0 0 0
    0 0 0 0 0 0 0 0 0 0 0 0 0 0 0 0 0 0 0 0 0 0 0 0 0 0 0 0 0 0 0 0 0 0 0 0 0 0 0 0 0 0 0 0 0 0 0 0 0 0 0 0 0 0 0 0 0 0 0 0 0 0 0 0 0 0 0 0 0 167 165 164 165 162 162 162 162 162 161 161 162 161 166 164 164 165 164 164 164 164 162 163 163 164 164 164 164 164 164 165 163 164 163 163 163 161 163 164 157 158 160 165 160 166 165 164 164 165 165 165 164 165 163 163 164 163 162 159 160 161 162 161 162 162 165 168 169 169 168 166 166 165 166 165 163 164 163 164 162 164 166 166 164 167 165 164 165 164 164 164 163 165 161 163 164 160 163 165 165 165 164 164 165 166 165 166 165 165 166 166 166 165 165 167 167 167 167 166 167 168 -193 166 166 164 166 171 169 169 167 168 168 168 169 168 166 166 166 168 167 167 166 165 166 165 166 164 166 166 166 166 166 167 166 166 166 165 164 164 164 163 161 161 161 161 160 165 166 165 165 165 165 164 165 165 162 158 163 162 165 167 167 167 167 170 170 169 169 -193 166 167 166 166 166 167 167 166 167 165 165 167 168 168 167 166 167 167 168 168 168 168 168 168 168 167 167 167 166 167 167 167 166 168 169 168 168 168 168 168 169 169 168 168 169 169 170 169 170 170 171 172 178 173 174 171 172 0 0 0 0 0
    0 0 0 0 0 0 0 0 0 0 0 0 0 0 0 0 0 0 0 0 0 0 0 0 0 0 0 0 0 0 0 0 0 0 0 0 0 0 0 0 0 0 0 0 0 0 0 0 0 0 0 0 0 0 0 0 0 0 0 0 0 0 0 0 0 0 0 0 0 168 165 163 165 161 161 161 161 161 161 161 162 161 166 165 165 167 165 165 165 165 162 164 164 164 164 164 165 164 164 166 164 165 164 -193 -193 164 166 -193 -209 162 164 167 162 166 166 165 164 165 166 165 164 166 164 163 165 164 163 160 160 161 163 162 -193 163 -193 -209 170 169 168 166 166 164 165 164 162 163 163 165 -193 165 167 167 164 167 165 165 165 164 164 164 163 165 161 163 163 159 162 164 164 165 163 163 165 165 165 166 165 165 166 166 166 165 166 167 167 168 167 167 167 168 168 168 168 165 167 172 170 170 168 169 168 -193 169 169 166 167 166 168 167 168 167 166 166 165 165 164 166 166 166 167 166 167 167 167 166 165 164 165 164 164 162 161 162 162 161 166 166 165 166 166 166 165 166 166 162 158 162 161 165 166 167 167 168 170 170 170 169 168 166 167 167 167 166 168 169 169 168 167 167 169 169 170 168 166 168 167 169 169 168 168 168 168 168 167 168 167 166 167 166 166 165 166 167 166 166 167 168 167 168 168 168 168 169 170 170 170 170 170 171 172 177 173 174 172 172 0 0 0 0 0
    0 0 0 0 0 0 0 0 0 0 0 0 0 0 0 0 0 0 0 0 0 0 0 0 0 0 0 0 0 0 0 0 0 0 0 0 0 0 0 0 0 0 0 0 0 0 0 0 0 0 0 0 0 0 0 0 0 0 0 0 0 0 0 0 0 0 0 0 0 -193 163 162 164 161 161 161 160 161 161 161 162 162 166 166 165 168 165 165 165 165 163 165 164 165 163 165 165 165 165 167 165 -193 -193 -209 -209 -209 -209 -209 -209 162 165 -193 163 166 166 165 164 165 166 166 165 166 165 164 166 165 165 161 -193 162 164 -193 -209 -209 -209 -209 -209 -209 -209 -209 -209 -209 -209 -209 159 163 163 -209 -209 -193 167 167 164 167 165 165 165 165 164 164 163 165 160 163 163 159 161 163 162 164 161 162 164 164 165 165 164 165 165 167 166 165 166 167 167 168 168 168 168 169 169 169 169 166 167 173 170 170 168 169 169 -193 170 169 166 167 167 168 168 168 167 167 166 166 166 164 166 167 166 167 167 167 167 167 167 166 164 165 164 164 163 161 162 162 162 166 167 166 166 166 166 166 166 166 162 158 160 160 164 166 167 167 168 170 170 170 169 168 166 167 167 167 166 168 170 170 170 169 168 170 170 171 169 167 168 168 169 169 168 168 168 168 168 167 168 166 166 167 166 166 164 166 167 165 166 167 167 168 168 168 168 168 169 170 171 170 171 170 171 172 177 173 173 172 172 0 0 0 0 0
    0 0 0 0 0 0 0 0 0 0 0 0 0 0 0 0 0 0 0 0 0 0 0 0 0 0 0 0 0 0 0 0 0 0 0 0 0 0 0 0 0 0 0 0 0 0 0 0 0 0 0 0 0 0 0 0 0 0 0 0 0 0 0 0 0 0 0 0 0 171 162 162 164 161 162 162 161 162 162 162 163 163 166 165 165 167 164 164 165 165 163 165 165 166 164 165 165 165 165 168 -193 -209 -209 -209 -193 -209 -209 -209 -209 -209 -193 -193 164 166 -193 165 165 165 166 166 165 166 165 164 166 165 164 161 -193 162 -193 -193 -209 -209 -209 -209 -209 -209 -193 -193 -209 -209 -209 -209 -209 -209 -209 -209 -209 -209 -209 -209 164 167 165 165 165 164 164 164 163 164 159 162 162 159 160 163 162 164 161 162 165 165 164 165 164 164 163 166 166 163 165 167 167 168 168 168 168 169 169 168 168 165 167 172 169 169 168 169 168 -193 170 170 167 167 167 169 169 169 168 167 167 166 165 164 166 167 166 167 166 167 167 167 167 166 165 165 164 164 163 161 162 162 162 166 167 166 167 167 167 167 167 166 163 160 161 162 164 166 167 167 168 170 170 170 169 167 166 167 167 167 166 169 170 171 171 169 168 170 170 171 169 168 168 168 170 170 168 168 -193 168 -193 -193 168 167 166 167 166 166 163 165 166 164 166 167 167 167 168 168 168 168 170 171 171 171 171 171 171 172 177 172 173 172 172 0 0 0 0 0
    0 0 0 0 0 0 0 0 0 0 0 0 0 0 0 0 0 0 0 0 0 0 0 0 0 0 0 0 0 0 0 0 0 0 0 0 0 0 0 0 0 0 0 0 0 0 0 0 0 0 0 0 0 0 0 0 0 0 0 0 0 0 0 0 0 0 0 0 0 173 161 162 165 161 163 163 162 163 163 163 164 164 166 164 164 167 163 164 165 165 163 167 166 168 165 166 166 165 165 168 -193 -209 -193 -193 -193 -193 -193 -193 228 -209 -209 -209 -193 -193 -209 -193 165 165 167 166 165 166 165 163 166 165 164 -193 -193 -193 -193 -193 -193 -209 -209 -209 -209 -209 -193 -193 -209 -209 -209 -209 -209 -209 -209 -209 -209 -209 -209 -209 164 167 164 164 165 164 164 164 163 164 158 161 161 158 159 161 -193 -193 -193 162 165 164 163 163 162 161 160 164 165 160 164 166 166 167 167 167 167 167 168 167 167 163 166 171 169 168 168 169 169 169 170 170 167 168 168 169 169 169 167 167 167 166 165 164 166 166 165 166 166 167 167 167 167 166 166 166 165 165 163 162 163 163 163 167 167 167 167 168 168 168 168 167 163 161 161 161 164 165 166 166 168 170 170 169 168 166 166 167 167 167 165 168 170 171 171 169 168 169 169 171 170 169 169 169 170 170 168 169 -193 168 168 168 168 166 166 168 166 167 165 166 166 165 166 167 166 167 167 168 167 168 170 171 171 171 171 172 172 172 177 172 172 172 172 0 0 0 0 0
    0 0 0 0 0 0 0 0 0 0 0 0 0 0 0 0 0 0 0 0 0 0 0 0 0 0 0 0 0 0 0 0 0 0 0 0 0 0 0 0 0 0 0 0 0 0 0 0 0 0 0 0 0 0 0 0 0 0 0 0 0 0 0 0 0 0 0 0 0 171 164 165 167 164 166 167 165 166 165 165 166 166 167 164 163 166 -193 -193 -193 -209 158 168 170 177 -193 167 166 165 164 167 -209 -193 -193 -193 -193 -193 230 231 230 229 -193 -209 -209 -209 -209 -209 165 165 167 166 165 166 165 163 166 165 164 -209 -193 -193 -193 -193 0 -209 -193 -193 -193 -209 -209 -209 -209 -209 -209 -209 -209 -209 -209 -209 -177 -209 -209 -209 164 167 164 164 164 164 163 163 163 164 157 160 160 158 -193 -193 -193 70 -193 -193 164 162 -193 -193 160 159 158 163 163 158 163 166 165 167 166 167 -193 166 167 165 164 159 165 169 168 168 168 169 168 169 170 170 167 167 168 168 168 168 167 166 165 165 165 163 166 166 164 166 166 166 167 167 167 166 166 166 165 165 163 163 163 163 164 167 167 167 168 168 167 167 167 167 162 161 160 160 162 163 164 164 167 169 168 168 167 166 166 167 167 167 165 168 168 170 170 169 -193 168 169 171 170 169 170 169 171 171 169 169 169 169 168 168 168 166 166 168 166 167 166 167 166 165 167 167 166 167 166 167 167 167 170 171 172 171 172 173 172 173 177 172 172 172 172 0 0 0 0 0
    0 0 0 0 0 0 0 0 0 0 0 0 0 0 0 0 0 0 0 0 0 0 0 0 0 0 0 0 0 0 0 0 0 0 0 0 0 0 0 0 0 0 0 0 0 0 0 0 0 0 0 0 0 0 0 0 0 0 0 0 0 0 0 0 0 0 0 0 0 172 167 168 169 167 169 170 169 168 167 170 -209 -209 -209 -209 -209 -209 -209 -209 -209 -209 -209 -209 -209 -209 208 -209 -209 -209 -209 -209 -209 -209 -209 -209 -193 -193 229 229 227 225 226 -209 -209 -209 -209 -193 164 165 167 165 165 166 165 163 165 164 -209 0 0 0 -193 0 0 0 0 0 -193 -209 -209 -209 -209 -209 -209 -209 -209 -209 -209 -209 -209 -209 -209 -209 163 167 165 164 164 164 163 163 163 164 157 159 159 157 -193 -193 -193 69 72 -193 -193 -209 -209 -209 -193 158 157 161 161 156 161 164 163 165 165 -193 -209 -209 165 163 161 157 164 168 167 167 167 168 168 169 170 170 167 167 168 168 167 167 166 164 163 163 162 162 166 166 165 166 166 167 167 167 167 166 166 166 165 163 163 163 163 163 165 167 167 167 168 168 168 168 168 167 163 163 162 161 163 163 164 163 166 169 168 168 167 166 166 167 167 168 165 168 168 169 169 169 -193 168 169 171 170 170 170 170 172 172 170 170 169 169 169 169 169 167 167 169 168 168 167 167 166 165 166 166 165 166 166 167 167 168 170 171 172 171 172 174 172 173 177 172 172 172 172 0 0 0 0 0
    0 0 0 0 0 0 0 0 0 0 0 0 0 0 0 0 0 0 0 0 0 0 0 0 0 0 0 0 0 0 0 0 0 0 0 0 0 0 0 0 0 0 0 0 0 0 0 0 0 0 0 0 0 0 0 0 0 0 0 0 0 0 0 0 0 0 0 0 0 169 166 167 168 169 172 175 -209 -209 -209 -209 -209 205 209 206 207 204 204 208 206 205 208 205 209 210 213 214 -209 212 -209 -209 -209 -209 286 288 -209 -209 230 229 227 227 229 231 222 222 224 -193 -209 -209 -193 -193 165 -193 166 163 164 164 -209 0 0 0 0 0 0 0 0 0 0 10 -209 -209 -209 -209 -209 309 310 -209 -209 -209 -209 -209 -177 -209 -209 168 165 164 164 164 163 164 163 164 156 158 158 157 -193 -209 68 68 71 73 -193 73 -177 -193 -209 -209 -193 158 158 153 158 161 160 163 164 -193 -209 -209 -193 162 161 157 164 168 166 166 166 168 168 168 169 169 167 167 168 167 167 167 166 164 162 162 160 160 166 166 165 167 167 167 167 167 167 166 166 165 164 161 162 162 164 164 165 167 168 167 168 168 168 168 168 167 163 163 163 162 163 164 165 164 168 170 169 -193 168 167 167 167 167 167 165 167 167 168 168 168 169 168 168 170 170 169 170 170 173 172 170 170 169 169 169 169 169 167 167 169 169 170 168 167 166 165 166 166 165 166 166 168 168 169 170 172 171 171 172 175 172 174 176 172 172 172 172 0 0 0 0 0
    0 0 0 0 0 0 0 0 0 0 0 0 0 0 0 0 0 0 0 0 0 0 0 0 0 0 0 0 0 0 0 0 0 0 0 0 0 0 0 0 0 0 0 0 0 0 0 0 0 0 0 0 0 0 0 0 0 0 0 0 0 0 0 0 0 0 0 0 0 170 -193 169 171 174 180 185 -209 189 198 -193 -209 -193 -193 -193 202 201 202 207 205 204 206 204 209 210 212 214 208 211 -209 -209 -209 -209 -209 -209 -209 231 229 228 227 227 229 230 228 223 227 -209 -209 -209 -209 -209 -209 -209 -209 -209 -209 -209 -193 -193 0 0 0 0 0 0 0 0 0 8 -209 -209 -209 -209 -193 111 -209 -209 -209 -209 -177 -177 -177 -209 -209 172 -209 166 165 165 164 165 -193 -193 -209 157 -193 -193 -193 -193 64 65 69 71 71 71 73 77 -209 -193 -209 95 -209 -209 -193 -209 -193 160 162 -193 -209 -209 -209 -193 161 157 164 167 165 166 166 167 167 167 169 168 167 167 -193 167 167 167 165 163 160 160 157 158 165 166 165 167 167 167 167 166 167 166 165 165 163 161 162 164 165 165 166 167 -193 167 168 168 168 168 168 167 163 163 162 160 161 162 163 -193 -209 -193 -209 -177 -209 -193 166 166 166 166 165 167 167 169 169 169 169 168 168 170 169 169 170 170 173 172 170 170 169 170 169 169 169 167 168 169 169 171 168 167 166 166 166 167 166 166 166 169 170 171 172 174 173 173 173 178 173 175 176 172 172 172 172 0 0 0 0 0
    0 0 0 0 0 0 0 0 0 0 0 0 0 0 0 0 0 0 0 0 0 0 0 0 0 0 0 0 0 0 0 0 0 0 0 0 0 0 0 0 0 0 0 0 0 0 0 0 0 0 0 0 0 0 0 0 0 0 0 0 0 0 0 0 0 0 0 0 0 183 183 179 177 180 184 187 189 190 198 202 204 202 -193 -193 202 201 202 209 207 205 208 205 210 211 212 212 202 206 210 -193 -209 -209 223 230 -209 -193 228 224 223 223 226 -209 220 218 -209 -209 260 265 271 -209 -209 -209 -209 -209 -209 -193 0 -193 0 0 0 0 0 0 0 0 0 0 -209 -209 -209 -209 -209 -209 -209 -209 -209 307 -177 -177 -177 -177 -177 -177 -177 -209 -209 -209 -209 89 98 105 -209 16 21 27 65 -177 61 62 67 69 69 70 72 73 -209 88 92 97 -209 -209 -193 92 -193 -209 -209 -209 -193 -209 -209 -209 -209 156 163 165 163 164 165 166 166 167 168 168 167 167 -193 166 166 166 -193 162 160 159 157 158 165 165 165 167 167 166 166 165 166 164 164 164 159 159 162 164 166 -193 166 -209 -193 167 168 168 169 168 168 167 164 165 166 167 167 167 168 167 170 169 169 -193 -209 167 166 165 166 166 166 168 168 169 170 169 169 168 167 169 168 169 169 168 172 172 170 171 170 170 170 169 169 168 168 170 -193 -193 170 169 168 168 167 169 168 168 168 171 174 176 176 177 175 174 174 179 173 176 175 171 171 171 172 0 0 0 0 0
    0 0 0 0 0 0 0 0 0 0 0 0 0 0 0 0 0 0 0 0 0 0 0 0 0 0 0 0 0 0 0 0 0 0 0 0 0 0 0 0 0 0 0 0 0 0 0 0 0 0 0 0 0 0 0 0 0 0 0 0 0 0 0 0 0 0 0 0 0 190 186 185 183 183 185 187 188 189 196 200 200 200 201 200 201 201 202 207 206 204 206 205 208 210 210 210 201 204 206 208 -209 -209 -209 -209 -209 -209 -193 -193 -209 -193 -193 -209 -209 -209 -209 -209 -209 -209 -209 -209 -209 -209 -209 -209 -193 0 0 -193 -193 -177 -177 -193 -209 -193 0 0 0 0 -209 -209 0 0 0 -209 -209 -209 -209 307 304 304 304 304 -193 36 39 41 37 39 -209 -193 96 103 -209 12 22 30 -209 -209 65 66 68 70 71 71 72 71 71 86 91 96 94 97 99 97 100 102 102 102 100 103 102 104 114 -177 -177 -177 158 161 164 165 166 166 168 167 166 166 -209 -209 -193 -193 -193 -193 -193 158 157 159 165 166 165 167 167 166 166 165 165 163 163 162 158 158 161 163 166 167 167 -209 -193 167 168 168 169 169 168 169 167 168 169 170 171 170 171 171 171 171 169 -209 -209 165 164 165 166 166 167 168 167 168 -209 -209 167 166 165 167 166 167 168 167 171 172 171 171 170 170 170 170 169 168 167 -193 -209 -193 -193 171 169 170 -193 171 170 171 170 174 178 179 179 179 176 174 174 179 174 177 174 171 170 171 171 0 0 0 0 0
    0 0 0 0 0 0 0 0 0 0 0 0 0 0 0 0 0 0 0 0 0 0 0 0 0 0 0 0 0 0 0 0 0 0 0 0 0 0 0 0 0 0 0 0 0 0 0 0 0 0 0 0 0 0 0 0 0 0 0 0 0 0 0 0 0 0 0 0 0 191 187 186 186 185 186 188 188 188 193 198 199 200 200 199 200 200 201 205 205 203 204 204 206 207 206 206 201 202 204 206 205 -193 206 203 204 -193 212 212 -193 -193 -193 -209 -193 215 -209 -209 -193 267 -209 -209 -209 -209 -209 -209 -193 0 0 -193 -193 -193 -193 -193 58 -193 204 205 202 -209 -209 -209 -177 -177 0 -193 69 72 73 -193 302 304 305 -193 -193 44 44 45 39 42 35 38 -193 30 28 31 -193 -177 -177 -177 -193 71 71 72 74 72 71 69 67 80 91 98 99 101 104 100 -209 -209 -209 -209 101 101 100 102 107 -209 -209 -209 153 156 161 164 165 166 167 166 165 166 -193 -209 98 104 106 106 -177 -193 -193 159 166 166 165 167 167 167 164 163 164 160 160 159 156 155 160 162 167 -209 167 -209 -209 167 168 168 170 169 169 170 169 170 171 172 173 172 173 172 171 173 168 -209 -209 162 160 164 165 165 167 169 167 -209 -209 -209 -209 -209 -193 166 165 167 167 167 171 172 171 171 170 170 170 169 -209 -209 167 -193 -193 -209 -209 -209 -193 171 170 172 170 170 169 173 177 178 177 178 175 172 174 180 174 178 174 170 170 171 171 0 0 0 0 0
    0 0 0 0 0 0 0 0 0 0 0 0 0 0 0 0 0 0 0 0 0 0 0 0 0 0 0 0 0 0 0 0 0 0 0 0 0 0 0 0 0 0 0 0 0 0 0 0 0 0 0 0 0 0 0 0 0 0 0 0 0 0 0 0 0 0 0 0 0 190 187 186 187 186 187 188 190 191 195 199 199 200 200 199 200 200 201 205 204 202 202 202 204 204 203 202 199 201 202 204 204 204 205 205 204 206 206 208 207 208 -193 -193 -193 210 -209 -193 -209 -209 -193 200 202 -193 -209 205 -193 0 0 -193 -193 -209 -193 -193 -193 203 204 204 202 203 -177 -193 -193 -193 -193 -193 69 73 74 74 73 73 73 74 -193 -209 46 45 37 40 34 36 -193 33 30 37 -209 -177 -177 -177 92 86 89 89 90 90 -193 -193 -209 -193 92 101 -193 -209 110 -209 -209 -209 154 158 -209 -209 -209 -209 -209 -209 -177 -177 -177 -193 154 162 167 169 167 167 165 165 -209 -193 -193 103 107 107 105 -193 -209 158 168 167 166 168 168 -209 158 157 156 152 151 151 -209 -209 156 161 167 171 -193 -193 -209 166 167 168 170 168 168 170 169 170 172 173 174 172 174 173 172 -209 -209 -209 -209 -209 158 164 166 166 167 -209 -209 -209 -209 -209 -193 -209 -193 -193 164 166 167 166 171 172 171 171 170 -209 -209 -209 68 67 -193 -193 -209 -209 -209 -209 -209 173 172 172 170 169 168 171 174 175 173 175 171 171 174 181 177 180 174 171 170 171 171 0 0 0 0 0
    0 0 0 0 0 0 0 0 0 0 0 0 0 0 0 0 0 0 0 0 0 0 0 0 0 0 0 0 0 0 0 0 0 0 0 0 0 0 0 0 0 0 0 0 0 0 0 0 0 0 0 0 0 0 0 0 0 0 0 0 0 0 0 0 0 0 0 0 0 -177 190 188 189 188 189 190 193 194 197 200 200 200 200 199 200 200 201 204 203 202 202 202 203 203 202 202 200 201 201 204 204 204 204 205 203 205 203 205 204 204 204 -193 -193 205 200 201 199 -193 199 202 203 202 203 207 -193 0 0 -193 203 -209 203 203 -193 203 203 203 202 202 -177 -193 -193 204 208 210 -193 -193 -193 -193 208 -209 -209 -209 -209 312 313 -209 36 36 31 -193 113 -193 -193 -193 117 108 108 -193 -193 89 91 92 92 91 91 -193 -193 -209 94 101 -209 -209 -209 -209 -209 -209 155 159 162 -209 -209 -193 -209 -209 -209 101 111 -209 145 156 165 169 167 -209 -209 -193 -209 -209 -209 -209 -209 -209 142 -209 -209 -193 172 186 193 197 202 207 -209 -193 152 149 145 146 145 -177 -177 158 -209 -209 216 223 -209 162 164 166 170 167 168 171 170 171 172 174 175 173 175 173 171 -209 -209 -209 -209 -209 -209 -209 -209 -209 -209 -209 -209 -209 -209 -209 36 -209 -177 -209 -193 -209 -193 164 170 171 171 -209 -209 56 -209 -209 -209 -209 -209 -209 -209 -209 -209 -209 -209 -193 172 174 168 168 167 172 175 175 172 175 171 173 180 185 180 182 175 171 170 171 171 0 0 0 0 0
    0 0 0 0 0 0 0 0 0 0 0 0 0 0 0 0 0 0 0 0 0 0 0 0 0 0 0 0 0 0 0 0 0 0 0 0 0 0 0 0 0 0 0 0 0 0 0 0 0 0 0 0 0 0 0 0 0 0 0 0 0 0 0 0 0 0 0 0 0 195 192 191 192 190 192 193 195 195 196 198 199 199 199 199 199 200 201 203 203 202 201 202 203 203 202 202 200 201 202 204 204 203 203 203 202 203 202 203 202 202 202 202 202 203 201 202 200 202 201 204 203 203 204 206 -193 -177 0 -209 202 -209 203 202 202 202 203 202 201 202 201 200 202 204 206 207 207 208 -193 205 207 209 -193 -193 -193 -193 -193 203 -193 -193 -193 110 113 116 117 -193 115 -193 -193 -209 203 -193 92 93 94 93 94 93 95 100 100 -209 -209 -177 -209 196 -209 -193 -193 -193 197 196 -209 -209 -209 -209 -209 -193 -177 -177 154 166 -209 -193 207 214 205 204 203 204 -193 -209 -209 -209 -209 -209 -209 -209 188 194 200 202 205 211 -193 -209 155 -209 -209 -209 -209 -209 -209 -209 205 216 223 233 -193 -209 -209 -209 -209 -209 172 175 171 172 174 177 178 175 178 175 173 -193 -209 -209 -209 -209 -193 0 -193 -193 -193 -193 -209 -209 -209 -209 38 54 -177 -193 -209 -209 -209 162 169 -193 -209 -209 48 55 -209 -209 -209 -209 -209 -209 -209 -209 -209 -209 -177 -209 -209 -209 -209 162 166 173 182 179 174 -209 176 179 184 189 185 183 177 171 171 171 171 0 0 0 0 0
    0 0 0 0 0 0 0 0 0 0 0 0 0 0 0 0 0 0 0 0 0 0 0 0 0 0 0 0 0 0 0 0 0 0 0 0 0 0 0 0 0 0 0 0 0 0 0 0 0 0 0 0 0 0 0 0 0 0 0 0 0 0 0 0 0 0 0 0 0 196 194 192 194 191 193 193 195 196 197 197 198 198 198 198 199 200 201 202 202 0 -256 -1 30528 202 201 201 200 201 202 204 203 202 202 203 202 203 201 202 201 201 202 202 201 202 200 201 200 202 200 204 203 203 203 205 204 -193 -193 -209 202 -209 202 202 202 202 203 202 202 202 202 201 203 204 207 207 208 209 206 205 207 208 204 203 203 -193 203 203 204 -193 -193 110 112 116 116 -209 -193 -193 -193 -193 203 -193 92 93 95 94 95 93 95 100 -209 -209 -209 -177 -177 198 201 201 200 198 199 198 198 199 198 195 195 194 -209 -209 -209 -209 201 205 209 214 210 204 204 205 204 203 202 200 197 195 198 195 196 198 201 204 209 210 210 211 -209 -209 -209 213 -209 -209 -209 -209 225 225 225 230 -193 -209 264 -209 -209 -209 172 -209 173 173 174 177 178 177 181 -209 -193 -209 -209 -209 -209 -209 -193 0 -209 -209 -209 -209 -209 -209 -209 -193 38 53 -177 -177 -209 122 -193 -177 -177 -209 19 -209 -209 -209 -209 -209 -209 -209 -209 -209 -209 -209 -209 -209 -209 -209 -193 -177 -209 -209 164 -209 -209 -209 -209 -209 174 180 185 190 189 185 180 172 171 171 172 0 0 0 0 0
    0 0 0 0 0 0 0 0 0 0 0 0 0 0 0 0 0 0 0 0 0 0 0 0 0 0 0 0 0 0 0 0 0 0 0 0 0 0 0 0 0 0 0 0 0 0 0 0 0 0 0 0 0 0 0 0 0 0 0 0 0 0 0 0 0 0 0 0 0 196 194 193 195 192 194 194 195 196 196 197 197 197 197 196 198 199 200 201 200 200 199 201 202 201 201 200 200 201 202 204 202 201 201 202 201 202 201 201 201 201 202 202 201 201 200 201 200 201 200 202 203 203 203 206 205 203 -193 -193 -193 -193 202 202 202 202 203 202 202 202 202 203 204 205 208 207 208 208 206 205 206 207 204 204 203 -193 203 203 204 203 -193 109 112 116 -193 -209 -209 -193 -193 -193 202 -193 92 93 94 93 -177 -177 -177 -209 -209 -209 -177 206 203 200 202 201 200 199 200 199 198 199 199 198 197 197 -193 -209 -209 -209 202 207 208 212 209 204 204 205 204 203 202 201 200 198 200 198 198 199 201 202 205 206 205 206 210 -209 211 -209 219 222 231 -209 -209 -209 -209 218 -209 -209 -209 -209 -209 -209 182 -209 175 177 176 177 178 177 181 -209 -209 -209 -209 -209 -209 -209 -209 0 0 0 0 0 0 -177 -177 27 38 48 -177 79 87 -209 -209 -209 -209 -209 22 -209 -209 -209 -209 -209 -209 -209 -209 -209 -209 -209 -209 -209 -209 -209 -193 -177 -209 -209 -209 -209 -209 -209 -209 -209 -209 -209 188 191 191 188 182 171 172 171 172 0 0 0 0 0
    0 0 0 0 0 0 0 0 0 0 0 0 0 0 0 0 0 0 0 0 0 0 0 0 0 0 0 0 0 0 0 0 0 0 0 0 0 0 0 0 0 0 0 0 0 0 0 0 0 0 0 0 0 0 0 0 0 0 0 0 0 0 0 0 0 0 0 0 0 196 194 194 196 193 195 194 195 197 197 197 196 195 196 196 198 199 199 200 200 200 199 200 201 201 200 199 199 200 201 203 202 201 201 202 201 202 201 201 201 201 202 202 201 201 201 201 200 202 200 203 203 203 203 205 204 203 204 -193 202 -193 202 202 202 202 203 202 202 202 203 205 206 207 208 208 208 208 206 205 206 206 204 203 203 -193 203 203 203 -193 -193 -193 111 -193 -193 -209 -209 -193 -193 199 202 -209 92 93 93 -177 -177 -209 -209 -209 -177 -177 207 206 203 202 202 201 201 199 200 199 199 199 199 200 200 200 201 -209 201 203 204 207 207 209 208 204 204 204 203 202 202 201 200 199 201 200 200 200 201 202 204 205 204 203 205 200 205 210 215 216 -193 -193 229 -209 -209 214 213 203 -209 -193 -209 -209 195 -209 -209 182 182 182 183 183 185 187 186 196 201 -209 -209 202 -193 -193 -193 -193 0 0 0 -177 -177 35 42 48 55 -193 78 -193 -209 -209 -209 -209 -209 -209 -209 -193 -193 -193 -193 -209 38 -209 -193 -209 -209 -209 -209 -209 -209 -177 -209 -209 -193 -193 -209 -209 -209 -209 -209 -209 -209 192 194 190 -209 170 171 170 172 0 0 0 0 0
    0 0 0 0 0 0 0 0 0 0 0 0 0 0 0 0 0 0 0 0 0 0 0 0 0 0 0 0 0 0 0 0 0 0 0 0 0 0 0 0 0 0 0 0 0 0 0 0 0 0 0 0 0 0 0 0 0 0 0 0 0 0 0 0 0 0 0 0 0 195 193 193 194 192 194 193 196 198 198 198 196 196 196 196 198 198 199 199 199 199 199 200 200 200 200 199 199 200 201 202 201 200 200 201 201 202 201 202 201 202 202 203 202 202 203 203 202 202 201 203 202 202 203 203 203 203 203 203 202 202 201 202 202 202 202 202 202 202 203 205 206 206 207 206 207 207 205 205 205 205 204 204 203 204 202 203 203 -193 202 -193 -193 202 201 201 -193 197 -193 199 202 -209 94 -193 -209 -209 -209 -209 209 207 211 208 206 205 203 202 202 201 201 200 201 200 200 201 201 201 201 201 202 202 202 204 205 206 206 207 207 204 204 204 203 202 201 201 200 199 201 200 201 201 202 202 203 204 203 203 204 201 203 204 210 210 -209 213 -209 -193 213 212 212 205 205 208 -209 -193 -193 204 -209 -209 -209 -209 187 188 192 197 198 199 203 203 203 204 206 206 205 204 -193 -209 -209 -193 -209 39 45 51 56 -193 -209 -209 -209 -209 -209 -209 -209 45 48 -193 -193 -193 44 -209 36 -209 -209 -209 -209 -209 -209 -209 -209 -177 -209 -209 -193 -193 -209 -209 -209 -209 -209 -209 -209 195 197 193 194 -209 183 181 181 0 0 0 0 0</data></disparity>
</opencv_storage>
