<?xml version="1.0"?>
<opencv_storage>
<gps_time_stamp>35742</gps_time_stamp>
<gps_x>-1.2520158767700195e+001</gps_x>
<gps_y>1.1758196353912354e+000</gps_y>
<gps_z>-3.2421879768371582e+000</gps_z>
<image_time_stamp>23667</image_time_stamp>
<disparity type_id="opencv-matrix">
  <rows>88</rows>
  <cols>320</cols>
  <dt>s</dt>
  <data>
    0 0 0 0 0 0 0 0 0 0 0 0 0 0 0 0 0 0 0 0 0 0 0 0 0 0 0 0 0 0 0 0 0 0 0 0 0 0 0 0 0 0 0 0 0 0 0 0 0 0 0 0 0 0 0 0 0 0 0 0 0 0 0 0 0 0 0 0 0 16 15 15 15 15 14 14 12 13 12 12 12 11 11 11 11 12 10 0 0 0 0 -193 0 0 0 0 0 0 0 0 0 0 0 0 0 0 0 0 0 0 0 0 10 0 0 0 13 11 13 12 12 10 11 12 12 0 0 0 0 0 0 0 0 0 0 0 0 0 0 9 9 9 10 10 9 9 9 0 0 0 0 0 0 0 0 9 0 0 0 0 0 0 0 0 0 0 0 0 0 9 10 11 11 19 14 14 12 13 12 12 11 13 9 8 9 11 9 10 9 9 0 0 0 0 0 0 0 0 0 0 0 0 0 0 12 10 10 10 12 12 15 13 13 12 13 19 15 14 19 15 19 17 18 17 14 19 17 13 15 13 13 11 15 15 9 19 31 43 -209 22 21 20 21 18 18 17 19 20 22 23 23 -209 28 31 32 31 29 -193 17 17 20 23 22 22 -193 -193 24 26 29 28 26 28 31 28 27 30 32 28 28 29 31 30 31 29 29 28 32 30 30 29 29 30 31 33 32 30 33 34 33 32 31 34 30 30 29 29 27 31 35 36 37 39 42 40 40 0 0 0 0 0
    0 0 0 0 0 0 0 0 0 0 0 0 0 0 0 0 0 0 0 0 0 0 0 0 0 0 0 0 0 0 0 0 0 0 0 0 0 0 0 0 0 0 0 0 0 0 0 0 0 0 0 0 0 0 0 0 0 0 0 0 0 0 0 0 0 0 0 0 0 16 15 15 15 15 14 14 13 13 13 12 12 11 10 11 10 11 10 0 0 0 0 -193 0 0 0 0 0 0 0 0 0 0 0 0 0 0 0 0 0 0 0 0 10 0 0 0 13 11 13 13 12 10 12 13 13 0 0 0 0 0 0 0 0 0 0 0 0 0 0 9 9 9 9 9 9 9 9 9 0 0 0 0 0 0 0 9 0 0 0 0 0 0 0 0 0 0 0 0 0 10 10 12 11 19 14 15 13 13 12 12 12 13 9 9 9 11 9 9 9 9 0 0 0 0 0 0 0 0 0 0 0 0 0 9 12 12 11 11 13 12 14 13 12 12 12 20 15 15 20 16 20 18 19 18 15 20 17 13 15 12 13 12 16 15 -177 25 36 44 -209 22 21 21 21 19 18 18 20 21 23 24 24 26 30 34 35 33 33 33 19 19 21 24 23 24 24 25 25 28 31 30 27 30 35 29 30 33 35 29 31 33 35 33 34 31 30 30 34 31 31 29 30 31 33 35 33 32 34 36 35 34 33 35 32 31 29 30 26 32 36 37 38 40 42 41 40 0 0 0 0 0
    0 0 0 0 0 0 0 0 0 0 0 0 0 0 0 0 0 0 0 0 0 0 0 0 0 0 0 0 0 0 0 0 0 0 0 0 0 0 0 0 0 0 0 0 0 0 0 0 0 0 0 0 0 0 0 0 0 0 0 0 0 0 0 0 0 0 0 0 0 16 15 14 15 15 14 14 13 13 14 13 13 11 10 11 10 11 10 0 9 9 9 -177 -193 9 -193 0 0 0 0 0 0 0 0 0 0 0 0 0 0 0 0 0 9 0 0 0 13 11 14 13 12 10 12 12 13 0 0 0 0 0 0 0 0 0 0 0 0 0 0 0 0 9 9 9 9 9 9 10 9 9 0 0 0 0 0 0 0 0 0 0 0 0 0 0 0 0 0 0 0 10 10 13 11 18 14 15 13 14 13 12 12 13 9 10 9 11 9 10 9 9 0 0 0 0 0 0 0 0 0 0 0 0 0 10 12 13 12 12 13 13 14 13 12 12 12 20 15 15 20 17 20 19 19 18 15 20 17 14 15 13 14 12 18 18 -177 27 36 42 30 25 25 22 22 20 19 19 22 -193 24 26 26 27 32 35 35 33 35 36 21 21 22 24 24 24 26 26 26 29 33 31 29 32 37 32 33 36 37 31 34 36 37 34 35 32 32 32 35 33 33 30 31 33 34 36 35 34 36 37 36 35 35 36 33 33 31 31 27 34 38 39 39 40 42 41 41 0 0 0 0 0
    0 0 0 0 0 0 0 0 0 0 0 0 0 0 0 0 0 0 0 0 0 0 0 0 0 0 0 0 0 0 0 0 0 0 0 0 0 0 0 0 0 0 0 0 0 0 0 0 0 0 0 0 0 0 0 0 0 0 0 0 0 0 0 0 0 0 0 0 0 15 14 14 14 15 14 14 13 13 13 13 13 11 11 11 11 12 10 0 10 10 12 -177 -193 10 -193 9 10 0 0 0 0 0 0 0 0 0 0 0 0 0 0 0 9 0 0 0 13 11 14 13 12 10 12 12 13 0 0 0 0 0 0 0 0 0 0 0 0 -193 0 0 0 0 9 9 9 0 9 10 9 9 0 0 0 0 0 0 0 0 0 -193 -193 0 0 0 0 0 0 9 0 10 10 13 11 18 14 14 13 14 12 12 12 14 9 10 10 12 9 11 11 11 0 0 0 0 0 0 0 0 0 0 0 0 0 11 12 14 12 12 13 14 14 14 12 12 11 20 15 16 20 19 21 19 20 18 16 21 17 14 16 13 14 13 20 20 12 28 35 38 32 28 27 23 23 21 20 21 23 23 25 27 28 30 34 36 36 34 36 37 24 23 23 26 25 25 27 27 28 30 35 33 31 34 38 34 36 37 38 33 36 38 38 35 35 33 33 33 35 35 34 32 33 35 36 38 36 36 37 38 37 36 36 37 35 34 33 33 29 37 39 40 40 40 42 41 41 0 0 0 0 0
    0 0 0 0 0 0 0 0 0 0 0 0 0 0 0 0 0 0 0 0 0 0 0 0 0 0 0 0 0 0 0 0 0 0 0 0 0 0 0 0 0 0 0 0 0 0 0 0 0 0 0 0 0 0 0 0 0 0 0 0 0 0 0 0 0 0 0 0 0 15 14 14 14 14 14 14 13 13 14 13 12 11 11 12 12 14 13 0 11 12 -193 -193 12 12 -193 10 11 0 9 0 0 0 0 0 0 0 0 0 0 0 0 0 9 0 0 0 13 11 14 13 12 10 11 12 12 0 0 0 0 0 0 0 0 0 0 0 0 0 0 0 0 0 9 9 0 0 9 9 9 9 0 0 0 0 0 0 0 0 0 -193 -193 9 9 9 0 0 9 9 9 10 10 12 10 17 13 14 13 14 13 12 12 14 10 10 10 12 9 10 11 11 9 0 0 0 0 0 0 0 0 0 0 0 0 12 12 15 13 13 13 14 15 14 12 13 11 20 15 17 20 19 22 20 20 19 16 21 18 15 16 14 16 15 21 21 16 28 34 35 31 30 29 25 24 23 22 23 25 26 27 29 31 33 37 38 37 35 37 38 32 25 24 29 27 27 30 29 30 33 36 34 32 36 39 36 38 39 39 36 39 40 40 36 36 35 34 35 36 36 36 34 36 38 38 39 38 38 38 39 38 37 37 38 37 37 36 36 32 39 40 41 41 41 43 42 42 0 0 0 0 0
    0 0 0 0 0 0 0 0 0 0 0 0 0 0 0 0 0 0 0 0 0 0 0 0 0 0 0 0 0 0 0 0 0 0 0 0 0 0 0 0 0 0 0 0 0 0 0 0 0 0 0 0 0 0 0 0 0 0 0 0 0 0 0 0 0 0 0 0 0 15 14 14 14 14 14 14 13 13 14 13 13 11 11 13 12 15 16 10 13 15 20 16 14 14 11 11 12 9 10 0 0 0 0 0 0 0 0 0 0 0 0 0 10 9 0 0 14 11 14 12 11 -193 11 11 11 0 0 0 0 0 0 0 0 0 0 0 0 0 0 0 0 0 0 9 0 0 9 9 0 0 0 0 0 0 0 0 0 0 0 -193 -193 9 9 9 0 0 9 10 9 10 10 11 10 16 13 13 13 14 13 12 12 15 10 12 11 12 9 10 11 10 0 0 0 0 0 0 0 0 0 0 0 0 0 13 13 15 13 13 14 14 15 14 12 13 11 20 15 17 20 20 22 20 21 19 17 22 18 15 17 14 16 15 21 21 17 28 32 32 31 32 31 29 28 25 24 26 29 29 29 31 33 35 38 38 37 33 37 37 35 28 28 32 30 29 34 31 33 34 37 35 34 37 40 37 39 40 41 39 41 41 41 37 38 36 36 36 37 37 38 37 38 40 39 40 39 39 39 40 38 38 38 39 38 38 37 38 35 40 41 42 41 42 43 42 42 0 0 0 0 0
    0 0 0 0 0 0 0 0 0 0 0 0 0 0 0 0 0 0 0 0 0 0 0 0 0 0 0 0 0 0 0 0 0 0 0 0 0 0 0 0 0 0 0 0 0 0 0 0 0 0 0 0 0 0 0 0 0 0 0 0 0 0 0 0 0 0 0 0 0 14 14 13 13 14 13 14 12 13 13 12 12 12 11 13 13 17 18 12 16 19 23 18 16 16 12 12 13 10 11 0 0 0 0 0 0 0 0 0 0 0 0 0 9 9 0 0 13 11 14 12 11 -193 11 11 11 0 0 0 0 0 0 0 0 0 0 0 0 0 0 0 0 0 0 9 0 0 9 9 0 0 0 0 0 0 0 0 0 0 0 -193 -193 9 -193 -193 -193 0 9 10 9 10 11 12 11 15 13 13 12 14 13 12 13 15 11 14 12 14 11 13 13 11 9 0 0 0 0 0 0 0 0 0 0 0 0 14 13 16 13 13 14 15 15 15 12 14 11 19 15 17 20 20 22 21 21 20 17 22 18 16 17 14 16 16 22 22 21 28 32 31 31 33 32 31 30 28 27 29 33 33 33 34 34 36 39 38 37 32 37 36 35 31 32 35 32 31 36 33 35 35 37 36 36 38 40 38 40 41 41 41 42 42 42 38 39 37 37 37 38 38 39 38 40 41 41 42 40 41 41 41 39 39 39 40 39 40 39 39 37 41 42 42 42 42 43 43 43 0 0 0 0 0
    0 0 0 0 0 0 0 0 0 0 0 0 0 0 0 0 0 0 0 0 0 0 0 0 0 0 0 0 0 0 0 0 0 0 0 0 0 0 0 0 0 0 0 0 0 0 0 0 0 0 0 0 0 0 0 0 0 0 0 0 0 0 0 0 0 0 0 0 0 14 15 14 13 14 14 14 13 13 13 12 12 12 12 13 13 18 20 16 20 23 24 20 19 19 14 12 13 10 11 0 0 0 0 0 0 0 0 0 0 0 0 0 9 9 0 0 14 11 14 12 11 -193 11 11 11 0 0 0 0 0 0 0 0 0 0 0 0 0 0 0 0 0 0 0 0 0 0 0 0 0 0 0 0 0 0 0 0 0 0 -193 -193 10 -193 658 658 -193 10 10 10 10 11 12 11 14 12 13 12 13 12 12 13 14 12 15 13 15 12 14 15 11 10 0 0 0 9 0 0 0 0 0 0 0 0 14 13 16 14 14 14 15 16 15 12 14 11 19 15 17 -193 21 22 21 21 20 18 22 18 16 17 14 16 17 21 22 22 28 31 31 31 34 33 32 32 29 30 32 35 35 35 36 36 37 40 39 38 31 38 36 37 34 35 36 35 34 38 35 37 37 38 37 37 39 41 39 41 41 42 41 42 42 42 -193 -193 38 38 38 38 39 40 39 40 41 42 42 41 41 41 41 39 39 39 40 40 40 39 40 39 42 42 43 42 42 44 43 43 0 0 0 0 0
    0 0 0 0 0 0 0 0 0 0 0 0 0 0 0 0 0 0 0 0 0 0 0 0 0 0 0 0 0 0 0 0 0 0 0 0 0 0 0 0 0 0 0 0 0 0 0 0 0 0 0 0 0 0 0 0 0 0 0 0 0 0 0 0 0 0 0 0 0 15 15 14 14 14 14 15 13 13 12 11 11 11 12 13 13 18 22 21 23 25 26 23 21 22 18 14 16 11 12 0 0 0 0 0 0 0 0 0 0 0 0 0 9 0 0 0 13 11 13 12 10 9 10 10 10 0 0 0 0 0 0 0 0 0 0 0 0 0 0 0 0 0 0 0 0 0 0 0 0 0 0 0 0 0 0 0 0 0 0 -193 -193 10 -193 -193 -193 -193 10 11 10 10 11 11 11 12 11 12 11 12 11 11 13 13 12 15 13 16 13 16 16 11 11 10 10 9 11 0 0 0 0 0 0 0 0 15 13 17 14 14 15 16 16 15 13 15 11 19 15 18 -193 21 23 22 -193 20 18 23 19 17 18 14 17 18 22 22 23 28 31 31 32 35 33 33 34 31 32 34 36 37 36 37 38 38 40 39 38 29 38 37 38 37 38 38 37 36 40 37 39 38 39 38 39 40 42 40 42 42 43 43 43 43 43 -193 -193 -193 -193 -193 -193 39 -193 40 40 41 42 41 41 41 41 -193 39 39 39 40 41 41 40 40 40 42 42 43 42 42 44 43 43 0 0 0 0 0
    0 0 0 0 0 0 0 0 0 0 0 0 0 0 0 0 0 0 0 0 0 0 0 0 0 0 0 0 0 0 0 0 0 0 0 0 0 0 0 0 0 0 0 0 0 0 0 0 0 0 0 0 0 0 0 0 0 0 0 0 0 0 0 0 0 0 0 0 0 15 15 15 14 15 15 15 13 13 12 11 11 11 12 14 15 20 23 25 25 27 28 25 24 25 22 17 19 13 14 0 0 0 0 0 0 0 0 0 0 0 0 0 9 9 0 0 13 11 13 11 10 9 10 10 10 0 0 0 0 0 0 0 0 0 0 0 -177 0 0 0 0 0 0 0 0 0 0 0 0 0 0 0 0 0 0 0 0 0 0 -193 383 11 11 -193 -193 9 11 11 10 10 11 10 10 11 10 11 10 11 11 10 13 13 13 17 16 19 16 18 18 11 12 10 10 9 10 0 0 0 9 0 9 0 9 15 13 17 14 14 15 16 16 16 13 16 11 20 16 18 -193 22 23 22 21 20 18 23 19 17 18 15 17 19 -193 23 25 28 31 31 32 35 33 33 35 32 34 35 37 37 36 38 38 39 40 39 37 30 39 38 40 39 39 40 39 38 41 39 41 39 40 39 40 41 43 41 43 42 43 44 44 43 44 -177 165 -193 -193 -193 -193 -193 -209 40 40 40 41 41 40 40 40 -193 -193 -193 39 41 41 41 40 41 41 42 42 43 42 42 44 43 43 0 0 0 0 0
    0 0 0 0 0 0 0 0 0 0 0 0 0 0 0 0 0 0 0 0 0 0 0 0 0 0 0 0 0 0 0 0 0 0 0 0 0 0 0 0 0 0 0 0 0 0 0 0 0 0 0 0 0 0 0 0 0 0 0 0 0 0 0 0 0 0 0 0 0 16 15 16 15 15 15 15 14 13 12 12 12 12 13 16 19 22 25 27 28 29 29 28 26 26 25 21 22 18 17 9 9 0 0 0 0 0 0 0 0 0 0 0 9 10 0 0 15 12 13 11 10 9 9 10 10 0 0 0 0 0 0 0 0 0 0 0 0 0 0 0 0 0 0 0 0 0 0 0 0 0 0 0 0 0 0 0 0 0 0 -193 -193 11 11 -193 10 9 11 11 10 9 10 10 10 10 9 10 10 10 10 10 13 13 14 18 18 22 19 20 20 12 13 11 10 9 10 0 0 0 10 0 9 9 9 15 12 17 14 14 14 16 17 16 13 15 12 19 16 18 -193 21 22 21 21 20 17 22 18 17 18 16 18 -193 -193 -193 -193 29 31 31 32 35 33 33 35 32 34 35 37 37 36 38 38 38 39 39 37 31 39 38 40 40 41 41 41 40 42 41 42 40 40 -193 41 41 43 41 43 42 43 44 44 43 44 -193 -193 -193 -193 -193 -193 -193 -209 40 40 40 40 39 39 40 40 -193 -193 -193 39 41 41 41 40 41 41 42 42 42 42 42 44 43 43 0 0 0 0 0
    0 0 0 0 0 0 0 0 0 0 0 0 0 0 0 0 0 0 0 0 0 0 0 0 0 0 0 0 0 0 0 0 0 0 0 0 0 0 0 0 0 0 0 0 0 0 0 0 0 0 0 0 0 0 0 0 0 0 0 0 0 0 0 0 0 0 0 0 0 16 15 16 14 15 15 14 15 13 12 13 13 14 15 18 21 23 26 28 30 30 32 30 27 28 26 22 23 20 19 10 11 10 9 0 0 0 0 0 0 0 0 0 10 11 9 9 15 12 13 11 10 9 9 9 10 0 0 0 0 0 0 0 0 0 0 0 0 0 0 0 0 0 9 10 11 0 9 0 9 0 0 0 0 0 0 0 0 0 0 -193 -193 11 11 11 11 10 12 12 11 10 11 10 10 9 9 9 10 11 10 10 15 15 17 22 22 25 23 23 22 16 16 12 11 10 10 9 9 9 10 0 9 9 9 15 13 16 14 13 14 16 17 16 13 15 12 19 16 18 19 20 22 21 20 19 17 21 18 18 19 17 -193 -177 -177 -177 -177 29 31 31 32 35 33 34 35 33 35 36 37 38 36 39 39 39 40 40 40 34 39 39 41 41 41 41 41 40 43 42 42 41 -193 -193 41 41 43 41 43 42 43 44 44 43 44 -193 -193 -193 -193 -193 -193 -193 -193 39 39 39 40 39 39 40 40 -193 -177 -193 40 41 42 41 41 42 41 42 42 42 41 43 44 43 44 0 0 0 0 0
    0 0 0 0 0 0 0 0 0 0 0 0 0 0 0 0 0 0 0 0 0 0 0 0 0 0 0 0 0 0 0 0 0 0 0 0 0 0 0 0 0 0 0 0 0 0 0 0 0 0 0 0 0 0 0 0 0 0 0 0 0 0 0 0 0 0 0 0 0 16 15 17 14 15 15 15 15 14 13 14 14 16 17 21 22 24 27 29 31 30 34 33 29 29 28 25 27 23 22 12 14 11 11 10 0 0 0 0 0 0 10 11 13 12 9 9 15 13 13 10 9 0 0 0 9 0 0 0 0 0 0 0 9 0 0 0 0 0 0 0 0 0 10 11 13 11 12 11 13 16 13 0 0 0 0 0 -193 0 0 -193 -193 12 12 12 12 11 13 13 12 11 12 11 11 9 9 9 10 11 11 11 17 18 20 24 25 27 25 26 25 21 20 13 12 11 10 9 9 9 10 0 10 9 9 15 13 17 14 13 14 16 17 16 13 15 12 19 17 17 19 19 21 21 20 19 16 21 18 18 19 -193 -193 -177 -177 -177 -177 29 32 32 33 36 33 34 35 33 35 36 37 38 36 39 39 39 40 40 40 37 40 40 41 41 41 41 41 40 43 41 42 41 -193 -193 42 -193 44 42 43 42 44 44 44 43 45 -193 -193 -193 412 -209 -209 -209 41 39 39 39 39 39 39 40 39 -193 -193 -193 40 41 42 41 41 42 41 42 42 42 41 43 44 43 44 0 0 0 0 0
    0 0 0 0 0 0 0 0 0 0 0 0 0 0 0 0 0 0 0 0 0 0 0 0 0 0 0 0 0 0 0 0 0 0 0 0 0 0 0 0 0 0 0 0 0 0 0 0 0 0 0 0 0 0 0 0 0 0 0 0 0 0 0 0 0 0 0 0 0 16 15 18 14 15 15 14 15 14 13 14 14 16 18 21 23 24 27 29 31 31 35 34 30 30 29 27 30 26 24 17 17 13 13 13 10 10 11 9 10 11 16 17 17 17 11 11 16 14 15 11 10 0 9 9 -193 0 0 0 0 0 0 0 13 0 0 0 0 9 9 9 0 0 11 14 18 17 18 22 21 25 25 24 16 9 11 0 -193 0 9 10 -193 13 14 13 13 12 16 15 12 11 13 11 12 9 10 10 11 12 11 12 19 20 22 25 26 27 26 26 25 23 22 15 12 12 11 9 9 10 10 0 10 10 10 16 13 17 14 13 14 16 17 16 13 16 12 18 18 17 18 19 20 20 19 18 15 20 18 19 19 -193 -177 -177 -177 -193 -177 29 32 32 33 36 33 35 35 34 35 36 37 38 36 39 39 38 39 39 37 39 41 40 41 41 41 41 41 40 42 41 42 41 -193 -193 -193 -193 44 41 43 42 -193 -193 44 43 45 -193 -193 -193 -193 -193 41 -209 42 40 39 39 39 39 40 40 39 38 39 40 40 41 42 42 41 42 41 43 42 43 42 44 45 44 45 0 0 0 0 0
    0 0 0 0 0 0 0 0 0 0 0 0 0 0 0 0 0 0 0 0 0 0 0 0 0 0 0 0 0 0 0 0 0 0 0 0 0 0 0 0 0 0 0 0 0 0 0 0 0 0 0 0 0 0 0 0 0 0 0 0 0 0 0 0 0 0 0 0 0 16 15 18 14 15 15 15 16 14 12 14 14 17 19 21 24 25 27 29 32 32 35 35 32 32 30 31 32 28 27 24 22 18 19 19 14 13 15 13 12 14 21 21 20 21 15 15 18 17 19 15 13 -193 9 -193 -193 -193 0 0 0 0 9 9 18 9 11 10 10 13 13 13 10 9 13 18 20 20 21 26 25 26 26 26 25 23 21 -209 13 10 10 11 15 14 17 16 16 15 19 18 14 13 13 12 12 -193 10 10 11 13 12 13 21 22 23 26 27 28 27 28 27 26 23 18 13 12 11 10 10 11 11 9 10 10 10 16 13 16 14 13 14 16 17 16 14 16 13 18 19 17 17 18 19 19 18 17 15 19 17 19 19 -193 -177 -177 -177 -193 -193 29 33 32 34 36 33 35 35 34 35 36 37 37 35 39 38 37 38 38 32 40 42 41 41 41 41 41 41 40 42 41 42 41 -193 -193 -193 -193 44 41 43 -193 -193 -193 44 -193 44 -193 -193 -193 -193 42 42 41 42 40 39 39 39 38 39 40 40 39 40 40 41 41 42 42 41 42 42 43 43 43 42 45 45 45 46 0 0 0 0 0
    0 0 0 0 0 0 0 0 0 0 0 0 0 0 0 0 0 0 0 0 0 0 0 0 0 0 0 0 0 0 0 0 0 0 0 0 0 0 0 0 0 0 0 0 0 0 0 0 0 0 0 0 0 0 0 0 0 0 0 0 0 0 0 0 0 0 0 0 0 17 16 19 15 17 17 16 17 15 13 16 15 19 21 23 25 26 28 30 32 32 35 35 33 33 32 33 33 30 28 27 25 23 22 23 22 20 23 23 21 21 24 25 23 23 20 19 19 20 21 17 15 -209 -193 -193 -193 -193 0 0 0 0 9 11 22 -193 16 19 23 24 21 24 11 0 15 20 22 22 22 28 26 27 28 28 27 26 25 26 19 13 13 14 17 16 19 18 18 18 22 20 15 14 -193 12 13 -193 10 11 12 14 13 18 23 24 25 27 28 28 28 29 28 27 24 19 14 13 12 10 10 12 11 9 10 10 9 16 12 16 13 12 13 16 16 16 13 15 13 18 19 17 16 18 19 19 17 16 15 18 17 19 18 19 -193 -177 -193 -193 -193 29 33 33 34 36 34 35 36 34 36 36 37 37 35 38 38 37 37 37 30 40 42 41 41 41 41 41 41 40 42 40 42 41 -193 -193 -193 -193 44 41 42 -193 -193 -193 44 -193 -193 -209 -193 -193 -193 42 42 41 41 40 40 39 39 39 40 40 40 40 41 41 42 42 42 42 41 42 42 43 43 43 43 46 46 46 48 0 0 0 0 0
    0 0 0 0 0 0 0 0 0 0 0 0 0 0 0 0 0 0 0 0 0 0 0 0 0 0 0 0 0 0 0 0 0 0 0 0 0 0 0 0 0 0 0 0 0 0 0 0 0 0 0 0 0 0 0 0 0 0 0 0 0 0 0 0 0 0 0 0 0 19 17 21 16 18 18 17 19 16 14 18 17 22 24 25 26 28 29 31 33 32 35 36 35 34 34 34 34 32 30 29 27 26 25 25 25 24 26 26 25 25 26 26 25 24 21 20 19 20 21 17 18 -193 10 -209 -193 -209 0 0 0 0 10 14 25 27 26 26 27 27 26 27 -193 12 21 22 24 25 24 30 27 29 29 30 29 28 27 28 24 19 18 18 19 18 21 21 20 21 25 23 18 15 -193 -193 13 -193 11 11 14 18 18 23 26 26 27 29 30 30 30 30 30 29 25 -193 15 14 12 11 11 12 12 10 11 10 10 16 12 16 13 12 13 16 16 16 13 15 13 17 19 17 16 18 18 18 17 16 15 17 17 19 19 19 20 -177 -193 25 27 29 33 33 34 36 34 36 36 35 36 37 -193 37 35 38 37 37 37 37 30 41 43 41 41 41 41 41 41 40 42 40 42 41 -193 -193 -193 -193 44 42 43 42 43 -193 44 42 -193 -209 -193 43 43 43 43 41 42 41 40 39 39 39 40 40 41 40 42 42 43 43 43 42 42 42 42 43 43 44 43 46 47 47 49 0 0 0 0 0
    0 0 0 0 0 0 0 0 0 0 0 0 0 0 0 0 0 0 0 0 0 0 0 0 0 0 0 0 0 0 0 0 0 0 0 0 0 0 0 0 0 0 0 0 0 0 0 0 0 0 0 0 0 0 0 0 0 0 0 0 0 0 0 0 0 0 0 0 0 20 18 21 17 19 19 18 20 18 16 19 19 24 25 26 27 28 29 32 33 32 36 36 35 35 34 34 34 31 30 29 28 27 26 27 26 26 28 28 26 26 27 27 25 25 22 21 20 21 22 19 21 13 12 -209 -209 -209 -193 0 -193 -193 11 19 27 29 30 28 28 28 28 29 28 25 25 24 26 27 26 32 30 31 32 33 31 30 29 29 26 22 22 21 21 20 22 23 23 24 27 27 21 19 -193 14 16 13 12 13 17 21 22 25 28 28 30 31 32 31 31 31 31 30 26 -193 16 15 12 11 11 12 12 11 12 11 11 16 13 16 13 13 13 16 16 16 14 16 13 17 20 17 15 17 17 18 16 15 15 16 16 18 18 19 20 22 24 25 27 29 34 32 33 36 35 36 36 35 37 37 37 37 36 38 37 37 37 37 31 40 43 41 41 41 41 41 41 40 42 40 42 41 -193 -193 43 -193 44 42 43 42 43 42 44 41 43 40 42 43 43 43 43 42 42 41 41 40 40 39 40 40 41 41 43 42 43 43 44 43 43 43 43 43 43 44 44 47 47 48 50 0 0 0 0 0
    0 0 0 0 0 0 0 0 0 0 0 0 0 0 0 0 0 0 0 0 0 0 0 0 0 0 0 0 0 0 0 0 0 0 0 0 0 0 0 0 0 0 0 0 0 0 0 0 0 0 0 0 0 0 0 0 0 0 0 0 0 0 0 0 0 0 0 0 0 21 19 22 17 19 19 19 21 19 18 21 21 25 25 26 27 28 29 32 32 32 36 36 36 35 34 34 33 31 30 28 28 26 27 27 27 27 29 28 27 27 27 27 25 25 22 22 20 22 23 22 23 16 13 -209 -209 -209 -193 0 -209 -193 13 -193 31 33 35 34 31 31 31 31 30 27 28 25 28 29 29 34 32 33 33 34 32 32 31 31 27 25 25 25 23 23 24 26 26 27 30 31 26 22 -193 16 18 16 14 14 19 23 24 27 29 29 32 33 33 32 32 32 32 30 27 -209 -193 17 13 11 11 13 12 12 13 12 11 18 13 17 14 13 13 16 16 16 14 16 13 16 20 16 15 17 16 17 15 15 15 16 17 18 18 20 20 22 24 25 26 29 34 32 33 36 35 36 36 35 37 37 37 38 36 38 37 37 37 36 31 39 42 40 41 40 40 40 41 40 42 40 42 41 42 42 43 43 44 42 43 42 42 42 43 41 42 40 41 43 43 43 43 42 42 41 41 40 40 39 40 40 41 41 43 42 43 43 44 44 44 43 44 44 45 46 44 48 48 48 51 0 0 0 0 0
    0 0 0 0 0 0 0 0 0 0 0 0 0 0 0 0 0 0 0 0 0 0 0 0 0 0 0 0 0 0 0 0 0 0 0 0 0 0 0 0 0 0 0 0 0 0 0 0 0 0 0 0 0 0 0 0 0 0 0 0 0 0 0 0 0 0 0 0 0 22 20 22 18 20 21 21 22 21 20 22 22 25 26 27 28 28 29 31 32 32 36 35 35 34 34 33 32 30 29 27 27 26 27 27 27 28 29 29 28 28 28 27 26 24 21 22 20 22 25 24 26 -209 -209 -209 -209 -209 -209 -193 -209 -209 -209 -209 39 38 39 40 38 37 38 36 35 33 34 28 30 32 31 35 33 34 34 35 33 33 32 33 29 28 28 27 26 26 28 30 28 29 32 33 29 25 -193 17 19 18 16 17 21 -193 26 28 31 30 33 34 34 32 33 33 33 31 29 -209 -209 19 15 12 12 14 12 13 14 13 12 19 14 17 15 14 14 17 17 17 14 16 14 16 20 17 15 18 17 18 16 16 16 16 17 18 18 20 20 23 24 25 26 29 34 32 32 35 35 36 36 35 37 37 37 37 36 37 36 36 36 36 31 38 41 39 40 40 39 40 40 40 42 40 42 41 42 42 43 43 44 42 43 42 42 41 43 41 41 40 41 43 43 42 43 42 42 42 41 41 40 40 41 40 42 41 43 42 43 43 44 44 45 44 45 45 46 47 45 49 49 49 51 0 0 0 0 0
    0 0 0 0 0 0 0 0 0 0 0 0 0 0 0 0 0 0 0 0 0 0 0 0 0 0 0 0 0 0 0 0 0 0 0 0 0 0 0 0 0 0 0 0 0 0 0 0 0 0 0 0 0 0 0 0 0 0 0 0 0 0 0 0 0 0 0 0 0 24 22 23 20 22 22 23 23 -193 23 23 24 26 28 28 28 28 29 31 31 32 35 35 36 35 35 34 32 31 29 28 27 26 27 28 28 29 30 30 28 28 28 27 26 24 21 22 20 23 25 26 30 -209 -209 -209 -209 -209 -209 -209 -209 -209 -209 49 43 41 42 43 42 40 41 38 37 37 38 33 34 34 33 36 34 35 35 36 34 34 34 35 31 35 34 31 31 31 32 34 32 32 35 36 33 -193 -209 -193 -193 -193 17 17 21 -177 26 29 31 30 33 34 35 32 34 34 34 33 31 -193 -209 -193 19 12 12 14 13 14 15 13 13 19 14 18 15 15 14 18 17 18 15 17 14 17 20 17 15 19 17 18 16 16 16 16 17 18 18 20 20 22 23 24 26 28 33 31 32 35 35 36 36 35 37 37 37 37 35 37 36 36 36 35 30 37 40 39 39 39 39 39 40 40 41 39 41 41 42 42 43 43 44 42 43 41 42 41 43 40 41 40 41 43 42 42 43 42 42 42 41 41 40 40 41 41 42 41 43 42 43 43 45 45 45 45 46 45 46 47 46 49 49 50 51 0 0 0 0 0
    0 0 0 0 0 0 0 0 0 0 0 0 0 0 0 0 0 0 0 0 0 0 0 0 0 0 0 0 0 0 0 0 0 0 0 0 0 0 0 0 0 0 0 0 0 0 0 0 0 0 0 0 0 0 0 0 0 0 0 0 0 0 0 0 0 0 0 0 0 27 26 26 -193 24 24 26 25 -193 -209 -193 25 27 28 28 28 28 28 30 31 32 34 34 35 35 34 34 31 30 28 28 27 26 27 28 28 29 30 30 29 29 29 28 26 23 20 21 20 23 25 27 32 -209 -193 -209 -209 -209 -193 46 50 -209 52 50 46 44 44 44 43 41 42 39 39 39 40 38 38 39 38 38 36 37 37 37 35 35 35 35 33 37 36 33 32 33 34 36 34 34 36 38 36 -209 -209 -209 -209 -193 19 18 22 -193 27 30 32 30 33 34 35 32 34 35 35 33 32 34 -209 -193 -209 13 13 15 14 16 17 14 13 20 15 19 16 16 14 19 18 18 15 17 15 17 21 18 15 19 17 18 16 16 16 17 17 17 18 20 20 23 23 24 26 28 33 30 31 35 35 36 35 35 37 38 37 37 36 37 36 36 36 35 29 37 40 38 39 39 38 39 39 39 41 39 41 41 41 42 43 43 43 42 42 41 41 40 42 40 40 40 41 44 43 42 43 42 42 42 42 41 40 41 41 41 43 42 44 43 44 44 45 45 45 45 46 46 47 48 47 50 50 50 51 0 0 0 0 0
    0 0 0 0 0 0 0 0 0 0 0 0 0 0 0 0 0 0 0 0 0 0 0 0 0 0 0 0 0 0 0 0 0 0 0 0 0 0 0 0 0 0 0 0 0 0 0 0 0 0 0 0 0 0 0 0 0 0 0 0 0 0 0 0 0 0 0 0 0 32 33 -209 -209 -209 -193 -193 32 -193 -193 30 31 31 31 31 31 31 30 31 31 31 33 33 35 34 32 32 30 30 28 27 26 24 26 27 28 29 30 29 29 29 29 28 27 23 20 22 21 24 -209 -193 -209 -209 -193 -209 -209 -209 46 47 51 46 52 50 46 45 44 44 43 41 42 40 39 39 41 41 40 41 39 38 37 37 38 38 36 36 36 36 35 38 38 34 34 35 36 37 35 35 36 39 38 -209 -209 -209 -209 -209 21 20 23 26 28 31 34 31 35 35 36 34 36 36 36 34 34 34 31 26 28 13 14 15 14 17 18 15 14 20 16 20 18 17 15 20 18 19 16 17 15 17 21 19 16 20 18 19 17 17 17 17 17 17 17 20 20 23 24 24 26 29 33 30 30 34 34 36 35 34 36 38 37 37 36 37 35 36 36 35 30 37 40 38 39 39 39 39 40 40 41 39 41 41 41 42 43 42 43 41 42 41 41 40 42 40 39 41 41 45 43 42 43 42 42 42 41 41 40 41 41 41 44 43 44 44 45 44 45 46 45 46 46 46 47 48 47 50 51 51 51 0 0 0 0 0
    0 0 0 0 0 0 0 0 0 0 0 0 0 0 0 0 0 0 0 0 0 0 0 0 0 0 0 0 0 0 0 0 0 0 0 0 0 0 0 0 0 0 0 0 0 0 0 0 0 0 0 0 0 0 0 0 0 0 0 0 0 0 0 0 0 0 0 0 0 35 -193 -209 -209 -209 -209 -209 -209 -209 -209 34 35 34 33 34 35 34 34 34 33 33 34 35 36 34 32 30 29 33 29 27 25 24 24 26 27 29 29 29 28 30 30 29 28 23 21 23 22 -209 -177 -193 -193 -209 -209 -209 -177 -209 -193 46 50 44 49 48 45 45 44 44 43 41 42 40 40 40 41 41 41 42 41 38 37 38 39 39 36 35 35 36 35 40 39 35 37 38 38 37 35 35 37 40 38 -209 -209 -193 -209 23 -209 20 23 27 29 32 34 32 36 36 37 35 36 36 35 34 34 33 31 28 31 15 15 17 14 18 18 16 16 21 18 21 20 19 18 21 20 20 17 18 16 18 22 20 18 22 20 21 19 18 17 17 16 16 15 19 20 23 -193 -193 26 29 33 30 30 32 34 35 35 34 36 37 36 37 36 37 36 36 36 35 30 37 40 39 39 40 40 40 41 40 42 39 41 41 41 42 42 42 42 41 42 41 41 40 42 40 39 41 42 45 43 42 43 42 42 43 42 41 40 41 41 42 44 43 45 44 45 45 46 46 46 46 47 46 47 49 48 51 51 51 51 0 0 0 0 0
    0 0 0 0 0 0 0 0 0 0 0 0 0 0 0 0 0 0 0 0 0 0 0 0 0 0 0 0 0 0 0 0 0 0 0 0 0 0 0 0 0 0 0 0 0 0 0 0 0 0 0 0 0 0 0 0 0 0 0 0 0 0 0 0 0 0 0 0 0 -209 -209 -209 -193 261 -209 -209 -209 -193 -209 -209 35 35 35 36 37 37 37 36 35 35 36 37 38 36 31 30 31 34 31 -209 -209 -209 -193 -193 -193 -193 29 -193 -193 31 33 31 -193 -209 22 -193 -209 -177 -177 -177 -193 -209 -209 -209 -193 -209 -193 43 46 43 46 46 45 44 44 44 44 41 42 40 40 40 41 41 41 42 41 39 37 37 39 38 36 34 35 36 37 41 -193 38 41 41 40 39 36 35 37 42 39 -209 -209 -209 -209 -209 -209 20 24 27 29 32 34 33 36 37 37 36 37 37 36 34 34 34 34 32 33 17 16 18 15 19 17 16 19 22 21 23 22 22 22 23 22 22 21 22 21 22 24 23 21 24 23 23 20 20 17 16 15 15 13 15 17 21 -193 -193 -193 28 30 28 28 29 31 32 34 34 35 37 36 37 36 37 36 36 36 35 30 37 40 39 39 40 40 41 41 41 42 40 41 40 41 41 42 42 42 -193 41 41 41 40 41 40 39 41 42 45 42 42 43 42 42 43 42 41 40 41 42 42 44 43 45 44 45 45 46 46 46 46 47 46 48 49 48 51 51 51 50 0 0 0 0 0
    0 0 0 0 0 0 0 0 0 0 0 0 0 0 0 0 0 0 0 0 0 0 0 0 0 0 0 0 0 0 0 0 0 0 0 0 0 0 0 0 0 0 0 0 0 0 0 0 0 0 0 0 0 0 0 0 0 0 0 0 0 0 0 0 0 0 0 0 0 -209 -209 -193 -193 260 -193 -193 263 262 263 -209 35 36 39 42 43 41 43 39 37 36 37 37 37 34 28 -177 27 24 -209 -209 263 -193 -177 -177 -193 -209 -209 -209 126 -193 -209 -209 -209 -209 -209 -209 382 378 378 -193 -193 -209 -209 -193 -209 -209 -193 43 46 -193 -193 44 44 44 44 44 45 42 42 41 41 41 -193 -193 44 44 42 40 37 36 37 37 34 33 34 36 39 42 -209 -209 46 48 43 -209 -193 -193 -193 42 -193 -209 -209 -209 -209 -209 -209 -193 24 27 29 32 35 34 36 38 38 35 36 37 35 33 32 33 33 33 35 -193 24 -193 -209 -209 -209 20 23 24 24 26 25 26 27 -193 -193 -193 -193 254 252 -193 -193 -193 -193 29 -193 26 23 22 17 16 14 14 11 12 14 -209 -209 -209 -209 28 29 28 28 28 29 30 34 34 35 36 35 36 37 38 37 35 34 34 30 36 39 38 39 40 40 41 41 41 43 40 41 40 41 42 42 42 -193 -209 -193 -193 -193 -193 41 -193 38 41 42 46 43 42 42 42 42 43 42 42 40 41 42 43 45 43 45 44 46 45 46 46 47 47 47 46 48 50 49 51 51 51 50 0 0 0 0 0
    0 0 0 0 0 0 0 0 0 0 0 0 0 0 0 0 0 0 0 0 0 0 0 0 0 0 0 0 0 0 0 0 0 0 0 0 0 0 0 0 0 0 0 0 0 0 0 0 0 0 0 0 0 0 0 0 0 0 0 0 0 0 0 0 0 0 0 0 0 -177 -177 259 259 259 259 260 260 260 260 262 -209 -209 53 56 -193 45 45 -193 -193 -193 -193 -193 -193 -193 -193 -193 -209 -209 -193 -177 263 262 262 262 262 262 259 -193 -193 -209 -209 -209 -209 -209 -209 -209 381 377 377 -209 -193 -193 254 256 258 257 -193 44 -193 -193 -209 -193 44 44 45 45 -193 -193 -193 42 -193 -193 -193 -193 -193 -193 -209 -193 34 32 34 35 32 31 33 36 -193 42 -209 -209 49 51 -209 -209 -177 -193 -209 -209 -209 -209 -209 -209 -209 -209 -193 -209 23 -193 29 31 34 34 35 37 37 34 35 37 35 32 30 32 32 32 34 -193 -177 -193 -209 -209 -209 -209 -209 -177 -177 -177 -177 -193 -193 252 255 253 253 254 253 254 253 254 256 258 259 256 -193 -193 -193 -193 -193 -209 -193 259 260 261 -193 259 259 -193 28 27 28 29 28 30 35 34 35 36 35 36 36 37 36 34 34 33 30 36 38 38 38 39 39 40 41 41 43 40 41 -193 42 -193 -193 -193 -193 167 -193 -193 -193 -193 -193 -193 -193 -193 42 47 43 42 42 42 42 43 42 41 39 42 42 43 46 44 46 45 47 46 47 47 47 48 48 47 49 50 50 52 51 51 49 0 0 0 0 0
    0 0 0 0 0 0 0 0 0 0 0 0 0 0 0 0 0 0 0 0 0 0 0 0 0 0 0 0 0 0 0 0 0 0 0 0 0 0 0 0 0 0 0 0 0 0 0 0 0 0 0 0 0 0 0 0 0 0 0 0 0 0 0 0 0 0 0 0 0 -177 -177 259 259 259 259 259 259 259 260 261 -193 -209 -209 63 66 -209 -193 260 260 260 260 261 262 261 261 261 -177 262 262 262 262 261 262 262 262 262 260 257 256 258 257 258 259 260 -193 259 -193 -193 -193 260 259 256 256 257 258 257 259 -209 -209 -209 -209 -209 -193 -193 -193 -193 255 260 261 262 262 264 266 266 266 266 264 263 -193 -193 -193 -193 -193 30 33 37 -193 -209 -209 -193 -193 -193 -209 -209 -209 -209 -209 -193 -193 -209 -209 -209 -209 -193 -193 -209 -209 -209 29 31 35 35 36 37 38 35 35 37 35 30 29 31 33 32 33 -209 -209 -209 -209 -209 -209 -209 -209 -209 -209 -209 -209 -193 252 254 256 255 254 255 253 254 254 255 257 259 260 259 258 259 259 258 259 257 256 257 258 260 259 258 259 256 -193 -209 27 27 26 29 35 34 35 36 35 36 37 38 36 33 33 32 30 37 38 38 38 39 39 40 40 40 42 40 -177 -193 -193 -209 -193 -193 -193 167 165 164 -193 -193 -193 -193 -193 -193 43 49 43 43 43 42 42 44 42 42 39 42 42 44 47 45 47 46 48 46 47 47 48 48 48 47 49 50 50 52 51 51 49 0 0 0 0 0
    0 0 0 0 0 0 0 0 0 0 0 0 0 0 0 0 0 0 0 0 0 0 0 0 0 0 0 0 0 0 0 0 0 0 0 0 0 0 0 0 0 0 0 0 0 0 0 0 0 0 0 0 0 0 0 0 0 0 0 0 0 0 0 0 0 0 0 0 0 -177 -177 259 259 259 259 259 259 259 259 261 260 -193 -209 -209 -209 262 261 260 260 259 259 260 261 261 260 260 261 261 262 261 261 260 260 260 260 260 259 256 256 257 256 258 259 260 259 259 261 261 261 261 260 258 257 258 258 257 258 -209 -209 -209 -209 -209 253 254 255 254 258 261 262 262 263 264 265 265 266 266 264 263 261 261 261 258 255 -193 -193 -193 260 -209 262 263 264 264 263 263 262 262 262 -209 -209 -209 -209 -209 -193 263 -193 -193 -193 -209 -193 -193 35 -193 36 37 38 34 34 37 35 30 28 30 34 33 33 -209 -209 -209 -209 -209 -193 -209 -209 -209 -209 646 -209 254 253 256 257 257 255 256 254 255 255 257 258 259 260 259 258 260 260 258 259 257 256 258 258 259 258 257 259 256 256 256 -193 26 27 30 36 35 36 36 36 37 37 38 36 33 32 32 31 37 39 38 38 38 39 40 40 40 41 39 -193 -193 -193 -193 -193 -193 168 166 164 164 165 166 -193 -193 -193 -193 43 50 44 -193 -193 43 43 45 43 42 40 43 43 44 48 46 48 47 48 47 48 47 48 48 48 46 48 50 50 52 51 51 49 0 0 0 0 0
    0 0 0 0 0 0 0 0 0 0 0 0 0 0 0 0 0 0 0 0 0 0 0 0 0 0 0 0 0 0 0 0 0 0 0 0 0 0 0 0 0 0 0 0 0 0 0 0 0 0 0 0 0 0 0 0 0 0 0 0 0 0 0 0 0 0 0 0 0 -177 259 259 259 259 260 260 260 260 260 261 261 262 260 261 261 262 261 259 259 257 258 259 260 260 260 259 260 260 261 261 260 260 259 259 259 259 258 255 255 257 256 258 259 261 260 260 260 261 261 261 261 259 257 257 258 257 258 258 -193 -193 258 258 258 258 258 257 260 262 262 262 262 263 263 264 265 265 263 262 261 261 261 -193 -193 -193 254 258 261 263 261 262 263 263 262 262 261 261 261 262 262 -193 -193 261 262 262 262 261 259 -209 -193 -193 -193 -177 -209 36 38 34 34 36 35 31 27 30 35 -177 -177 -209 -209 -209 -193 -193 565 -209 -209 -209 645 649 -209 255 254 257 257 257 255 256 254 255 255 257 258 259 258 258 257 259 260 257 259 257 257 258 259 259 258 257 259 256 257 257 255 -209 24 28 37 35 36 34 35 37 38 39 37 32 31 31 32 38 39 39 38 39 40 41 41 41 42 -177 -193 -193 173 -193 -209 -177 167 165 163 163 165 165 -193 164 -193 -193 -193 -193 -193 -193 -193 43 43 46 44 43 41 43 43 45 49 47 49 47 49 47 48 47 48 48 47 46 48 50 50 52 51 -193 -193 0 0 0 0 0
    0 0 0 0 0 0 0 0 0 0 0 0 0 0 0 0 0 0 0 0 0 0 0 0 0 0 0 0 0 0 0 0 0 0 0 0 0 0 0 0 0 0 0 0 0 0 0 0 0 0 0 0 0 0 0 0 0 0 0 0 0 0 0 0 0 0 0 0 0 260 260 260 260 260 260 260 260 260 260 261 261 262 260 262 261 262 262 260 260 258 259 259 260 260 260 260 260 260 261 260 260 259 258 258 258 258 257 256 256 257 256 258 259 261 261 261 261 261 261 262 261 260 258 258 259 258 259 258 257 256 257 258 258 258 257 256 259 260 260 260 260 259 259 262 263 263 261 260 260 260 261 260 257 -193 256 259 262 263 261 262 263 262 262 261 261 261 260 262 261 260 263 262 262 262 261 261 260 260 -193 259 261 262 -209 -193 259 258 -193 -193 -193 31 26 29 -193 -209 -209 -209 -193 -209 -209 -209 -193 -209 254 -193 -193 -209 256 257 256 257 257 257 255 256 254 255 255 256 257 258 258 258 257 259 260 257 259 258 257 259 259 259 258 257 259 256 257 257 255 256 -209 -193 -193 -193 -193 -193 33 36 39 39 35 30 30 31 35 39 40 39 38 39 41 43 43 42 43 41 -209 -209 173 -193 -193 -209 -193 165 -193 -193 -193 -193 -193 -193 -209 -193 -193 -209 -209 -193 -193 44 44 47 44 44 41 43 43 45 49 48 49 47 49 47 48 47 48 47 47 45 48 50 50 52 -193 -177 -193 0 0 0 0 0
    0 0 0 0 0 0 0 0 0 0 0 0 0 0 0 0 0 0 0 0 0 0 0 0 0 0 0 0 0 0 0 0 0 0 0 0 0 0 0 0 0 0 0 0 0 0 0 0 0 0 0 0 0 0 0 0 0 0 0 0 0 0 0 0 0 0 0 0 0 260 260 260 260 260 260 260 260 260 260 261 260 262 261 262 261 262 262 261 261 259 260 260 261 261 260 260 260 260 260 259 259 259 258 258 258 257 257 256 256 257 256 258 259 261 261 261 261 261 262 262 262 261 259 259 259 259 260 259 258 257 258 259 259 259 259 258 260 260 260 259 259 259 259 261 261 261 260 259 260 260 261 260 258 259 259 260 262 262 261 261 262 261 261 260 261 260 260 262 261 260 263 262 263 262 262 261 261 261 260 261 262 262 262 261 261 259 260 260 260 260 260 260 260 260 261 259 258 258 256 257 255 257 255 254 258 258 258 258 257 258 256 257 255 255 254 255 255 257 258 258 258 259 258 259 260 257 259 258 257 259 259 259 258 257 259 257 258 258 256 256 256 256 256 258 258 258 -193 -193 -193 -193 -193 31 29 31 36 40 -177 -177 38 39 40 -177 -209 43 -209 -209 -209 -193 -193 261 261 262 -193 -193 260 260 -193 -193 -209 -209 261 -193 259 260 -209 -209 -209 -209 44 47 -193 -193 39 41 -193 44 47 46 47 46 -177 46 47 46 48 46 46 -193 47 50 49 -193 254 256 -177 0 0 0 0 0
    0 0 0 0 0 0 0 0 0 0 0 0 0 0 0 0 0 0 0 0 0 0 0 0 0 0 0 0 0 0 0 0 0 0 0 0 0 0 0 0 0 0 0 0 0 0 0 0 0 0 0 0 0 0 0 0 0 0 0 0 0 0 0 0 0 0 0 0 0 261 261 261 260 260 260 261 260 261 260 261 260 262 261 262 261 262 262 262 261 260 261 260 261 261 260 260 260 259 260 259 259 258 257 258 257 256 257 255 256 257 256 259 259 261 260 260 261 261 262 262 262 261 260 260 260 260 261 259 259 258 259 260 260 260 259 259 260 260 260 259 259 259 258 261 261 260 260 260 260 260 261 260 259 260 260 260 261 262 260 261 262 260 260 260 260 260 260 261 261 260 263 262 262 261 261 261 260 260 261 260 262 261 261 261 261 260 260 260 260 260 260 260 259 259 261 259 259 258 257 258 256 258 256 254 259 258 258 258 258 259 257 257 256 254 254 254 256 258 258 259 259 259 259 260 261 257 258 258 258 259 259 259 258 257 259 257 258 258 256 257 257 258 257 258 259 259 259 261 259 259 260 -193 -193 -177 -177 -177 -193 -193 -209 -209 -209 -209 -209 -209 -209 263 262 261 262 261 260 262 260 261 260 259 259 260 261 263 260 260 257 259 -193 -193 253 254 255 254 255 257 257 256 258 259 257 258 -193 -177 44 43 45 44 -193 -193 -193 -177 -209 -209 -193 255 254 256 -177 0 0 0 0 0
    0 0 0 0 0 0 0 0 0 0 0 0 0 0 0 0 0 0 0 0 0 0 0 0 0 0 0 0 0 0 0 0 0 0 0 0 0 0 0 0 0 0 0 0 0 0 0 0 0 0 0 0 0 0 0 0 0 0 0 0 0 0 0 0 0 0 0 0 0 261 260 261 259 260 260 260 260 260 260 261 260 263 261 263 262 263 263 263 262 260 261 261 262 261 260 260 260 259 260 259 259 258 256 257 257 256 257 256 257 258 257 260 259 261 260 261 261 261 262 262 262 261 259 261 260 261 261 260 259 258 260 260 260 260 259 258 260 260 259 259 259 259 258 261 261 260 260 261 261 261 262 261 261 260 261 261 261 262 260 260 261 260 260 260 260 260 259 261 260 260 262 261 262 261 261 261 260 259 260 260 261 261 261 261 262 261 261 260 261 260 260 260 259 259 260 259 259 259 258 259 257 258 257 256 260 258 259 258 259 260 258 258 257 255 255 255 258 259 258 260 260 259 260 260 261 258 258 258 258 259 259 258 258 257 259 258 258 259 257 257 258 258 258 259 260 260 260 262 260 260 261 261 260 -193 262 -193 260 261 262 262 262 262 260 261 259 263 262 262 263 262 261 262 261 261 259 259 257 258 259 260 258 258 256 258 257 257 255 256 258 256 256 258 258 258 259 259 257 256 260 258 -193 -193 258 -209 -193 -193 -193 -193 255 254 254 255 254 256 257 0 0 0 0 0
    0 0 0 0 0 0 0 0 0 0 0 0 0 0 0 0 0 0 0 0 0 0 0 0 0 0 0 0 0 0 0 0 0 0 0 0 0 0 0 0 0 0 0 0 0 0 0 0 0 0 0 0 0 0 0 0 0 0 0 0 0 0 0 0 0 0 0 0 0 260 259 260 259 259 260 260 260 260 260 261 260 263 262 263 262 263 263 263 263 261 262 261 262 262 260 260 260 259 260 258 259 258 255 256 256 256 256 255 257 257 257 260 259 261 259 261 261 261 261 262 261 261 259 261 260 261 261 260 260 259 261 261 261 261 260 259 260 260 259 258 258 259 257 261 262 260 260 261 262 263 263 262 262 261 261 262 262 263 260 260 261 260 260 260 260 260 259 261 260 260 262 261 262 261 261 260 259 259 260 259 260 260 261 261 261 261 261 260 261 260 260 260 260 260 260 260 261 260 260 260 258 259 257 255 259 256 258 258 259 260 259 259 259 258 258 258 260 260 260 260 260 260 260 260 261 257 258 257 257 259 258 258 258 256 259 258 258 259 257 257 259 259 259 259 260 261 260 262 261 261 260 261 260 260 260 261 259 261 262 261 261 262 261 262 261 264 262 262 264 263 262 262 261 261 259 259 256 257 257 259 257 257 257 258 258 258 256 259 259 257 258 259 259 258 259 259 257 255 258 257 257 255 257 256 256 257 257 255 256 255 255 255 255 257 257 0 0 0 0 0
    0 0 0 0 0 0 0 0 0 0 0 0 0 0 0 0 0 0 0 0 0 0 0 0 0 0 0 0 0 0 0 0 0 0 0 0 0 0 0 0 0 0 0 0 0 0 0 0 0 0 0 0 0 0 0 0 0 0 0 0 0 0 0 0 0 0 0 0 0 259 258 259 258 259 -193 -193 261 261 260 261 261 263 261 262 262 262 263 263 263 262 262 261 262 262 260 260 260 259 260 258 258 257 254 256 256 255 255 255 257 258 257 260 259 261 259 261 260 261 261 261 261 261 260 261 260 261 262 260 261 259 262 262 261 261 260 259 261 260 259 257 257 258 257 260 261 260 259 261 262 263 264 262 262 261 261 262 262 263 260 260 261 260 260 260 260 259 259 261 260 260 263 261 263 262 262 261 260 259 260 259 260 260 260 261 261 261 261 260 261 260 260 260 260 260 261 260 261 261 260 260 258 259 256 254 258 255 258 258 260 261 260 260 260 259 260 259 261 260 261 260 260 260 260 260 262 257 258 257 257 258 258 258 258 255 259 258 258 259 258 257 258 258 258 257 259 260 258 261 260 260 260 260 260 260 260 260 259 260 261 261 261 262 261 262 262 263 263 262 263 262 262 262 261 261 259 258 256 257 257 259 258 258 258 259 259 259 258 260 260 258 258 259 259 258 259 259 257 256 259 258 258 256 259 258 257 258 257 255 256 255 256 255 256 258 259 0 0 0 0 0
    0 0 0 0 0 0 0 0 0 0 0 0 0 0 0 0 0 0 0 0 0 0 0 0 0 0 0 0 0 0 0 0 0 0 0 0 0 0 0 0 0 0 0 0 0 0 0 0 0 0 0 0 0 0 0 0 0 0 0 0 0 0 0 0 0 0 0 0 0 257 257 258 258 259 -193 -193 262 262 262 262 261 263 261 262 262 261 262 263 263 261 262 261 262 262 260 260 260 259 259 257 258 258 253 256 256 256 255 256 257 258 258 261 260 262 260 261 260 261 261 261 261 261 260 261 260 261 262 261 261 260 262 262 262 261 260 259 261 260 259 257 257 258 257 260 260 259 258 260 261 262 264 262 262 261 261 262 262 263 260 260 261 259 259 259 259 259 258 260 260 260 263 262 263 262 263 261 260 259 261 259 260 261 260 260 261 261 261 260 260 260 259 260 260 260 260 260 261 260 260 259 258 258 256 254 258 253 257 258 260 260 260 260 260 258 259 259 260 260 261 261 261 261 261 261 263 258 258 258 258 259 258 258 259 255 259 258 259 259 258 257 258 257 257 256 257 259 256 260 259 259 259 260 259 260 259 260 259 259 261 261 261 262 261 261 261 262 263 263 263 261 260 260 261 260 259 258 255 255 257 258 259 257 257 258 259 259 258 261 260 258 258 259 259 258 258 258 257 256 259 258 258 257 259 258 257 258 257 256 257 256 257 256 256 259 259 0 0 0 0 0
    0 0 0 0 0 0 0 0 0 0 0 0 0 0 0 0 0 0 0 0 0 0 0 0 0 0 0 0 0 0 0 0 0 0 0 0 0 0 0 0 0 0 0 0 0 0 0 0 0 0 0 0 0 0 0 0 0 0 0 0 0 0 0 0 0 0 0 0 0 256 256 257 257 259 -193 261 -193 262 262 262 262 263 261 261 262 261 261 262 262 261 262 261 261 261 260 260 260 259 259 257 258 258 254 258 257 257 256 258 258 259 259 262 261 261 259 261 260 261 261 260 261 260 260 261 260 261 262 260 261 259 262 262 261 261 261 259 261 260 259 258 257 258 257 259 260 258 258 260 261 262 264 262 262 261 261 262 262 262 260 260 260 259 259 259 258 259 257 260 259 259 262 261 262 261 261 260 260 259 260 259 260 261 260 260 261 261 261 260 261 261 259 260 260 261 260 260 260 260 260 259 258 258 256 254 257 252 255 258 259 259 258 258 258 257 258 257 258 258 260 260 261 262 262 262 263 259 259 258 258 259 259 259 259 256 260 259 260 260 258 258 258 257 257 256 257 258 255 258 258 258 258 259 258 259 259 259 258 258 260 260 260 261 259 260 260 261 262 -193 262 260 259 259 260 260 259 258 254 254 256 257 258 256 257 258 259 259 259 261 261 258 259 259 259 258 259 258 256 256 259 258 257 256 259 258 257 258 257 256 257 256 257 256 256 258 258 0 0 0 0 0
    0 0 0 0 0 0 0 0 0 0 0 0 0 0 0 0 0 0 0 0 0 0 0 0 0 0 0 0 0 0 0 0 0 0 0 0 0 0 0 0 0 0 0 0 0 0 0 0 0 0 0 0 0 0 0 0 0 0 0 0 0 0 0 0 0 0 0 0 0 256 256 257 257 258 259 260 -193 261 262 262 263 263 262 262 263 261 262 262 262 261 262 261 261 261 260 260 259 259 259 257 258 258 253 258 258 258 256 258 259 260 259 262 261 261 259 261 260 261 261 260 261 260 259 261 260 260 261 259 260 258 261 261 260 260 260 259 261 260 260 258 257 258 257 259 260 258 259 260 262 262 264 262 262 261 261 262 262 262 260 260 260 259 259 259 258 259 256 259 258 258 261 260 261 261 260 260 260 259 261 259 260 260 260 260 261 261 262 260 261 261 260 261 261 261 261 260 260 260 259 259 258 258 256 254 257 252 256 258 259 259 258 257 258 257 258 257 258 258 260 261 262 262 262 262 264 259 259 258 259 259 259 259 259 256 261 260 260 260 259 259 258 257 257 256 256 257 255 257 257 258 257 259 258 259 259 259 258 258 259 260 260 261 259 259 259 260 262 261 262 259 259 259 260 259 258 257 254 254 255 256 257 256 256 257 258 259 258 261 260 258 259 259 259 258 259 258 256 256 259 258 257 255 258 258 257 258 257 256 257 256 256 256 255 257 258 0 0 0 0 0
    0 0 0 0 0 0 0 0 0 0 0 0 0 0 0 0 0 0 0 0 0 0 0 0 0 0 0 0 0 0 0 0 0 0 0 0 0 0 0 0 0 0 0 0 0 0 0 0 0 0 0 0 0 0 0 0 0 0 0 0 0 0 0 0 0 0 0 0 0 255 256 256 257 257 258 259 -193 -193 262 262 263 -193 262 262 263 261 261 262 262 261 262 261 261 261 260 260 259 259 259 257 258 258 253 258 257 258 256 259 259 260 260 262 261 261 260 261 260 261 261 259 260 259 258 259 259 259 260 258 260 257 260 261 260 259 260 258 261 260 259 258 256 258 258 260 261 258 260 261 262 263 264 262 261 260 260 261 261 262 260 260 260 259 260 260 259 259 257 260 258 259 260 260 261 260 260 260 260 259 260 259 260 260 259 260 260 261 261 260 261 261 261 262 261 261 261 260 261 260 259 259 258 258 257 254 256 251 256 258 260 259 259 258 259 258 259 258 259 258 260 261 262 262 263 263 264 260 259 258 259 259 259 259 259 256 260 260 260 260 259 258 258 257 257 256 256 256 254 256 257 258 258 259 259 259 259 259 258 258 259 259 259 260 259 259 259 260 262 261 262 260 260 260 261 260 259 258 255 254 256 256 257 256 256 257 258 258 258 261 260 259 259 260 260 258 259 259 256 256 259 258 257 255 258 258 256 258 257 256 257 257 257 256 255 257 258 0 0 0 0 0
    0 0 0 0 0 0 0 0 0 0 0 0 0 0 0 0 0 0 0 0 0 0 0 0 0 0 0 0 0 0 0 0 0 0 0 0 0 0 0 0 0 0 0 0 0 0 0 0 0 0 0 0 0 0 0 0 0 0 0 0 0 0 0 0 0 0 0 0 0 255 257 256 257 258 258 259 -193 -193 262 262 263 -193 262 261 262 260 261 261 262 261 262 261 261 261 260 260 259 260 259 257 258 258 253 258 258 259 255 259 259 260 260 262 261 261 260 261 260 260 260 258 260 258 258 258 259 258 260 258 259 256 260 260 260 259 260 258 261 260 260 258 257 259 259 260 261 258 260 261 263 263 264 262 261 260 261 261 261 262 260 260 260 260 260 260 259 259 258 260 259 259 261 260 261 261 261 260 259 259 260 259 260 260 259 260 260 261 261 260 261 260 261 262 261 262 262 260 262 260 259 258 257 257 257 253 254 250 254 256 260 259 259 258 259 258 259 258 259 258 259 260 262 261 262 262 264 260 259 259 259 259 258 259 259 256 260 260 260 260 259 258 258 256 258 256 256 255 255 257 259 259 259 260 259 260 260 259 258 258 259 259 259 260 258 258 259 260 261 261 262 260 261 260 261 261 260 259 256 255 257 257 258 256 257 258 259 258 259 261 260 259 259 260 260 258 259 259 255 256 258 258 257 255 258 258 256 258 257 256 257 257 257 256 255 257 257 0 0 0 0 0
    0 0 0 0 0 0 0 0 0 0 0 0 0 0 0 0 0 0 0 0 0 0 0 0 0 0 0 0 0 0 0 0 0 0 0 0 0 0 0 0 0 0 0 0 0 0 0 0 0 0 0 0 0 0 0 0 0 0 0 0 0 0 0 0 0 0 0 0 0 255 257 256 258 258 259 260 -193 260 262 261 263 -193 261 260 262 260 261 261 262 261 262 261 261 261 259 259 259 259 259 257 259 258 254 259 259 260 256 261 260 261 260 262 261 261 260 260 259 260 260 258 260 258 257 258 258 258 259 257 259 256 259 260 259 259 260 259 260 260 260 258 258 259 259 260 260 258 260 260 -193 262 264 262 262 261 261 261 262 262 260 260 260 260 260 260 259 259 258 260 259 259 260 260 261 261 261 261 259 259 260 259 260 260 259 260 260 261 261 260 261 260 261 262 260 262 262 261 262 261 260 258 257 257 256 254 253 251 253 255 260 259 259 258 258 258 259 258 258 257 259 259 261 260 261 261 264 259 259 258 259 258 258 259 259 256 259 260 260 260 259 258 257 256 258 256 256 254 255 257 259 259 259 260 259 259 259 259 258 257 259 259 259 260 259 259 259 260 262 261 262 261 261 261 262 261 260 259 257 255 256 256 257 255 256 257 259 258 259 262 260 259 260 260 260 258 259 259 254 255 257 258 257 254 258 258 256 258 257 257 258 257 257 256 255 257 257 0 0 0 0 0
    0 0 0 0 0 0 0 0 0 0 0 0 0 0 0 0 0 0 0 0 0 0 0 0 0 0 0 0 0 0 0 0 0 0 0 0 0 0 0 0 0 0 0 0 0 0 0 0 0 0 0 0 0 0 0 0 0 0 0 0 0 0 0 0 0 0 0 0 0 256 258 257 259 259 260 260 260 261 262 261 263 -193 261 260 262 260 261 261 262 260 261 260 261 261 260 259 260 260 260 258 259 259 254 260 260 261 257 261 259 261 260 261 261 261 260 260 259 261 260 258 260 258 257 257 258 257 258 256 258 255 258 259 259 259 260 259 260 259 259 258 258 258 258 259 258 258 260 258 261 261 263 262 261 261 260 261 262 262 260 260 260 260 260 259 259 259 257 260 259 259 260 260 261 261 261 261 259 260 260 260 260 260 259 260 260 261 261 260 261 260 260 262 261 262 261 261 261 260 259 257 257 256 256 255 254 251 253 255 260 259 259 258 258 258 258 258 258 256 258 258 259 260 260 261 263 259 259 258 259 259 258 259 259 255 259 260 260 259 259 258 257 257 258 256 255 254 255 255 258 258 257 258 258 258 259 258 258 258 259 259 259 260 259 259 259 260 261 261 262 261 261 261 262 261 260 259 258 255 256 256 256 255 256 257 259 258 259 262 260 260 260 260 260 258 259 259 254 255 255 257 257 254 258 259 256 259 257 257 258 257 257 256 255 258 257 0 0 0 0 0
    0 0 0 0 0 0 0 0 0 0 0 0 0 0 0 0 0 0 0 0 0 0 0 0 0 0 0 0 0 0 0 0 0 0 0 0 0 0 0 0 0 0 0 0 0 0 0 0 0 0 0 0 0 0 0 0 0 0 0 0 0 0 0 0 0 0 0 0 0 257 259 258 260 260 260 261 261 260 261 261 262 261 261 260 261 260 260 260 261 260 261 260 260 260 260 260 260 260 260 259 260 259 255 259 259 260 256 260 258 260 260 260 260 260 260 260 259 261 260 258 260 257 257 256 256 256 257 255 256 254 257 258 258 258 259 259 260 259 259 258 259 259 258 259 258 258 260 257 260 260 262 261 261 260 260 260 261 261 259 259 260 259 259 259 259 259 257 260 259 258 260 261 261 261 261 261 260 260 261 260 261 261 259 260 260 261 260 260 260 260 260 262 261 261 260 261 261 260 259 257 256 256 256 255 253 251 252 254 260 259 258 257 257 257 258 258 257 256 258 258 259 259 259 261 263 259 259 258 259 259 258 259 258 255 258 259 260 259 258 258 257 257 258 256 255 254 255 254 257 257 256 258 257 258 258 258 258 258 259 259 259 260 259 259 259 259 260 260 261 260 260 261 261 260 260 259 258 256 256 256 255 254 255 257 259 258 259 262 260 260 260 260 260 258 259 259 253 255 255 257 257 254 259 259 257 259 258 258 258 258 258 257 256 258 258 0 0 0 0 0
    0 0 0 0 0 0 0 0 0 0 0 0 0 0 0 0 0 0 0 0 0 0 0 0 0 0 0 0 0 0 0 0 0 0 0 0 0 0 0 0 0 0 0 0 0 0 0 0 0 0 0 0 0 0 0 0 0 0 0 0 0 0 0 0 0 0 0 0 0 258 260 258 260 260 261 261 260 260 261 261 262 261 261 259 261 260 260 259 260 259 260 259 260 260 260 260 260 260 260 259 260 259 256 259 259 260 255 259 258 259 259 260 260 260 260 260 259 260 260 258 259 257 256 255 256 255 256 254 255 254 256 257 257 258 259 259 260 259 259 259 260 260 259 259 259 259 260 257 260 259 261 260 260 260 259 260 260 261 259 259 260 259 259 259 259 259 257 260 259 258 260 260 261 261 261 261 260 260 261 261 261 260 260 260 260 261 260 260 260 259 260 262 261 262 260 262 261 260 259 257 255 256 256 256 254 253 252 253 259 258 258 257 257 257 258 257 258 256 258 258 259 259 259 261 262 259 259 259 260 259 259 259 258 255 258 259 259 258 258 257 257 258 258 257 255 254 255 255 257 257 257 258 257 258 259 257 258 258 258 259 259 260 259 258 259 259 259 259 260 260 260 261 261 260 260 259 258 256 256 255 254 253 254 257 259 257 259 262 260 260 260 260 260 258 259 258 253 255 254 258 257 254 258 259 257 259 258 258 259 258 259 258 256 258 258 0 0 0 0 0
    0 0 0 0 0 0 0 0 0 0 0 0 0 0 0 0 0 0 0 0 0 0 0 0 0 0 0 0 0 0 0 0 0 0 0 0 0 0 0 0 0 0 0 0 0 0 0 0 0 0 0 0 0 0 0 0 0 0 0 0 0 0 0 0 0 0 0 0 0 258 260 259 260 260 261 261 260 260 261 260 261 260 261 259 261 260 260 259 260 259 260 259 260 260 259 259 260 260 260 259 260 259 256 259 259 260 255 259 258 258 259 259 259 259 259 260 259 260 260 259 259 257 256 255 255 255 256 254 254 254 256 257 257 257 258 258 260 259 259 259 260 260 259 259 259 259 260 258 260 259 261 260 259 259 259 259 260 261 258 258 260 259 259 259 259 259 257 260 259 258 259 260 261 261 261 261 261 261 261 261 261 260 260 260 260 261 260 260 260 259 261 262 262 262 261 262 261 260 259 257 255 255 256 257 254 254 253 253 259 258 258 257 257 258 258 258 258 256 258 258 258 258 258 261 262 259 259 259 260 260 259 259 257 255 258 259 259 258 258 257 257 258 258 257 256 254 256 256 258 258 257 258 257 258 259 257 258 257 258 259 259 259 259 258 260 259 260 260 261 262 261 262 262 261 261 260 258 256 256 255 254 253 254 257 259 257 259 262 260 260 259 259 259 257 259 258 253 255 254 258 257 254 258 259 257 259 258 258 258 258 259 258 256 258 257 0 0 0 0 0
    0 0 0 0 0 0 0 0 0 0 0 0 0 0 0 0 0 0 0 0 0 0 0 0 0 0 0 0 0 0 0 0 0 0 0 0 0 0 0 0 0 0 0 0 0 0 0 0 0 0 0 0 0 0 0 0 0 0 0 0 0 0 0 0 0 0 0 0 0 258 260 259 260 260 260 260 260 259 260 260 261 260 260 259 260 261 261 260 261 260 260 259 260 260 260 259 260 260 260 259 260 259 256 259 260 260 255 259 258 258 259 259 259 259 259 260 258 259 259 259 259 257 256 256 256 255 256 254 254 254 256 257 256 256 257 258 259 259 259 258 260 260 259 259 258 259 260 257 260 258 261 260 259 259 259 259 260 261 258 258 260 259 259 258 258 258 256 260 259 258 260 261 262 262 263 262 261 261 261 261 261 259 260 259 259 260 259 260 259 258 261 261 261 261 260 262 262 260 259 256 255 255 256 256 254 254 253 253 258 258 259 258 259 259 259 259 259 257 258 258 257 257 257 260 261 259 259 259 259 259 259 258 256 255 257 258 258 257 257 256 256 259 259 258 257 255 257 257 259 258 258 258 257 259 259 257 258 258 259 259 259 259 260 259 260 260 260 260 261 262 262 263 262 262 261 260 259 256 256 255 254 254 254 257 259 258 260 262 259 260 259 259 259 257 259 258 253 255 255 258 257 254 258 259 257 259 259 258 259 259 259 258 256 258 257 0 0 0 0 0
    0 0 0 0 0 0 0 0 0 0 0 0 0 0 0 0 0 0 0 0 0 0 0 0 0 0 0 0 0 0 0 0 0 0 0 0 0 0 0 0 0 0 0 0 0 0 0 0 0 0 0 0 0 0 0 0 0 0 0 0 0 0 0 0 0 0 0 0 0 257 259 258 260 260 260 260 259 259 260 259 260 259 260 258 260 260 261 260 261 260 260 260 261 261 260 259 259 260 260 259 260 259 257 258 260 260 256 260 259 258 258 258 258 258 259 259 258 258 259 258 259 257 257 257 256 256 257 256 255 255 256 256 255 256 256 257 258 259 258 258 259 259 259 259 258 259 259 257 259 258 260 260 259 260 259 259 259 261 258 258 259 259 258 258 258 258 256 260 259 258 260 261 262 262 263 262 261 261 260 261 261 259 260 259 259 259 259 259 258 257 261 260 260 261 260 262 263 262 260 258 256 256 257 257 255 254 253 253 257 258 259 259 259 260 260 260 259 257 258 257 256 255 255 260 260 259 259 259 259 259 259 258 255 255 257 257 258 257 256 256 257 259 259 259 257 256 258 258 259 258 257 258 256 259 260 257 259 258 260 260 260 260 261 260 261 260 261 261 261 263 263 264 262 262 262 261 259 257 256 255 255 254 254 258 260 259 260 262 259 259 259 259 259 256 258 257 253 255 255 258 257 254 259 259 257 259 259 259 259 259 260 259 256 259 258 0 0 0 0 0
    0 0 0 0 0 0 0 0 0 0 0 0 0 0 0 0 0 0 0 0 0 0 0 0 0 0 0 0 0 0 0 0 0 0 0 0 0 0 0 0 0 0 0 0 0 0 0 0 0 0 0 0 0 0 0 0 0 0 0 0 0 0 0 0 0 0 0 0 0 257 259 259 260 260 260 260 259 259 260 259 259 259 259 258 259 260 260 260 261 260 260 260 260 261 260 258 259 260 260 259 259 259 256 258 260 260 256 260 258 257 258 258 257 258 258 259 258 258 259 259 260 258 258 258 257 257 258 257 255 255 257 256 255 256 256 257 257 258 258 258 259 259 259 259 257 259 259 257 259 258 260 259 259 259 259 259 259 260 258 258 259 258 258 258 258 258 256 259 258 258 260 261 262 263 264 262 261 261 260 261 260 259 260 259 259 259 259 259 257 258 260 258 259 260 259 261 262 262 260 259 257 256 256 256 255 254 253 253 256 257 258 258 259 260 260 260 259 257 258 257 256 255 255 260 259 259 259 259 259 260 259 259 255 256 257 258 258 257 256 256 257 259 259 259 258 257 259 258 259 258 257 257 256 258 259 257 259 259 261 261 261 261 261 261 262 261 261 261 261 262 263 263 262 262 262 261 259 258 256 255 255 254 254 257 260 258 260 262 259 259 258 258 258 255 257 256 252 254 255 257 257 254 259 259 258 259 259 259 259 259 260 259 257 259 259 0 0 0 0 0
    0 0 0 0 0 0 0 0 0 0 0 0 0 0 0 0 0 0 0 0 0 0 0 0 0 0 0 0 0 0 0 0 0 0 0 0 0 0 0 0 0 0 0 0 0 0 0 0 0 0 0 0 0 0 0 0 0 0 0 0 0 0 0 0 0 0 0 0 0 257 258 258 260 259 260 260 259 259 259 259 259 259 260 259 259 261 261 260 261 259 259 260 260 261 260 258 259 260 259 258 259 259 256 258 260 260 256 260 258 257 257 257 257 257 258 259 257 258 259 259 259 258 258 258 258 257 258 257 256 255 257 255 255 255 255 256 256 257 256 257 258 258 258 258 257 258 258 257 259 257 259 259 259 259 259 259 260 260 258 259 259 258 257 257 257 257 256 259 257 258 259 261 262 263 264 261 261 261 260 261 260 259 259 258 259 259 258 259 257 258 259 256 258 260 258 260 260 261 260 259 258 256 256 257 255 255 254 254 256 257 258 258 259 260 260 260 260 258 259 258 257 256 257 261 260 260 260 260 260 260 260 259 256 257 258 258 258 257 256 256 257 259 259 259 259 257 259 258 259 258 257 257 255 258 259 257 259 259 262 262 261 261 261 261 262 261 260 260 260 261 262 263 261 261 262 262 259 259 256 255 254 254 254 256 259 258 260 261 259 258 258 258 258 255 257 255 253 254 256 257 257 255 259 259 258 258 259 259 259 259 260 258 257 259 258 0 0 0 0 0
    0 0 0 0 0 0 0 0 0 0 0 0 0 0 0 0 0 0 0 0 0 0 0 0 0 0 0 0 0 0 0 0 0 0 0 0 0 0 0 0 0 0 0 0 0 0 0 0 0 0 0 0 0 0 0 0 0 0 0 0 0 0 0 0 0 0 0 0 0 256 256 257 258 258 259 259 258 258 258 259 259 259 260 259 259 261 261 260 261 259 259 260 260 261 259 257 258 259 259 258 258 258 256 257 260 259 255 259 258 257 258 257 258 258 258 259 258 258 259 259 260 258 258 258 257 257 258 257 255 255 257 255 254 255 255 255 255 256 255 256 258 257 258 258 257 259 258 258 259 258 260 259 260 260 260 260 260 261 259 259 259 259 257 257 257 257 255 258 256 258 258 260 261 262 263 261 261 261 260 261 260 259 259 258 259 258 258 258 256 257 258 254 257 259 258 259 258 259 258 258 257 257 256 257 256 257 255 256 257 258 259 259 260 260 260 261 260 259 260 259 259 257 260 262 260 260 260 260 260 261 261 259 257 259 259 259 259 258 256 256 258 260 260 259 259 258 259 259 259 257 256 256 254 256 -193 257 259 -193 262 262 262 261 261 261 261 261 260 260 260 261 261 263 261 261 263 263 260 260 256 255 255 255 257 257 260 258 260 261 259 258 258 257 257 254 257 255 253 255 257 258 258 256 260 259 258 258 259 259 259 259 259 257 256 258 258 0 0 0 0 0
    0 0 0 0 0 0 0 0 0 0 0 0 0 0 0 0 0 0 0 0 0 0 0 0 0 0 0 0 0 0 0 0 0 0 0 0 0 0 0 0 0 0 0 0 0 0 0 0 0 0 0 0 0 0 0 0 0 0 0 0 0 0 0 0 0 0 0 0 0 256 255 256 258 257 258 258 257 258 258 259 258 259 259 259 259 261 260 259 260 259 258 259 259 260 258 257 258 259 258 257 258 258 255 257 259 259 255 259 258 257 258 257 258 258 258 259 257 258 258 258 259 257 258 258 257 258 259 257 256 255 257 255 255 255 255 255 254 256 254 256 257 257 258 258 257 259 258 258 259 259 260 260 260 261 260 261 261 262 259 260 259 259 257 257 257 257 255 258 256 258 258 260 261 262 262 260 261 261 260 260 260 259 259 258 259 258 257 257 256 256 257 253 256 258 257 258 257 259 257 258 257 257 256 257 256 258 256 258 257 258 259 259 260 261 260 261 260 260 261 260 260 258 261 262 260 261 261 261 261 261 261 259 257 259 259 259 258 258 256 257 259 260 260 260 259 259 259 259 259 257 256 255 252 255 -193 -193 258 259 262 262 262 261 260 260 261 260 259 259 259 260 261 263 261 262 264 264 261 261 258 256 255 256 258 258 261 258 260 261 258 258 258 257 257 254 257 255 254 256 258 258 258 256 260 259 258 258 258 258 259 259 259 257 256 257 257 0 0 0 0 0
    0 0 0 0 0 0 0 0 0 0 0 0 0 0 0 0 0 0 0 0 0 0 0 0 0 0 0 0 0 0 0 0 0 0 0 0 0 0 0 0 0 0 0 0 0 0 0 0 0 0 0 0 0 0 0 0 0 0 0 0 0 0 0 0 0 0 0 0 0 257 256 256 258 257 258 258 257 258 258 258 258 259 259 259 259 261 260 259 261 259 259 260 259 261 258 257 257 258 257 256 257 257 254 257 260 260 255 260 259 258 258 258 258 257 257 258 257 257 258 258 259 258 259 258 258 258 259 259 257 256 257 255 256 255 255 255 254 255 254 255 256 255 257 257 257 258 257 257 257 259 259 260 260 260 260 261 261 262 259 260 258 259 257 257 257 257 256 258 255 258 258 260 260 261 262 260 260 261 260 260 260 259 259 258 259 258 256 257 256 256 257 253 254 257 255 256 255 257 255 257 257 258 257 258 257 259 257 259 259 259 260 259 261 261 261 262 261 260 261 260 261 258 261 262 260 261 261 261 261 261 261 259 256 259 258 258 257 257 256 256 259 260 260 260 260 259 259 259 259 257 255 254 251 254 -193 257 258 259 262 262 262 261 261 260 260 260 259 260 260 260 262 263 262 263 265 265 262 261 260 257 256 257 258 259 261 259 261 260 258 258 258 257 257 254 257 255 254 256 258 258 258 256 260 259 258 258 258 258 258 258 259 256 256 256 256 0 0 0 0 0
    0 0 0 0 0 0 0 0 0 0 0 0 0 0 0 0 0 0 0 0 0 0 0 0 0 0 0 0 0 0 0 0 0 0 0 0 0 0 0 0 0 0 0 0 0 0 0 0 0 0 0 0 0 0 0 0 0 0 0 0 0 0 0 0 0 0 0 0 0 258 257 256 258 256 257 258 256 258 258 258 259 259 259 259 259 261 260 260 261 260 260 260 260 261 258 257 257 258 257 256 257 256 254 257 261 261 256 261 259 258 259 258 258 256 256 257 256 257 257 257 259 258 259 259 258 259 259 259 257 256 257 255 256 255 255 255 253 254 253 254 255 254 256 256 256 258 257 256 256 259 259 260 259 260 260 261 261 261 259 260 258 259 257 257 257 257 256 258 256 259 259 259 260 261 261 259 260 261 260 260 260 259 259 258 259 258 257 257 257 257 256 254 254 256 255 255 254 255 254 256 257 258 258 259 258 259 258 260 259 259 259 259 260 261 261 262 260 261 261 261 261 259 262 262 260 261 260 260 260 260 260 258 256 259 258 257 257 257 257 258 260 261 261 261 261 260 260 260 260 257 255 255 251 254 -193 258 259 260 263 263 263 262 261 261 261 261 260 260 261 261 262 263 263 264 265 266 263 263 261 257 257 258 259 260 262 259 261 260 258 258 258 257 257 254 256 254 254 256 257 256 258 256 260 259 258 258 258 258 258 258 258 256 255 256 255 0 0 0 0 0
    0 0 0 0 0 0 0 0 0 0 0 0 0 0 0 0 0 0 0 0 0 0 0 0 0 0 0 0 0 0 0 0 0 0 0 0 0 0 0 0 0 0 0 0 0 0 0 0 0 0 0 0 0 0 0 0 0 0 0 0 0 0 0 0 0 0 0 0 0 259 258 257 259 257 258 258 257 259 258 259 259 259 260 260 260 261 260 260 261 259 260 260 260 261 258 257 257 258 257 256 257 256 254 256 261 261 256 263 260 259 259 257 257 256 255 257 255 256 257 257 259 257 258 258 258 259 259 258 257 255 257 254 256 255 254 255 253 254 253 254 254 254 256 257 256 258 257 257 256 259 258 259 259 259 260 260 261 261 259 260 258 259 258 257 258 257 257 259 256 259 259 259 260 261 261 258 260 260 259 259 260 259 259 258 259 258 258 257 257 257 256 255 254 256 255 255 255 256 255 257 258 259 258 259 259 260 259 260 260 260 260 260 260 261 261 263 262 262 261 262 262 260 262 262 260 260 260 260 260 259 260 258 256 259 258 259 258 258 258 259 261 262 262 262 261 261 261 260 260 258 256 255 252 255 -193 259 260 261 263 263 263 262 261 262 261 261 260 261 261 260 262 263 263 263 264 265 263 263 262 259 260 260 261 261 262 259 261 261 258 258 257 256 256 254 256 254 253 256 256 256 259 257 261 259 259 258 258 258 259 258 258 256 256 257 256 0 0 0 0 0
    0 0 0 0 0 0 0 0 0 0 0 0 0 0 0 0 0 0 0 0 0 0 0 0 0 0 0 0 0 0 0 0 0 0 0 0 0 0 0 0 0 0 0 0 0 0 0 0 0 0 0 0 0 0 0 0 0 0 0 0 0 0 0 0 0 0 0 0 0 262 262 262 262 260 260 260 260 261 260 260 260 261 261 261 261 262 261 261 261 260 260 261 260 261 259 258 257 258 257 256 257 256 254 256 261 261 257 263 262 260 260 258 258 256 255 257 255 256 257 257 258 256 258 257 257 257 258 257 256 254 256 254 257 255 255 255 254 254 253 254 254 253 255 256 255 257 257 257 256 259 258 259 258 259 260 260 260 260 258 260 258 259 258 258 258 258 258 259 256 259 258 258 259 260 259 257 259 260 260 259 260 260 259 259 260 259 258 257 257 256 255 254 253 255 255 255 255 256 255 257 258 259 258 259 259 259 259 260 260 260 260 260 260 261 261 262 261 262 262 262 263 260 262 262 260 260 260 260 260 259 260 258 257 260 258 259 258 258 258 259 261 262 261 262 261 261 261 261 260 258 256 -193 252 -193 257 260 261 260 263 262 262 262 261 261 261 260 260 261 260 260 261 262 261 262 263 264 262 263 262 261 261 261 261 261 262 259 261 261 258 257 257 256 256 254 256 254 253 256 257 257 259 258 262 260 259 259 258 259 259 258 258 256 256 257 256 0 0 0 0 0
    0 0 0 0 0 0 0 0 0 0 0 0 0 0 0 0 0 0 0 0 0 0 0 0 0 0 0 0 0 0 0 0 0 0 0 0 0 0 0 0 0 0 0 0 0 0 0 0 0 0 0 0 0 0 0 0 0 0 0 0 0 0 0 0 0 0 0 0 0 266 268 267 265 263 263 263 263 263 263 262 262 263 264 264 264 265 264 264 263 263 262 261 261 262 259 259 259 259 259 258 259 258 257 260 262 263 261 265 264 263 264 262 262 261 260 260 256 258 259 259 259 257 258 258 257 258 258 256 255 254 258 256 260 257 256 257 255 255 254 254 254 253 255 256 255 256 257 257 257 260 259 259 259 259 260 260 260 260 259 261 258 260 259 259 259 259 259 259 256 260 258 258 259 260 259 257 259 260 261 260 261 260 259 260 260 259 258 256 257 254 253 253 252 253 254 254 255 256 255 256 257 258 257 259 258 259 258 260 260 260 259 259 259 260 259 261 260 261 261 262 263 261 263 262 260 260 260 260 260 259 260 258 256 260 258 259 258 257 258 258 260 261 260 261 260 261 261 261 261 259 -193 -193 -193 -193 255 259 259 259 261 261 261 262 261 261 261 260 260 261 261 261 261 261 261 261 262 263 261 262 261 260 260 260 261 261 261 259 261 260 258 257 257 257 256 254 256 254 254 257 258 258 260 259 262 260 260 259 258 259 259 258 258 256 256 256 256 0 0 0 0 0
    0 0 0 0 0 0 0 0 0 0 0 0 0 0 0 0 0 0 0 0 0 0 0 0 0 0 0 0 0 0 0 0 0 0 0 0 0 0 0 0 0 0 0 0 0 0 0 0 0 0 0 0 0 0 0 0 0 0 0 0 0 0 0 0 0 0 0 0 0 273 -209 -193 273 -193 -193 267 -193 266 -193 264 264 -193 -193 -193 267 268 -193 267 267 265 264 263 263 263 261 260 260 260 260 261 261 261 260 263 265 265 265 268 266 266 268 267 267 265 264 262 259 261 262 261 261 259 260 260 260 261 259 256 256 257 260 260 262 261 260 260 259 258 256 257 257 257 259 260 261 261 261 261 261 262 260 261 260 260 261 261 262 261 260 262 259 261 260 259 260 260 260 260 258 261 260 260 260 260 260 259 260 261 261 261 262 261 261 261 261 259 259 257 257 254 253 253 252 253 254 254 254 256 256 257 257 259 258 259 258 259 258 261 260 260 259 259 259 260 259 260 258 260 260 261 262 260 262 262 260 260 259 259 260 258 260 257 256 259 257 258 257 256 258 257 259 260 260 261 260 261 260 260 260 259 -193 -193 -193 -193 253 258 257 258 260 260 261 262 261 261 261 261 261 262 262 261 261 261 261 261 262 262 261 261 260 260 260 260 260 260 261 259 262 260 259 257 257 257 256 255 256 253 253 256 258 259 260 259 262 261 260 259 259 259 259 258 258 256 256 257 256 0 0 0 0 0
    0 0 0 0 0 0 0 0 0 0 0 0 0 0 0 0 0 0 0 0 0 0 0 0 0 0 0 0 0 0 0 0 0 0 0 0 0 0 0 0 0 0 0 0 0 0 0 0 0 0 0 0 0 0 0 0 0 0 0 0 0 0 0 0 0 0 0 0 0 -209 -209 -209 279 -209 -209 -209 -193 271 -193 266 267 -193 -209 -193 269 274 272 273 271 269 266 264 264 266 262 261 261 261 262 263 263 262 262 265 266 268 269 271 268 269 272 272 272 270 267 264 263 264 266 264 263 262 262 262 262 264 261 257 259 263 264 264 265 265 263 264 263 262 260 260 260 261 262 263 265 265 -193 -193 264 264 262 262 262 261 262 262 263 263 262 263 261 262 261 261 262 261 262 262 261 263 262 262 262 260 260 260 261 262 262 262 263 262 262 262 262 260 260 259 259 256 256 257 255 256 257 255 256 258 259 259 260 262 262 262 262 261 262 262 262 263 260 261 261 262 262 261 261 262 260 262 263 261 263 262 260 261 260 260 260 259 260 258 257 260 257 259 258 257 259 257 260 260 259 261 259 260 259 259 259 257 255 -193 -193 -193 -209 -193 -193 257 260 259 261 262 262 262 262 261 262 263 262 262 261 261 261 261 262 262 260 261 260 260 260 260 260 261 261 260 262 261 259 257 257 257 256 255 255 253 253 255 257 258 260 258 262 260 260 259 259 259 259 258 258 256 257 258 258 0 0 0 0 0
    0 0 0 0 0 0 0 0 0 0 0 0 0 0 0 0 0 0 0 0 0 0 0 0 0 0 0 0 0 0 0 0 0 0 0 0 0 0 0 0 0 0 0 0 0 0 0 0 0 0 0 0 0 0 0 0 0 0 0 0 0 0 0 0 0 0 0 0 0 -193 -209 -209 -193 -193 -209 -209 -209 -193 -209 -193 -193 -193 -193 275 277 -193 -193 277 277 274 272 270 -193 -193 263 262 262 263 263 -193 -193 264 264 267 270 276 -193 275 271 275 276 277 277 275 271 269 269 277 274 268 266 264 264 264 265 266 264 262 263 267 267 270 273 274 267 268 267 264 262 262 263 -209 264 265 -193 270 270 269 268 266 263 263 -193 262 263 263 264 264 263 264 263 263 262 262 263 263 263 264 264 266 264 264 263 261 261 261 263 263 263 263 264 264 263 263 263 261 261 261 260 259 260 262 259 260 261 259 258 260 262 262 262 264 264 265 264 263 265 264 263 264 263 263 262 264 264 263 262 263 261 262 263 263 263 263 261 262 261 262 262 260 261 260 259 262 259 261 260 260 261 260 261 262 262 263 261 262 262 -193 262 260 260 254 255 -209 -193 261 -193 261 263 262 263 -193 263 263 262 262 262 263 262 261 259 259 260 261 262 262 261 261 261 261 261 260 260 261 261 260 263 261 259 258 257 257 256 255 256 252 253 255 257 258 259 257 261 259 259 259 258 259 259 258 258 257 259 259 258 0 0 0 0 0
    0 0 0 0 0 0 0 0 0 0 0 0 0 0 0 0 0 0 0 0 0 0 0 0 0 0 0 0 0 0 0 0 0 0 0 0 0 0 0 0 0 0 0 0 0 0 0 0 0 0 0 0 0 0 0 0 0 0 0 0 0 0 0 0 0 0 0 0 0 -193 -193 -193 -193 -193 -193 -193 -209 101 101 100 -193 -193 -209 -209 -209 -209 -209 280 280 -209 -193 -209 -209 -193 -209 -209 -209 -209 -209 -193 -209 -209 -193 -193 276 -193 -209 279 277 280 280 280 279 278 277 277 -193 282 280 277 -193 -193 268 269 269 269 266 264 268 276 275 279 280 281 276 276 277 269 264 264 -193 -209 268 272 -209 -193 -193 278 277 274 264 264 -209 263 264 264 265 265 264 264 264 264 263 263 265 264 264 266 266 267 266 266 266 262 262 262 264 264 264 265 265 265 264 265 265 262 262 263 262 261 263 -193 -193 -193 -193 -193 262 262 265 265 264 266 266 267 266 265 266 265 263 264 264 264 263 264 265 264 264 265 264 263 264 265 265 264 262 263 263 263 263 261 261 261 261 263 261 262 262 262 263 -193 262 263 -193 -193 -193 -193 263 -193 264 263 -193 260 261 -209 -209 -193 -193 -193 -193 -193 -193 -193 -193 265 264 263 265 265 262 262 261 261 261 262 263 263 263 264 -193 -193 263 262 261 261 260 260 262 261 260 258 258 258 257 257 257 253 254 257 260 260 261 260 262 261 260 260 259 260 260 259 259 258 259 259 259 0 0 0 0 0
    0 0 0 0 0 0 0 0 0 0 0 0 0 0 0 0 0 0 0 0 0 0 0 0 0 0 0 0 0 0 0 0 0 0 0 0 0 0 0 0 0 0 0 0 0 0 0 0 0 0 0 0 0 0 0 0 0 0 0 0 0 0 0 0 0 0 0 0 0 -193 -193 -193 -193 -193 301 -193 -209 -209 -209 102 -193 -193 -193 -193 -209 -209 -209 -209 -209 -209 59 59 61 -193 -193 302 305 -209 -193 92 91 -193 -193 94 -193 -209 -193 -209 -209 -193 -193 -193 281 -193 280 -193 -193 286 284 -209 -209 -209 -193 -193 -193 273 269 268 -193 281 279 282 283 283 280 280 281 278 268 269 274 -209 -193 92 97 97 -193 -193 -193 -193 269 -209 -193 265 -177 -177 268 267 266 266 267 265 264 264 267 265 266 267 268 269 267 268 268 263 264 264 266 265 266 267 268 267 266 267 266 263 263 265 264 263 -193 -193 -193 -209 -193 -193 -193 264 270 269 268 268 269 269 269 268 270 267 264 265 -193 266 265 265 266 265 266 266 266 265 265 267 266 266 263 263 263 264 264 262 262 262 262 -193 -193 -193 -193 -193 -209 -209 -209 -209 -209 -193 -209 -193 -193 -193 -193 -193 -193 -209 -193 268 -193 -193 -193 -193 -193 -193 268 272 268 268 266 265 267 267 265 264 263 264 263 264 266 267 265 266 266 266 264 264 263 263 260 260 263 261 260 260 259 259 259 259 259 255 258 260 260 260 261 260 261 261 260 260 259 260 260 260 260 258 259 260 260 0 0 0 0 0
    0 0 0 0 0 0 0 0 0 0 0 0 0 0 0 0 0 0 0 0 0 0 0 0 0 0 0 0 0 0 0 0 0 0 0 0 0 0 0 0 0 0 0 0 0 0 0 0 0 0 0 0 0 0 0 0 0 0 0 0 0 0 0 0 0 0 0 0 0 -193 -193 -193 -193 -193 -193 -209 -209 -209 -209 -209 -209 -209 -209 -209 -209 -209 -209 -209 -209 -209 -193 -209 -193 301 301 303 304 304 -209 -193 92 91 92 95 92 91 -193 90 89 91 -193 -193 -193 -193 -193 -193 -193 -193 -193 -193 -193 -177 -177 -177 -209 -193 -193 -193 -209 284 -193 284 285 285 282 282 282 -193 275 -193 -209 -193 93 93 97 97 96 98 99 -193 279 -193 -193 -177 -177 -177 -177 -177 -177 271 271 267 267 267 271 268 268 270 -209 -209 -193 272 271 265 266 266 271 267 268 269 270 269 268 268 268 264 264 267 -193 -209 -193 -193 91 -193 -193 -209 -193 274 277 276 275 273 273 274 -193 -193 -193 -193 -177 -193 -193 -193 268 267 268 267 268 268 269 267 268 270 267 267 264 265 265 265 -193 -193 264 263 -193 -209 -193 -193 -193 -193 -193 -193 -193 -209 -193 268 -209 -193 -193 -193 -193 -193 -193 -209 -209 -193 -193 -193 -193 -193 -193 -193 269 273 271 269 266 265 267 267 265 264 263 264 263 265 267 -209 -193 268 270 271 272 268 265 265 263 262 263 262 262 261 261 260 259 261 260 257 260 261 261 261 260 260 260 260 261 260 259 259 260 260 260 258 259 -193 -193 0 0 0 0 0
    0 0 0 0 0 0 0 0 0 0 0 0 0 0 0 0 0 0 0 0 0 0 0 0 0 0 0 0 0 0 0 0 0 0 0 0 0 0 0 0 0 0 0 0 0 0 0 0 0 0 0 0 0 0 0 0 0 0 0 0 0 0 0 0 0 0 0 0 0 103 -193 -193 -209 -209 299 297 -193 -193 -193 295 -193 -193 -209 -209 -209 -193 300 -209 -193 -209 -193 -193 302 303 304 304 303 306 301 -193 -193 91 92 95 92 91 91 90 89 91 93 93 -193 93 -193 -193 96 -193 -193 -193 89 88 86 87 88 -209 -193 86 -193 -193 -209 -193 -193 -193 -193 -193 -193 -193 -193 -193 -193 -193 95 95 98 98 97 98 99 -193 281 285 290 277 -177 -177 -177 -177 -177 -177 275 271 274 273 -193 273 -193 -193 -177 90 -193 -193 -193 -193 -193 -193 -193 270 270 272 273 -193 271 271 271 266 267 273 -193 -193 -193 -193 93 92 92 -193 -193 281 281 279 -209 -193 -193 -193 92 95 98 97 99 101 101 101 -193 -193 270 270 -193 -193 -193 -177 -193 -193 269 269 267 268 268 270 -193 -193 -193 -193 -193 -193 -193 -193 -193 -193 -193 -193 -193 -193 -193 -193 -193 -209 -209 -193 -193 -193 -193 -209 -209 -193 -193 -193 87 -193 -193 272 272 276 275 274 268 268 271 272 270 267 264 -193 -193 -193 -209 -209 270 275 276 277 279 276 268 267 265 264 265 263 263 262 262 262 261 262 261 259 261 262 263 263 262 260 261 260 260 260 260 261 260 261 -193 -193 -193 94 97 0 0 0 0 0
    0 0 0 0 0 0 0 0 0 0 0 0 0 0 0 0 0 0 0 0 0 0 0 0 0 0 0 0 0 0 0 0 0 0 0 0 0 0 0 0 0 0 0 0 0 0 0 0 0 0 0 0 0 0 0 0 0 0 0 0 0 0 0 0 0 0 0 0 0 102 -193 -193 -193 -193 300 298 299 297 296 296 298 -193 298 -193 -193 299 302 -193 303 303 302 302 304 305 306 306 303 307 305 -193 -193 93 94 96 92 91 91 90 89 90 93 92 92 93 93 93 96 -193 -193 89 89 88 86 87 87 87 85 86 -193 -193 -193 90 91 93 -193 -193 -193 -193 -193 -193 287 -193 96 96 99 98 97 98 99 101 282 286 290 278 -177 -177 -177 -177 -177 -177 -177 274 277 276 -193 -193 -193 -193 92 90 90 -193 -193 -193 -193 102 -193 271 271 -193 -193 -193 -193 273 274 268 273 277 -193 -193 -193 -193 92 -193 -193 -193 -193 281 281 280 -209 -209 -193 -193 92 94 98 97 98 101 101 100 99 99 -193 -193 -193 -193 -193 -193 -193 -209 -177 -177 270 272 273 -193 -193 -193 -193 -209 -193 -193 -209 -193 -193 -193 -193 -193 -193 -193 -193 -193 -193 -193 -193 -193 91 -177 -193 -177 90 96 91 90 90 -193 -193 -193 274 277 277 277 273 273 276 -177 277 275 -209 268 -193 276 -209 -209 276 279 279 281 283 281 276 270 267 266 267 265 265 264 264 264 264 264 263 -193 -193 -193 265 265 264 264 -193 264 261 260 260 -193 260 -209 -193 -193 92 94 95 0 0 0 0 0
    0 0 0 0 0 0 0 0 0 0 0 0 0 0 0 0 0 0 0 0 0 0 0 0 0 0 0 0 0 0 0 0 0 0 0 0 0 0 0 0 0 0 0 0 0 0 0 0 0 0 0 0 0 0 0 0 0 0 0 0 0 0 0 0 0 0 0 0 0 102 -193 -193 304 302 304 301 302 299 -193 299 300 -193 -193 -193 -193 303 306 310 309 309 307 307 309 308 308 308 304 307 308 309 -209 -193 94 97 93 92 -193 89 88 90 91 91 91 92 92 92 96 94 92 90 90 -193 87 87 88 88 87 -177 89 90 89 91 92 94 -193 -193 -193 -193 -193 283 288 -193 96 96 99 98 96 98 99 100 -193 -193 -193 279 -177 -177 -177 -177 -177 -177 -177 276 -193 -193 96 -193 90 90 92 91 90 92 92 -193 94 103 104 -193 -193 101 101 101 -193 -193 276 -193 -193 279 -193 -193 -193 92 92 -193 -193 -193 -193 281 282 280 -193 -193 -193 -193 92 94 97 96 98 100 101 99 99 99 99 97 98 100 100 99 102 105 -177 -177 -193 -177 -193 -193 -177 -193 -209 -209 -209 -209 -193 -193 -193 -193 272 275 274 -193 -193 -193 -193 -193 -193 -193 92 -177 -177 89 89 91 90 90 90 90 -193 -193 275 277 277 277 -177 -177 -177 -177 -177 -209 -209 -209 -193 278 -209 -209 279 281 281 283 285 283 280 274 267 266 267 269 268 267 267 270 271 275 270 267 -193 267 267 267 265 265 -193 -193 -209 -193 -209 -209 -209 -209 -193 -209 93 95 97 0 0 0 0 0
    0 0 0 0 0 0 0 0 0 0 0 0 0 0 0 0 0 0 0 0 0 0 0 0 0 0 0 0 0 0 0 0 0 0 0 0 0 0 0 0 0 0 0 0 0 0 0 0 0 0 0 0 0 0 0 0 0 0 0 0 0 0 0 0 0 0 0 0 0 -193 -193 308 309 307 308 305 308 305 303 304 304 -193 -193 -193 -193 309 309 312 312 311 310 311 311 309 309 308 304 307 310 311 -209 -209 -209 97 93 91 -193 -193 89 90 92 91 92 93 92 94 98 94 91 90 90 88 87 87 87 88 87 -177 91 91 91 92 94 95 -193 -193 -193 -193 -193 285 289 -193 97 97 99 98 96 98 98 100 93 -193 -193 280 -177 -177 -177 -177 -177 -177 -177 -209 92 94 94 91 90 90 92 -193 90 92 92 93 94 101 103 99 -193 100 100 100 99 99 98 -177 95 97 94 91 92 92 93 92 -193 -193 -193 281 282 -177 -193 -193 -193 90 93 95 96 96 97 100 100 98 98 97 97 96 97 99 99 98 101 104 -193 -193 -193 -193 -193 -193 -193 -209 -209 -177 282 -209 -193 -193 275 275 275 277 276 -193 -193 -193 -193 90 -193 -193 93 94 -177 90 91 93 92 91 90 90 -193 -193 -193 277 277 278 -177 -177 -177 -177 -209 -209 -209 -209 -209 278 -193 -193 -193 281 281 283 284 283 281 274 267 266 268 271 270 269 271 277 278 281 -193 -209 -209 270 268 269 266 266 -193 -209 -209 -209 -209 -209 -209 -209 -209 -209 99 100 102 0 0 0 0 0
    0 0 0 0 0 0 0 0 0 0 0 0 0 0 0 0 0 0 0 0 0 0 0 0 0 0 0 0 0 0 0 0 0 0 0 0 0 0 0 0 0 0 0 0 0 0 0 0 0 0 0 0 0 0 0 0 0 0 0 0 0 0 0 0 0 0 0 0 0 -193 -209 -193 310 307 308 307 311 310 308 308 307 -193 508 -193 509 310 311 314 314 314 313 312 312 311 311 313 309 310 313 313 315 -209 -209 -193 -209 -209 -193 -193 90 92 92 92 92 94 95 98 99 95 92 92 92 90 89 89 89 90 89 -177 92 93 92 93 95 96 -193 -193 -193 289 -193 287 290 -193 98 98 100 98 96 98 98 99 94 100 101 -193 -209 -177 -177 -193 -193 -193 -193 -193 -177 -177 -193 91 90 -193 -193 -193 -193 92 93 94 93 100 102 97 99 99 100 99 99 99 98 -177 95 97 96 92 92 93 93 -193 -193 -177 -193 282 283 -177 -193 91 93 93 96 98 99 99 99 101 102 99 98 97 98 96 98 99 100 98 101 104 103 -193 -193 -193 -193 -193 108 -193 -209 -177 284 282 -193 -193 277 -193 277 278 276 -193 -209 -193 -193 -193 -193 -193 95 98 95 90 92 94 92 90 90 90 -193 -193 276 278 -193 -193 -177 -177 -177 -177 -209 -209 -209 -209 -209 -193 -193 -193 -193 281 281 283 284 283 281 275 267 266 268 273 273 272 273 278 280 283 -209 -209 -209 272 271 -193 -209 -209 -209 277 281 -193 281 284 287 -209 -209 -193 -193 104 105 0 0 0 0 0
    0 0 0 0 0 0 0 0 0 0 0 0 0 0 0 0 0 0 0 0 0 0 0 0 0 0 0 0 0 0 0 0 0 0 0 0 0 0 0 0 0 0 0 0 0 0 0 0 0 0 0 0 0 0 0 0 0 0 0 0 0 0 0 0 0 0 0 0 0 -209 -193 -193 312 308 -209 -193 -193 312 -193 -193 -193 -193 508 511 509 -193 313 318 318 316 315 314 313 313 314 314 309 310 314 315 317 316 -209 -193 -193 -193 92 93 92 93 94 93 94 99 100 101 -193 -193 92 93 92 89 -193 -193 -193 89 91 -177 95 93 93 94 95 96 -193 -193 -193 290 -193 291 292 -193 99 100 101 99 97 99 99 99 -177 -177 102 291 -193 -177 -177 -177 -177 -177 -177 284 285 289 291 -193 -193 -193 -193 -193 -193 93 95 96 94 100 102 98 100 100 101 99 99 99 99 -177 -177 94 -193 -193 -193 -193 -193 285 286 -177 285 283 284 284 92 93 97 98 100 100 101 101 100 101 102 99 98 96 98 97 99 100 101 100 101 103 102 100 102 -193 -193 -209 -193 -193 -193 -177 -177 -177 -193 -193 277 -193 -193 279 278 -193 -209 -209 -209 -209 -193 -193 91 96 -209 88 89 90 93 91 91 91 -193 -193 -193 -193 -193 -193 -193 -193 -177 -193 -193 -209 -209 -209 -209 -193 -193 -193 -209 282 281 283 285 284 282 277 267 267 270 277 276 274 -193 -209 -209 284 -209 -177 -177 -209 -193 -193 -209 -209 -209 278 282 -193 282 285 291 -209 -209 -209 -209 -209 -193 0 0 0 0 0
    0 0 0 0 0 0 0 0 0 0 0 0 0 0 0 0 0 0 0 0 0 0 0 0 0 0 0 0 0 0 0 0 0 0 0 0 0 0 0 0 0 0 0 0 0 0 0 0 0 0 0 0 0 0 0 0 0 0 0 0 0 0 0 0 0 0 0 0 0 -193 316 317 313 311 -193 -193 318 310 -193 -193 -193 -193 -193 -193 -209 -193 313 320 319 318 316 317 316 315 318 318 311 310 317 318 318 -193 -193 -209 -193 -177 97 99 97 98 -193 307 305 309 304 306 308 303 305 -193 -193 -193 93 93 93 -193 -193 -193 -193 -193 91 92 94 93 91 93 94 94 99 101 102 103 100 101 101 99 98 100 100 100 97 -193 -193 -193 -177 -177 -177 -177 -177 -177 -177 286 286 289 292 -193 -193 -193 -193 -193 -193 95 98 99 -193 -193 286 99 101 101 101 100 -177 -177 -177 93 95 95 100 95 95 96 -193 287 288 288 288 283 -177 -177 -177 94 99 99 101 100 100 101 101 100 99 98 96 96 97 96 98 101 102 102 101 103 103 102 104 106 106 -193 -193 -193 -177 -177 -177 -177 -177 -193 -193 -209 -193 280 279 280 -209 -209 -209 -209 -209 -209 91 101 -193 88 87 88 90 91 92 93 93 93 -193 -193 -193 -193 -209 -209 -193 -193 -193 -209 -209 -193 -209 -193 -193 -193 -193 285 285 287 288 287 285 280 270 269 272 279 279 -193 -209 -209 -209 -209 -177 -177 -177 92 92 92 -209 -209 -209 280 283 284 283 287 292 -209 -209 -193 -209 -209 -209 0 0 0 0 0
    0 0 0 0 0 0 0 0 0 0 0 0 0 0 0 0 0 0 0 0 0 0 0 0 0 0 0 0 0 0 0 0 0 0 0 0 0 0 0 0 0 0 0 0 0 0 0 0 0 0 0 0 0 0 0 0 0 0 0 0 0 0 0 0 0 0 0 0 0 -193 317 320 -209 -209 310 314 321 -209 -209 -209 -209 480 -193 471 471 -193 -193 -193 -193 -193 -193 324 321 319 325 325 -209 -209 -209 -209 -209 -193 -209 -209 -209 -193 -193 402 -193 -225 -225 -225 -225 -225 -225 -225 -225 -225 308 311 -209 -209 -209 -209 -225 -225 -209 496 503 -209 -193 95 96 95 93 96 98 97 103 -177 103 105 102 102 103 101 100 101 -177 -193 -193 306 304 298 295 -177 -177 -177 -177 289 289 290 -193 -193 93 -193 94 95 -193 -193 -193 96 -193 -193 293 -193 -193 -209 -193 -193 -193 100 100 99 100 97 96 95 100 96 96 97 98 96 -193 -193 289 -193 -193 -177 -177 100 -193 -193 -193 -193 -193 -193 -193 -193 98 95 95 98 99 98 100 102 -193 -209 -209 -193 -193 -209 106 111 -193 -193 -193 -193 292 292 291 291 287 -177 -209 -209 -209 -209 -193 -193 -193 -209 -209 -193 -193 90 93 100 100 98 -193 88 93 92 91 94 95 -193 -193 -193 -193 -193 -209 -177 -177 -209 -209 -209 -209 106 -209 -209 -193 -209 290 292 291 292 293 291 289 283 276 271 274 280 -209 -209 -209 -193 -209 -209 -177 95 96 91 -177 -177 -177 -209 -193 283 285 286 287 291 -193 -209 -209 296 298 300 -193 0 0 0 0 0
    0 0 0 0 0 0 0 0 0 0 0 0 0 0 0 0 0 0 0 0 0 0 0 0 0 0 0 0 0 0 0 0 0 0 0 0 0 0 0 0 0 0 0 0 0 0 0 0 0 0 0 0 0 0 0 0 0 0 0 0 0 0 0 0 0 0 0 0 0 -193 -209 320 -209 311 311 -193 -193 -209 -209 -209 -209 -193 464 464 463 -193 -193 -193 463 466 466 -209 -209 -209 -209 -209 -209 -209 -209 -193 -209 -209 -209 -209 -193 -193 -209 413 -225 -225 -225 -225 -225 -225 -225 -225 -225 -225 -225 -225 -225 -225 -225 -225 -225 -225 -209 -193 -193 -209 -209 -209 695 696 693 697 695 699 707 -209 -209 109 103 105 105 104 103 103 100 -209 -193 -193 -209 -209 -193 -193 -193 102 102 -193 -193 103 103 103 104 106 103 102 -209 -209 97 100 -209 -193 -209 -209 -225 -225 -225 -193 -209 97 99 -225 -225 -225 -225 -225 -225 -225 -225 -225 -225 -225 -225 -225 -225 -225 -225 -225 -225 -225 315 308 308 306 -193 -209 -193 505 506 90 91 94 104 100 102 106 -209 -209 -209 -209 -209 -209 -209 -177 -177 -177 -177 -209 -209 -209 -193 -209 -209 -177 -177 471 472 -193 -209 -209 -209 -209 -209 -209 93 -193 95 104 101 90 -193 -193 102 97 96 96 97 94 92 92 94 93 100 -193 104 -193 -193 -193 106 107 108 -193 105 -209 -193 -193 -209 287 289 -177 -177 282 -177 271 -193 286 -209 -209 -209 -209 -209 -209 -209 -177 100 95 94 94 -177 -193 -193 287 287 286 287 292 -209 -209 -209 -209 297 300 300 0 0 0 0 0
    0 0 0 0 0 0 0 0 0 0 0 0 0 0 0 0 0 0 0 0 0 0 0 0 0 0 0 0 0 0 0 0 0 0 0 0 0 0 0 0 0 0 0 0 0 0 0 0 0 0 0 0 0 0 0 0 0 0 0 0 0 0 0 0 0 0 0 0 0 -209 -209 -209 -193 -209 -209 -193 -209 -209 -209 -209 457 461 461 -209 -209 -209 -209 -193 -193 -193 -193 -193 -209 -193 -193 -193 -193 -193 368 -193 371 373 366 -209 -193 -193 399 -225 -225 -225 -225 -225 -225 364 364 367 370 372 -193 371 -225 -193 -225 -193 -193 614 -193 372 368 368 368 367 365 365 363 364 362 -209 909 -209 -225 -225 -225 -225 -193 -209 -209 -209 -209 -193 -193 -193 -209 -193 -193 -193 371 365 99 -209 -193 -193 28 31 36 34 32 -193 190 -209 -209 -209 -193 -193 -193 -193 -225 -225 -225 -225 -225 -225 -225 -225 -225 -225 -225 -225 -225 -225 -225 -225 -225 -225 -225 -225 -225 -225 -225 -225 -225 -225 -225 -225 -225 -209 -193 -193 -225 -225 -193 357 -193 -193 -193 366 367 367 367 370 365 366 366 366 366 366 366 365 365 -193 -193 -209 -209 -209 -209 -209 -193 471 -193 -209 -209 -209 -209 -209 -209 -209 -209 -209 668 -209 -209 -209 -209 -209 101 97 97 95 -209 90 -193 -193 89 94 -209 -209 -209 -193 -193 -193 -193 110 108 105 103 103 98 98 99 103 -209 -209 -209 -209 -209 -209 -209 -209 -209 -209 -193 -193 -209 -193 -193 102 104 99 96 94 -193 -193 -209 -209 -209 -209 -209 -209 -209 -209 -209 -209 -209 -209 -209 0 0 0 0 0
    0 0 0 0 0 0 0 0 0 0 0 0 0 0 0 0 0 0 0 0 0 0 0 0 0 0 0 0 0 0 0 0 0 0 0 0 0 0 0 0 0 0 0 0 0 0 0 0 0 0 0 0 0 0 0 0 0 0 0 0 0 0 0 0 0 0 0 0 0 -193 371 374 -193 373 375 376 376 -193 -209 -209 -209 -193 -193 374 373 -193 372 372 372 373 372 -193 369 373 370 371 368 369 369 368 370 372 366 372 -193 -209 -209 -209 -225 362 363 363 363 365 364 368 368 371 368 367 367 370 371 371 369 -193 368 372 368 368 367 367 366 365 364 364 362 363 -209 -209 -209 -209 -209 -193 -193 -209 -209 173 -209 -209 -209 -209 -193 -193 368 369 371 365 -193 -209 -193 -209 29 31 35 31 32 -193 189 -193 -209 -193 366 366 366 366 -225 -225 -225 -225 -225 -225 -225 -225 -225 -225 -225 -225 -225 -225 -225 -225 -225 -225 -225 -225 -225 -225 -225 -225 -225 -225 -225 -225 -225 -225 -225 -225 -225 -225 -225 357 360 -193 364 367 368 366 369 370 366 367 366 366 366 366 366 364 364 366 -225 -225 -225 -225 367 367 -193 366 368 369 370 368 369 -209 -193 375 -209 -209 -209 -209 -209 -209 -209 -209 -209 86 89 -193 -193 -193 -209 -209 -193 -193 -209 -209 -209 -193 -209 -209 -209 -209 -209 -209 101 102 99 100 100 102 -209 -209 -209 -209 -209 -209 -209 -209 -209 -209 -193 -193 -209 102 103 -193 -209 97 95 92 -193 93 -209 -193 -209 -209 -209 -209 -209 -209 -209 -209 -209 -209 -209 0 0 0 0 0
    0 0 0 0 0 0 0 0 0 0 0 0 0 0 0 0 0 0 0 0 0 0 0 0 0 0 0 0 0 0 0 0 0 0 0 0 0 0 0 0 0 0 0 0 0 0 0 0 0 0 0 0 0 0 0 0 0 0 0 0 0 0 0 0 0 0 0 0 0 -193 368 372 373 372 374 374 374 374 374 -193 -209 -193 374 372 372 372 371 371 371 373 372 -193 369 372 370 371 368 369 369 369 370 371 368 371 -193 -193 -209 366 364 364 364 363 364 366 366 368 369 371 369 370 369 370 371 371 369 372 369 371 367 368 367 367 366 365 363 364 362 363 362 361 -209 -209 -193 -209 -209 -209 -209 -209 -209 -193 -193 -193 -193 367 367 367 370 -193 -177 -209 -209 -209 28 30 34 31 34 31 -209 -193 -193 364 366 366 367 368 -193 371 -225 -225 -225 -225 -225 -225 -225 -225 -225 -225 -225 -225 -225 -225 -225 -225 -193 -225 -225 -225 -225 -225 -225 -225 -225 -225 -225 -209 -193 349 -193 -225 351 357 359 362 363 365 366 365 369 368 366 366 366 366 365 366 366 363 364 365 -193 -193 -193 371 366 366 -193 -193 368 368 -193 368 368 -193 -193 374 -193 -209 -209 -209 -193 -209 -209 -209 -209 -209 -209 -193 -209 -209 -209 -209 -209 -193 -225 -209 -209 -209 -209 -209 375 373 -209 -209 -209 -209 -209 -209 -193 -209 -209 -209 -193 -193 -209 -209 -209 -209 -209 -209 -209 -209 -209 -209 -209 -193 0 -193 -209 -209 -209 -209 -209 -209 -209 -209 -193 368 365 366 365 364 364 -193 -209 0 0 0 0 0
    0 0 0 0 0 0 0 0 0 0 0 0 0 0 0 0 0 0 0 0 0 0 0 0 0 0 0 0 0 0 0 0 0 0 0 0 0 0 0 0 0 0 0 0 0 0 0 0 0 0 0 0 0 0 0 0 0 0 0 0 0 0 0 0 0 0 0 0 0 367 368 371 370 370 372 373 373 373 373 374 373 374 373 371 371 370 370 370 371 372 372 369 369 372 371 371 369 370 370 370 370 371 368 371 369 -193 -193 366 364 365 364 364 364 366 368 369 371 371 370 371 370 371 371 370 370 372 369 371 367 367 367 367 366 365 364 363 362 364 363 362 362 -193 365 370 371 369 -209 -209 -193 -193 367 365 365 366 366 366 369 -193 -193 -209 -209 -193 -193 29 -193 30 35 -209 -209 364 -193 364 365 366 368 370 371 373 -209 -225 -209 -209 -209 -225 -225 -225 -225 54 -193 -209 -209 87 -209 -209 -193 -193 -193 -225 -225 -225 -209 -209 377 -209 -209 -209 350 354 -193 354 354 358 360 363 363 365 365 365 369 367 365 366 365 366 365 366 365 363 364 365 363 -193 -193 370 366 366 -209 -209 -193 -209 -193 -193 -193 -193 -209 373 -209 -209 -209 -209 -209 -209 -209 -209 -209 -209 -209 -209 -209 -209 -209 -209 -193 -193 -225 -209 -209 -209 -193 -209 374 372 -193 -193 -193 -209 -209 -209 -209 -209 -209 -193 373 -193 -193 -209 -193 147 -209 -209 141 -209 -209 -209 -209 0 -177 -177 -209 -209 -209 -209 91 99 -209 -209 364 368 365 365 366 365 364 364 362 0 0 0 0 0
    0 0 0 0 0 0 0 0 0 0 0 0 0 0 0 0 0 0 0 0 0 0 0 0 0 0 0 0 0 0 0 0 0 0 0 0 0 0 0 0 0 0 0 0 0 0 0 0 0 0 0 0 0 0 0 0 0 0 0 0 0 0 0 0 0 0 0 0 0 367 368 369 369 369 371 371 372 371 372 373 372 373 373 371 371 370 370 370 370 372 371 369 369 371 370 371 369 370 369 369 370 371 368 371 368 371 368 366 365 365 365 364 364 366 368 368 370 370 369 370 369 370 370 370 371 371 370 370 367 367 367 367 366 365 364 364 363 365 364 363 363 364 365 368 368 367 -193 -193 369 367 366 365 365 367 366 366 367 365 -193 366 370 -193 -193 -193 366 -193 -193 -193 -193 364 -193 364 364 365 366 368 370 372 -209 -177 -193 -209 -209 -209 -177 -193 47 46 -193 -209 -209 -209 -209 -177 -177 149 151 -193 -209 -209 374 373 375 371 366 364 -177 359 -193 358 358 360 361 364 363 365 365 365 369 367 365 366 365 365 365 365 365 363 364 365 363 365 367 369 366 366 365 366 367 -193 -193 -193 365 -209 -209 -193 -209 -209 -193 -193 -209 -193 -209 -209 -193 -209 -209 -209 -209 54 -209 -209 57 -209 -209 -209 -209 -209 -209 -209 -193 370 -193 -193 -193 -209 -209 -193 -193 -193 -193 -193 373 373 372 -193 -193 -209 -209 -209 139 -209 -209 -209 -209 0 -177 -177 -177 -209 -177 -177 88 101 -209 -209 -193 368 365 365 366 365 364 363 363 0 0 0 0 0
    0 0 0 0 0 0 0 0 0 0 0 0 0 0 0 0 0 0 0 0 0 0 0 0 0 0 0 0 0 0 0 0 0 0 0 0 0 0 0 0 0 0 0 0 0 0 0 0 0 0 0 0 0 0 0 0 0 0 0 0 0 0 0 0 0 0 0 0 0 367 368 368 369 369 370 371 372 371 372 373 372 373 372 371 371 369 369 369 369 371 371 368 369 370 370 371 370 370 370 369 370 371 368 371 368 370 367 366 366 366 366 366 365 367 368 368 369 370 369 369 369 369 370 370 371 371 370 370 367 368 367 367 366 365 364 364 363 365 364 364 364 364 364 366 366 365 364 366 366 365 365 365 365 367 365 364 366 364 367 365 367 365 365 366 366 366 365 364 365 364 364 364 364 365 365 368 369 371 374 -209 -209 -209 -209 -193 -177 -209 -193 -193 -209 -209 -193 -209 -193 -193 -177 148 151 -193 -193 372 373 371 373 369 366 365 362 361 362 359 359 360 362 364 363 365 365 365 369 366 365 366 365 365 365 365 365 363 363 363 362 364 -193 368 366 366 365 365 367 -193 -193 -193 365 -193 -209 -193 -209 -193 371 -193 -209 367 -209 -209 -209 -209 -193 -209 50 52 56 55 55 53 -209 -193 -209 -209 368 -193 -193 365 -193 -193 -193 -193 -209 -193 -193 -193 -193 -193 372 -193 372 373 -193 -193 -193 137 139 -209 -209 -209 -209 -209 -177 -177 15 -193 54 62 -177 -177 121 -193 363 367 365 365 365 365 364 363 363 0 0 0 0 0
    0 0 0 0 0 0 0 0 0 0 0 0 0 0 0 0 0 0 0 0 0 0 0 0 0 0 0 0 0 0 0 0 0 0 0 0 0 0 0 0 0 0 0 0 0 0 0 0 0 0 0 0 0 0 0 0 0 0 0 0 0 0 0 0 0 0 0 0 0 367 368 368 368 368 368 369 371 370 371 371 369 371 372 370 370 368 368 368 369 0 -256 -1 -4759 370 370 371 370 371 370 369 370 370 369 371 368 369 367 366 366 366 367 366 366 367 369 368 370 370 369 369 369 369 370 369 371 370 370 369 367 367 367 367 367 366 365 364 363 366 365 365 364 364 364 365 365 365 364 366 366 365 365 366 365 366 364 363 364 363 366 364 366 366 365 367 366 367 366 365 366 365 364 365 364 366 365 367 368 370 373 374 -193 -209 -209 -193 -177 -209 -193 -209 -209 -209 -193 -209 -193 -193 -193 -193 -193 -193 370 372 373 370 372 367 366 364 361 361 362 358 359 360 362 363 363 365 365 365 369 366 365 365 365 365 364 365 365 362 363 363 362 364 367 367 366 366 365 365 366 -193 -193 -193 365 -193 -193 -193 368 367 369 -193 371 365 363 -193 -209 -209 -193 -193 50 52 55 54 52 -193 -209 -193 -209 367 366 -193 -193 365 365 -193 -193 -193 -193 -193 -193 -193 -193 -193 371 372 371 371 -193 -209 -209 -193 140 -209 -209 -209 -209 -209 -193 -177 12 40 52 62 -209 -193 -193 -193 364 368 365 365 365 365 364 363 363 0 0 0 0 0
    0 0 0 0 0 0 0 0 0 0 0 0 0 0 0 0 0 0 0 0 0 0 0 0 0 0 0 0 0 0 0 0 0 0 0 0 0 0 0 0 0 0 0 0 0 0 0 0 0 0 0 0 0 0 0 0 0 0 0 0 0 0 0 0 0 0 0 0 0 368 368 368 368 368 366 367 369 368 368 368 368 369 370 368 368 367 367 367 368 370 370 367 369 369 369 370 369 370 368 367 368 369 369 370 368 367 366 366 366 366 367 366 367 367 369 368 369 369 369 369 369 369 370 368 371 369 371 369 367 367 367 367 367 366 366 364 364 366 365 365 364 363 363 364 364 364 364 366 367 365 366 366 365 365 364 362 363 363 365 364 367 366 366 368 367 367 367 365 366 365 365 365 364 366 365 366 367 368 371 372 372 370 -193 -209 -193 -193 -193 -193 -193 -209 -193 -193 370 367 370 370 371 371 371 372 372 369 371 367 365 363 362 362 362 360 361 362 363 364 364 365 365 365 368 366 365 365 364 364 364 364 364 362 362 362 361 362 365 365 366 365 364 365 365 -193 365 364 364 364 365 367 367 367 368 369 370 366 365 364 -193 -209 -193 -193 -177 50 53 52 -209 -193 -209 -193 367 366 365 -193 363 363 364 366 364 367 366 366 367 -193 -193 370 370 370 370 370 371 371 -193 -193 -209 -193 -193 365 365 364 365 -193 -209 -209 -209 -193 -193 -209 -209 364 363 366 364 364 364 365 364 363 363 0 0 0 0 0
    0 0 0 0 0 0 0 0 0 0 0 0 0 0 0 0 0 0 0 0 0 0 0 0 0 0 0 0 0 0 0 0 0 0 0 0 0 0 0 0 0 0 0 0 0 0 0 0 0 0 0 0 0 0 0 0 0 0 0 0 0 0 0 0 0 0 0 0 0 367 368 367 367 367 367 367 368 368 368 368 368 369 370 369 368 367 367 367 368 370 370 367 368 368 368 368 368 368 367 366 367 368 368 369 368 367 367 366 367 366 368 366 367 367 369 367 369 368 368 367 368 368 369 367 370 368 371 368 367 367 367 367 367 366 366 364 365 367 365 365 364 363 362 363 364 363 364 365 366 364 366 365 364 364 363 362 363 363 365 364 367 366 366 368 367 367 367 366 366 365 365 365 364 366 365 366 366 367 369 370 371 369 369 370 370 370 370 368 367 366 367 366 368 366 369 369 370 371 371 372 372 369 369 367 365 364 363 363 363 362 363 365 365 366 365 366 366 365 369 366 365 365 364 364 364 364 364 362 362 361 361 361 364 364 365 365 364 365 365 365 365 364 364 364 364 365 365 366 367 368 369 367 367 365 363 363 363 361 -193 -209 -209 -193 -193 368 366 367 367 366 365 364 363 363 363 364 363 364 364 363 365 366 -193 367 368 367 369 369 370 370 368 367 366 366 366 364 365 364 364 366 368 367 366 366 367 366 369 367 365 368 364 364 364 364 364 363 363 0 0 0 0 0
    0 0 0 0 0 0 0 0 0 0 0 0 0 0 0 0 0 0 0 0 0 0 0 0 0 0 0 0 0 0 0 0 0 0 0 0 0 0 0 0 0 0 0 0 0 0 0 0 0 0 0 0 0 0 0 0 0 0 0 0 0 0 0 0 0 0 0 0 0 366 367 366 367 367 366 366 368 367 368 368 368 369 371 369 369 367 368 368 369 370 370 367 369 368 368 368 367 368 367 366 367 367 367 369 368 367 367 367 367 367 369 367 367 367 369 367 369 368 368 367 369 369 369 367 370 368 371 368 367 367 366 367 367 366 366 363 366 368 366 366 365 363 363 364 364 364 364 366 365 365 367 366 365 364 363 362 363 363 364 363 365 364 365 367 366 366 366 366 366 365 365 365 364 366 365 366 366 366 367 368 369 368 368 369 369 369 370 368 367 366 366 365 367 365 367 366 368 369 369 371 371 367 367 366 365 365 363 364 364 363 365 367 366 367 365 366 366 365 369 365 365 365 364 364 364 364 364 361 362 361 361 361 364 364 366 366 365 366 365 366 365 364 364 363 363 364 364 364 365 367 366 366 365 364 363 363 363 362 363 365 365 368 368 368 367 367 367 366 365 364 363 362 362 363 362 362 362 361 363 362 362 363 365 366 367 367 369 370 369 369 368 366 366 364 365 364 364 364 366 367 368 367 369 369 372 370 369 371 365 365 365 365 364 364 364 0 0 0 0 0
    0 0 0 0 0 0 0 0 0 0 0 0 0 0 0 0 0 0 0 0 0 0 0 0 0 0 0 0 0 0 0 0 0 0 0 0 0 0 0 0 0 0 0 0 0 0 0 0 0 0 0 0 0 0 0 0 0 0 0 0 0 0 0 0 0 0 0 0 0 366 366 365 366 366 365 365 367 367 368 367 369 370 371 369 369 368 368 368 369 370 370 368 369 368 369 368 368 369 367 367 367 367 368 369 369 368 368 368 369 368 370 368 368 367 370 368 369 368 369 368 370 370 370 368 371 368 371 367 367 367 366 367 367 366 366 363 366 368 366 367 365 364 362 364 364 365 364 365 365 364 367 366 365 364 363 363 362 363 364 363 364 364 364 366 365 366 366 366 366 365 366 365 365 366 366 366 366 365 366 367 368 367 367 367 368 368 369 369 367 367 366 366 367 366 367 366 367 368 367 370 369 365 365 364 364 364 363 364 364 364 365 367 366 367 365 366 366 365 369 365 365 364 364 364 364 364 364 361 362 361 361 361 364 363 365 365 364 365 364 365 364 364 364 363 363 364 363 364 364 366 365 365 364 364 363 362 362 362 363 365 364 368 368 367 366 366 367 366 365 364 362 361 362 362 361 361 361 360 361 361 360 361 363 363 365 365 367 369 370 370 367 366 365 363 364 363 363 -193 -193 -193 367 367 368 367 371 369 368 370 365 365 365 365 364 364 364 0 0 0 0 0
    0 0 0 0 0 0 0 0 0 0 0 0 0 0 0 0 0 0 0 0 0 0 0 0 0 0 0 0 0 0 0 0 0 0 0 0 0 0 0 0 0 0 0 0 0 0 0 0 0 0 0 0 0 0 0 0 0 0 0 0 0 0 0 0 0 0 0 0 0 366 366 365 365 366 365 365 366 366 368 367 368 370 370 369 369 367 368 368 369 370 370 368 369 369 369 368 368 369 368 367 368 367 367 368 370 368 369 368 369 368 370 369 369 368 370 369 369 369 369 368 370 370 369 367 370 368 371 367 366 366 366 366 367 366 366 363 367 368 366 367 365 364 363 364 364 365 364 365 365 364 367 366 366 365 363 363 363 363 364 363 364 363 363 365 364 365 365 365 366 365 365 365 365 366 366 366 365 365 366 366 367 366 367 367 368 368 369 369 367 367 366 366 367 366 367 366 366 368 367 369 367 364 364 364 363 363 362 363 364 364 365 367 367 367 366 367 366 365 369 365 365 364 364 364 364 364 364 361 362 362 362 362 363 363 365 365 364 365 364 365 364 364 364 363 364 364 364 365 364 367 366 365 365 364 363 363 363 362 363 366 364 368 367 367 366 366 366 365 364 363 362 361 362 363 362 362 362 361 361 361 360 361 362 362 363 364 366 369 369 369 366 364 364 362 363 362 362 -193 -193 -193 365 365 367 366 369 368 367 369 366 366 365 365 365 365 364 0 0 0 0 0
    0 0 0 0 0 0 0 0 0 0 0 0 0 0 0 0 0 0 0 0 0 0 0 0 0 0 0 0 0 0 0 0 0 0 0 0 0 0 0 0 0 0 0 0 0 0 0 0 0 0 0 0 0 0 0 0 0 0 0 0 0 0 0 0 0 0 0 0 0 366 366 366 365 366 366 366 367 367 369 368 369 369 369 368 368 367 367 367 368 369 369 368 368 369 369 368 367 368 368 366 368 366 366 368 370 369 369 368 369 368 370 369 369 368 370 369 369 369 369 368 370 370 369 367 369 368 370 367 366 366 366 367 367 366 367 364 369 369 367 367 366 365 364 365 364 365 365 366 366 365 367 366 366 365 364 364 363 364 364 363 364 363 363 364 364 364 364 365 365 365 365 365 365 366 366 365 365 365 365 366 367 366 367 367 367 368 369 369 367 367 366 366 367 366 366 366 366 367 366 368 367 364 364 363 363 362 362 363 363 363 365 366 366 366 366 367 366 365 369 365 365 365 364 364 364 364 364 362 362 363 362 363 363 363 364 364 363 364 363 364 364 364 364 363 364 364 365 366 365 367 367 366 366 365 365 365 364 363 364 366 365 368 367 367 365 365 366 365 364 364 362 362 363 363 363 363 362 361 361 361 360 361 361 362 362 364 365 368 370 368 366 364 364 363 363 362 362 -193 -193 -193 365 365 366 365 367 367 366 368 365 366 365 365 365 365 365 0 0 0 0 0
    0 0 0 0 0 0 0 0 0 0 0 0 0 0 0 0 0 0 0 0 0 0 0 0 0 0 0 0 0 0 0 0 0 0 0 0 0 0 0 0 0 0 0 0 0 0 0 0 0 0 0 0 0 0 0 0 0 0 0 0 0 0 0 0 0 0 0 0 0 366 366 366 365 366 366 365 366 367 368 367 368 369 368 368 367 367 367 367 368 368 368 367 367 368 369 367 367 367 368 367 368 367 367 367 370 369 370 369 370 368 371 369 370 368 370 369 369 369 370 368 370 369 369 368 368 367 370 366 366 366 366 366 367 366 367 364 370 370 367 368 366 365 365 365 364 365 365 366 367 366 368 366 366 365 364 364 364 364 364 363 364 363 363 364 364 364 364 365 365 365 365 365 365 366 366 366 365 365 365 366 366 366 367 367 368 368 369 370 368 369 367 366 367 366 366 366 365 367 365 367 365 363 363 363 363 362 361 363 363 364 365 365 365 365 365 366 366 365 368 365 364 364 364 364 364 364 364 362 363 363 363 364 364 363 365 364 363 364 363 364 364 364 365 363 364 364 365 365 365 367 366 366 366 365 365 365 365 363 364 365 364 367 366 366 365 365 366 365 364 364 363 362 363 364 363 363 362 361 361 360 360 360 361 361 361 362 364 367 369 368 366 363 363 363 363 362 362 -193 -193 364 365 364 365 365 366 366 366 367 365 366 365 364 364 364 364 0 0 0 0 0
    0 0 0 0 0 0 0 0 0 0 0 0 0 0 0 0 0 0 0 0 0 0 0 0 0 0 0 0 0 0 0 0 0 0 0 0 0 0 0 0 0 0 0 0 0 0 0 0 0 0 0 0 0 0 0 0 0 0 0 0 0 0 0 0 0 0 0 0 0 366 366 366 365 366 366 365 366 366 368 367 368 369 368 368 367 367 367 367 367 367 367 367 367 368 368 366 366 366 368 367 368 366 366 367 371 370 370 369 369 368 370 369 369 367 369 369 368 369 369 368 369 368 368 367 367 367 368 365 365 366 365 366 366 366 367 364 370 369 367 367 366 366 367 367 366 367 368 368 369 367 369 367 367 366 365 365 364 364 364 363 364 363 363 363 363 364 364 365 365 365 365 365 366 365 366 365 365 365 365 366 366 366 367 366 367 368 369 370 368 369 367 366 367 366 365 365 364 366 364 365 365 363 362 363 362 362 361 362 364 364 365 366 366 366 367 367 366 365 368 365 364 364 364 364 364 364 364 362 363 364 365 366 365 363 365 364 363 364 363 364 364 364 365 364 365 364 365 365 364 366 366 366 365 365 365 364 365 363 364 365 364 366 366 366 365 365 366 365 365 365 364 363 364 365 364 364 363 361 360 360 359 360 360 360 360 361 363 366 368 367 365 362 363 362 363 362 362 -193 -193 364 364 364 365 364 366 366 367 367 365 366 365 364 364 364 363 0 0 0 0 0
    0 0 0 0 0 0 0 0 0 0 0 0 0 0 0 0 0 0 0 0 0 0 0 0 0 0 0 0 0 0 0 0 0 0 0 0 0 0 0 0 0 0 0 0 0 0 0 0 0 0 0 0 0 0 0 0 0 0 0 0 0 0 0 0 0 0 0 0 0 366 366 366 365 366 367 366 367 367 369 367 369 369 368 367 367 367 367 366 367 366 366 368 367 369 368 366 365 366 367 366 367 366 365 366 369 370 370 369 369 367 370 368 369 367 368 368 367 369 369 367 368 368 368 367 366 366 367 365 365 365 365 365 365 365 366 363 370 369 366 367 366 367 368 369 367 368 369 368 370 368 369 367 367 366 365 365 365 364 364 363 364 363 362 361 362 363 362 365 365 365 365 364 366 365 366 365 365 365 365 365 366 365 366 365 366 367 368 370 367 369 366 366 366 366 365 365 364 365 363 365 364 362 362 363 362 362 361 362 363 364 365 366 366 366 368 368 367 366 368 365 364 365 364 364 364 364 363 362 364 365 365 367 365 363 365 364 364 364 363 364 364 364 365 364 366 364 365 366 365 366 366 366 365 365 365 364 364 363 364 364 364 365 366 365 365 365 366 365 365 364 364 363 363 364 364 364 363 361 360 360 359 360 360 360 360 361 362 365 368 366 364 362 363 362 363 362 362 -193 -193 364 364 364 365 364 366 367 367 366 365 365 364 364 363 363 363 0 0 0 0 0</data></disparity>
</opencv_storage>
