<?xml version="1.0"?>
<opencv_storage>
<gps_time_stamp>26130</gps_time_stamp>
<gps_x>-5.4822559356689453e+000</gps_x>
<gps_y>8.0723166465759277e-001</gps_y>
<gps_z>-1.3564721345901489e+000</gps_z>
<image_time_stamp>14064</image_time_stamp>
<disparity type_id="opencv-matrix">
  <rows>86</rows>
  <cols>320</cols>
  <dt>s</dt>
  <data>
    0 0 0 0 0 0 0 0 0 0 0 0 0 0 0 0 0 0 0 0 0 0 0 0 0 0 0 0 0 0 0 0 0 0 0 0 0 0 0 0 0 0 0 0 0 0 0 0 0 0 0 0 0 0 0 0 0 0 0 0 0 0 0 0 0 0 0 0 0 62 62 62 62 62 61 63 64 63 64 64 64 66 64 64 63 62 64 62 62 62 60 61 62 66 63 64 65 63 64 63 63 63 62 63 62 62 66 64 69 70 68 69 65 64 64 63 63 62 61 61 59 61 61 60 62 64 64 66 64 63 63 63 62 62 61 62 60 62 64 64 65 65 68 63 64 64 62 62 62 62 61 59 64 60 61 64 66 66 67 66 66 64 64 65 63 62 62 60 60 60 60 60 65 63 63 64 63 64 63 63 63 61 63 63 61 62 61 63 66 63 64 63 62 62 62 62 62 61 62 65 63 65 64 64 64 64 64 65 62 63 62 63 63 62 61 62 60 62 62 61 61 62 63 62 63 67 70 71 72 73 77 75 79 77 78 77 78 78 77 76 78 73 73 71 68 66 64 64 65 62 64 63 65 66 67 70 72 74 82 88 90 96 98 98 100 100 100 100 101 100 -209 90 -193 75 83 -209 -209 -193 -209 -209 -177 -177 -193 -209 251 260 -193 -209 -209 -209 -209 -209 -209 -209 -209 -209 -193 419 423 418 418 418 -177 -177 -193 -209 -177 -177 -177 531 531 531 533 533 528 0 0 0 0 0
    0 0 0 0 0 0 0 0 0 0 0 0 0 0 0 0 0 0 0 0 0 0 0 0 0 0 0 0 0 0 0 0 0 0 0 0 0 0 0 0 0 0 0 0 0 0 0 0 0 0 0 0 0 0 0 0 0 0 0 0 0 0 0 0 0 0 0 0 0 62 61 61 61 61 61 63 65 63 64 64 64 65 63 64 63 61 63 61 61 61 61 62 63 67 64 65 66 64 65 64 64 64 62 64 62 63 66 65 69 71 68 69 64 64 64 64 63 63 62 62 60 62 62 62 63 64 65 66 64 64 64 64 63 63 62 62 62 63 65 66 66 67 69 65 66 65 63 63 63 62 62 60 64 61 62 67 68 68 68 67 66 66 65 65 64 63 62 61 60 61 61 60 67 63 64 65 64 64 63 63 64 62 64 64 63 63 63 65 67 64 65 64 63 63 63 63 63 62 63 66 63 66 64 64 64 64 65 65 63 65 63 65 64 65 63 63 61 63 63 62 63 64 65 64 64 68 70 71 72 72 76 75 78 77 77 77 77 77 77 76 78 72 72 71 69 68 66 66 68 63 66 64 66 67 68 71 71 72 78 87 89 97 99 100 101 102 102 101 102 102 -209 92 -193 -209 83 -209 -209 -209 -193 -209 -177 -177 -177 -193 250 259 -193 -177 -209 -209 -209 -209 -209 -209 -209 -209 418 418 422 417 416 416 -177 -177 -193 -193 -193 -177 -177 532 532 531 533 534 531 0 0 0 0 0
    0 0 0 0 0 0 0 0 0 0 0 0 0 0 0 0 0 0 0 0 0 0 0 0 0 0 0 0 0 0 0 0 0 0 0 0 0 0 0 0 0 0 0 0 0 0 0 0 0 0 0 0 0 0 0 0 0 0 0 0 0 0 0 0 0 0 0 0 0 62 62 62 61 62 61 64 65 64 65 64 64 65 64 64 63 61 63 61 61 61 61 62 64 68 65 65 66 65 66 64 65 64 62 65 63 63 67 66 69 70 67 68 64 64 64 64 64 63 62 62 60 62 63 63 63 63 66 66 65 64 64 64 64 64 64 63 63 65 67 68 68 68 69 66 67 66 64 64 63 63 63 60 66 62 63 69 70 68 68 68 67 66 65 65 64 63 63 62 61 62 63 62 68 64 65 66 65 65 64 64 65 62 65 65 64 64 65 66 68 65 66 66 64 64 64 65 65 64 64 67 63 66 64 65 64 65 65 66 64 66 64 66 65 67 65 63 63 64 65 64 64 65 66 66 66 69 70 71 72 71 76 75 78 76 77 76 77 77 77 75 77 72 72 71 70 69 67 68 68 65 66 64 66 67 68 71 71 72 78 86 88 97 100 100 102 102 102 102 102 103 103 94 94 -193 84 -177 -209 -177 -177 -193 -177 -177 -177 -209 250 258 -193 -209 -209 -209 -193 -209 -209 -209 -177 -209 417 417 422 416 415 414 -177 -193 -209 -193 -193 -177 -177 532 532 531 533 534 532 0 0 0 0 0
    0 0 0 0 0 0 0 0 0 0 0 0 0 0 0 0 0 0 0 0 0 0 0 0 0 0 0 0 0 0 0 0 0 0 0 0 0 0 0 0 0 0 0 0 0 0 0 0 0 0 0 0 0 0 0 0 0 0 0 0 0 0 0 0 0 0 0 0 0 64 64 65 64 65 65 66 67 65 66 66 65 66 65 65 64 61 64 61 61 62 62 62 64 68 65 66 67 65 66 65 65 64 62 65 64 64 68 67 69 70 67 67 64 64 64 63 63 63 62 63 61 63 63 64 64 64 66 66 65 65 65 65 64 64 64 64 65 67 68 69 69 69 70 67 67 67 65 65 64 64 64 60 67 64 65 70 70 68 68 68 67 66 66 66 65 63 64 64 62 63 65 64 69 65 65 66 65 65 64 65 65 63 65 65 64 64 66 66 68 65 66 67 65 66 66 66 66 65 65 67 63 67 64 66 64 65 66 66 65 67 66 68 67 69 68 66 66 66 66 65 65 66 68 68 67 70 71 71 73 72 76 75 77 76 76 76 76 76 76 75 75 72 72 71 71 70 68 69 69 67 68 67 68 68 69 71 72 73 80 86 88 98 100 101 102 102 102 102 102 103 101 94 94 92 85 -177 -177 -193 -193 -209 -209 -209 -209 -193 250 258 -209 -209 -209 -177 -177 -209 -209 -209 -209 -209 417 415 421 414 413 413 -193 -193 -177 -209 -193 -177 -177 532 532 532 533 534 533 0 0 0 0 0
    0 0 0 0 0 0 0 0 0 0 0 0 0 0 0 0 0 0 0 0 0 0 0 0 0 0 0 0 0 0 0 0 0 0 0 0 0 0 0 0 0 0 0 0 0 0 0 0 0 0 0 0 0 0 0 0 0 0 0 0 0 0 0 0 0 0 0 0 0 65 66 68 67 68 67 68 69 67 67 67 66 67 66 66 66 63 66 63 64 66 65 66 67 69 66 67 67 66 66 65 65 65 63 66 66 66 69 69 70 70 68 68 66 66 65 64 63 63 62 63 61 63 64 65 64 65 67 66 66 66 66 65 65 66 65 65 66 67 68 69 69 69 70 67 68 67 66 66 65 66 65 61 67 66 67 71 71 69 68 68 68 67 66 66 66 64 65 65 63 65 67 65 70 65 66 67 66 65 65 65 66 63 66 66 64 65 65 65 68 65 67 67 65 66 66 66 67 66 66 68 64 67 65 66 65 66 66 67 66 67 66 69 67 70 68 68 67 67 68 67 66 68 70 70 69 71 72 72 74 72 75 74 76 75 75 75 75 75 76 74 75 72 72 71 71 70 68 69 69 68 70 70 70 70 71 72 72 74 82 87 88 99 101 101 102 102 101 101 101 103 99 93 93 91 86 101 -177 -209 -209 -209 -177 -209 -209 -209 250 257 -209 -209 -209 -193 -177 -209 -209 -209 -209 -209 413 412 419 -193 -193 -193 -193 -177 -177 -209 533 532 532 532 532 532 533 534 534 0 0 0 0 0
    0 0 0 0 0 0 0 0 0 0 0 0 0 0 0 0 0 0 0 0 0 0 0 0 0 0 0 0 0 0 0 0 0 0 0 0 0 0 0 0 0 0 0 0 0 0 0 0 0 0 0 0 0 0 0 0 0 0 0 0 0 0 0 0 0 0 0 0 0 67 68 69 68 69 69 69 69 68 68 67 67 68 67 67 67 65 68 66 68 69 69 70 69 70 68 68 68 67 67 66 66 66 64 68 68 68 70 71 71 71 70 69 68 68 67 66 64 64 63 63 62 63 65 67 65 66 68 67 67 67 67 66 66 67 66 66 67 68 68 69 69 69 71 68 68 68 67 67 67 67 67 62 69 68 69 71 71 69 69 69 68 68 67 67 67 65 67 67 65 67 70 68 70 66 67 67 66 66 66 66 66 64 66 67 65 66 66 66 68 66 68 68 66 67 67 68 68 68 67 68 65 68 65 67 65 67 66 67 66 68 67 69 68 70 69 69 69 69 70 69 69 71 72 72 71 72 74 73 75 73 75 74 76 75 75 75 75 75 75 74 74 72 72 71 72 71 69 70 71 70 73 74 74 74 73 73 72 74 82 -209 88 99 101 102 102 102 101 101 100 103 93 91 91 89 85 99 110 -209 -209 -209 -177 -177 -177 -209 -209 -193 -193 -209 -209 -209 339 -209 -209 -209 -209 -209 -193 -193 415 -177 -177 -193 -193 -177 -177 -193 -193 532 532 532 532 532 533 534 534 0 0 0 0 0
    0 0 0 0 0 0 0 0 0 0 0 0 0 0 0 0 0 0 0 0 0 0 0 0 0 0 0 0 0 0 0 0 0 0 0 0 0 0 0 0 0 0 0 0 0 0 0 0 0 0 0 0 0 0 0 0 0 0 0 0 0 0 0 0 0 0 0 0 0 68 69 69 69 69 69 70 70 68 68 68 68 68 68 68 68 67 69 69 70 71 71 71 71 71 69 69 69 68 67 66 66 67 64 71 71 69 71 72 71 71 70 70 69 69 69 68 66 66 65 65 64 65 66 68 67 68 69 68 67 68 68 67 67 67 67 67 68 69 69 70 -193 70 71 69 69 69 68 68 68 68 68 64 70 69 71 71 71 69 69 70 69 69 68 68 68 66 68 69 67 69 72 71 71 68 68 68 67 67 66 67 67 66 67 67 66 68 67 68 69 68 69 70 68 69 69 69 70 70 69 69 67 69 67 68 66 67 67 68 67 68 68 70 69 71 70 71 71 71 72 72 70 72 73 73 73 73 74 73 75 73 75 75 76 75 75 75 75 75 75 74 74 72 72 72 73 72 71 72 73 73 75 76 76 75 74 74 73 73 82 -209 88 99 100 101 101 102 101 100 98 102 88 89 89 85 84 96 109 -209 -209 -209 -177 -177 -193 -193 -209 -193 -209 -209 -209 -209 -177 347 -209 -209 -209 -209 -193 -193 -193 -177 -177 -193 -193 -177 -177 -177 -193 532 532 533 533 533 533 535 535 0 0 0 0 0
    0 0 0 0 0 0 0 0 0 0 0 0 0 0 0 0 0 0 0 0 0 0 0 0 0 0 0 0 0 0 0 0 0 0 0 0 0 0 0 0 0 0 0 0 0 0 0 0 0 0 0 0 0 0 0 0 0 0 0 0 0 0 0 0 0 0 0 0 0 68 70 70 69 70 70 70 70 69 69 68 69 69 69 69 69 68 70 70 71 -193 -193 -193 72 72 70 70 70 68 67 66 66 67 64 72 71 69 71 72 71 71 70 70 69 69 69 68 66 66 65 66 64 65 67 68 67 69 70 68 68 69 68 68 68 68 68 67 69 69 69 70 -193 -193 71 69 69 69 69 69 69 70 69 65 70 69 71 71 71 70 69 70 70 70 69 69 69 68 70 70 69 70 73 73 72 70 69 69 67 68 67 68 68 67 68 68 68 69 68 69 69 71 71 72 70 70 70 71 71 71 70 70 68 70 68 69 66 68 67 68 69 69 69 71 70 72 72 73 73 73 74 74 72 74 74 74 73 74 74 73 75 73 74 75 75 75 75 75 75 75 75 74 74 73 73 73 74 74 73 74 74 74 76 77 76 76 75 76 75 75 84 -209 89 100 99 99 100 100 99 98 96 100 87 88 87 80 82 91 -209 -209 -209 -193 -177 -177 -177 -193 -177 -177 -177 -193 -209 -209 -177 347 -209 -209 -209 -209 -193 -193 -177 -177 -177 -177 -193 -177 -177 -177 -193 -209 533 534 534 534 534 536 -193 0 0 0 0 0
    0 0 0 0 0 0 0 0 0 0 0 0 0 0 0 0 0 0 0 0 0 0 0 0 0 0 0 0 0 0 0 0 0 0 0 0 0 0 0 0 0 0 0 0 0 0 0 0 0 0 0 0 0 0 0 0 0 0 0 0 0 0 0 0 0 0 0 0 0 69 70 70 69 70 70 70 70 69 69 69 70 70 70 70 70 70 71 72 -193 -193 -193 -193 -193 72 70 70 70 69 67 66 67 67 66 72 71 70 71 72 71 71 70 70 69 69 69 68 65 66 66 66 65 66 67 69 68 70 71 69 69 70 69 68 69 68 68 67 68 68 68 69 -193 70 71 70 70 70 70 70 70 71 70 66 70 69 71 71 71 70 69 70 70 70 70 70 70 69 71 71 71 71 74 74 73 71 70 70 68 69 68 69 69 68 69 69 69 70 70 70 71 72 72 73 71 71 71 71 71 72 71 70 70 71 70 70 68 69 68 69 70 69 69 71 71 72 73 74 75 74 75 75 73 75 75 75 74 74 73 73 75 73 74 75 75 74 75 75 75 74 75 74 74 74 74 74 75 76 74 75 76 75 76 76 76 76 75 76 76 77 85 88 89 100 97 98 99 99 98 97 95 98 86 86 85 78 80 87 -209 -209 -209 -193 -177 -177 -177 -193 -177 -177 -177 -177 -209 -209 -177 -193 -209 -209 -209 -209 -193 -193 -177 -177 -177 -177 -177 -177 -177 -177 162 -193 -193 535 535 535 536 536 537 0 0 0 0 0
    0 0 0 0 0 0 0 0 0 0 0 0 0 0 0 0 0 0 0 0 0 0 0 0 0 0 0 0 0 0 0 0 0 0 0 0 0 0 0 0 0 0 0 0 0 0 0 0 0 0 0 0 0 0 0 0 0 0 0 0 0 0 0 0 0 0 0 0 0 71 71 71 70 70 70 70 70 70 70 70 71 71 71 71 72 72 73 73 73 74 -193 73 -193 72 71 71 71 69 66 66 67 68 68 73 72 71 72 72 72 72 71 71 70 70 70 70 67 68 68 68 67 68 68 70 70 71 72 70 70 71 70 69 70 69 68 68 69 69 69 70 -193 71 72 71 71 71 71 71 71 72 71 68 72 71 72 72 71 71 70 71 71 71 71 71 71 71 72 72 73 73 75 75 74 71 70 71 69 70 69 69 69 69 70 70 70 71 70 71 71 73 73 72 71 72 72 72 72 72 71 71 71 72 71 71 69 70 68 69 71 70 71 72 71 73 74 75 76 75 76 76 75 77 76 76 74 75 73 72 75 73 74 75 75 74 74 74 74 74 75 74 74 74 75 75 76 77 75 77 77 77 78 77 78 77 76 78 77 80 86 89 89 100 96 96 98 97 97 96 94 96 86 86 84 78 79 85 -209 -209 -209 -209 -177 -177 -193 -209 -209 -209 -177 -177 -209 -209 -177 -193 -193 -209 -209 -209 -193 -193 -177 -177 -177 -177 -177 -177 -177 -177 166 166 -209 536 536 536 537 537 537 0 0 0 0 0
    0 0 0 0 0 0 0 0 0 0 0 0 0 0 0 0 0 0 0 0 0 0 0 0 0 0 0 0 0 0 0 0 0 0 0 0 0 0 0 0 0 0 0 0 0 0 0 0 0 0 0 0 0 0 0 0 0 0 0 0 0 0 0 0 0 0 0 0 0 74 74 72 72 71 71 71 71 71 71 71 72 73 73 73 74 74 74 75 74 75 74 74 73 73 72 72 71 70 66 68 68 70 71 75 76 74 73 74 73 73 72 72 71 71 71 71 68 70 71 70 69 71 71 -209 -193 74 74 72 73 73 72 71 71 71 70 70 71 70 70 72 73 72 73 72 72 72 72 72 72 73 73 71 73 73 74 73 72 72 71 71 71 71 72 72 72 72 73 73 74 74 76 76 74 73 71 71 69 70 69 70 70 70 71 71 71 72 71 73 73 74 73 72 71 72 72 72 72 72 72 72 72 72 72 72 70 70 69 70 71 71 71 72 72 74 74 76 76 75 76 76 75 77 76 76 75 75 73 73 75 74 74 76 74 74 74 74 74 74 74 74 73 74 75 75 76 77 76 77 78 78 79 78 80 78 78 79 79 82 87 91 90 100 95 96 97 96 96 95 94 95 87 86 84 78 79 85 -209 -209 -209 -209 -177 -193 -193 -193 -177 -177 -177 -177 -193 -193 -177 -177 -193 -209 -193 -209 -193 -193 -177 -177 -177 -177 -177 -177 -177 -177 168 -193 -209 537 537 537 537 537 538 0 0 0 0 0
    0 0 0 0 0 0 0 0 0 0 0 0 0 0 0 0 0 0 0 0 0 0 0 0 0 0 0 0 0 0 0 0 0 0 0 0 0 0 0 0 0 0 0 0 0 0 0 0 0 0 0 0 0 0 0 0 0 0 0 0 0 0 0 0 0 0 0 0 0 75 75 73 73 72 72 71 72 72 73 73 74 75 75 75 76 75 75 76 75 76 74 75 74 73 73 73 72 72 67 71 70 72 73 77 78 75 74 75 74 74 73 74 73 72 71 71 70 -193 72 71 70 73 -193 -193 75 76 75 74 74 75 74 73 73 73 71 72 72 71 -209 -209 74 72 74 73 73 73 73 74 73 74 74 73 74 74 74 73 72 73 71 71 72 72 73 73 73 74 74 75 75 75 76 76 75 74 72 72 72 72 71 71 71 71 72 73 72 73 72 74 74 74 74 73 72 73 73 74 73 73 73 73 73 74 73 73 71 71 70 70 72 71 72 72 73 74 74 75 76 75 76 76 76 78 77 76 76 76 74 74 76 75 75 76 75 74 74 75 74 74 74 74 73 75 76 76 77 78 77 78 78 78 79 79 80 78 78 78 79 82 88 91 91 101 95 95 97 96 95 94 94 94 87 86 84 79 79 84 88 -209 -209 -193 -209 -209 -177 -177 -177 -177 -177 -177 -177 -193 -177 -177 -193 -209 -177 -193 -193 -193 -177 -177 -177 -177 -177 -177 -177 -177 171 -193 -209 538 538 538 538 538 539 0 0 0 0 0
    0 0 0 0 0 0 0 0 0 0 0 0 0 0 0 0 0 0 0 0 0 0 0 0 0 0 0 0 0 0 0 0 0 0 0 0 0 0 0 0 0 0 0 0 0 0 0 0 0 0 0 0 0 0 0 0 0 0 0 0 0 0 0 0 0 0 0 0 0 76 76 74 74 73 73 72 73 73 74 74 76 77 76 75 77 76 76 76 75 76 75 75 75 74 74 74 73 74 70 75 73 75 77 80 81 77 75 76 75 75 74 74 73 72 72 72 71 -193 72 72 71 73 73 78 76 77 76 76 76 76 75 75 74 75 74 75 75 75 -209 -193 76 74 75 75 74 74 74 75 74 74 74 74 74 75 74 74 73 74 73 73 73 73 74 75 75 75 74 75 76 75 76 75 75 75 75 75 75 76 74 73 73 73 74 74 73 73 73 74 74 75 75 73 73 73 73 75 73 73 74 73 74 75 74 74 73 73 71 71 74 72 72 73 73 74 74 76 76 75 77 77 76 78 77 77 77 78 75 75 75 75 74 76 74 74 74 75 75 75 75 75 74 76 77 76 78 78 78 78 79 78 79 79 80 78 78 77 78 82 89 91 91 101 95 95 97 96 95 94 94 94 87 86 84 79 79 84 86 -177 -177 -177 -177 -177 -177 -177 -177 -177 -177 -177 -177 -209 -177 -177 -193 -209 -177 -209 -193 -193 -177 -177 -177 -177 -177 -177 -177 -177 178 -209 -193 -193 539 539 539 538 540 0 0 0 0 0
    0 0 0 0 0 0 0 0 0 0 0 0 0 0 0 0 0 0 0 0 0 0 0 0 0 0 0 0 0 0 0 0 0 0 0 0 0 0 0 0 0 0 0 0 0 0 0 0 0 0 0 0 0 0 0 0 0 0 0 0 0 0 0 0 0 0 0 0 0 76 76 75 75 73 74 73 74 74 76 76 77 78 77 77 78 77 77 77 76 77 76 76 76 75 75 74 74 75 73 77 75 76 78 81 82 78 76 77 76 76 75 75 74 72 72 72 72 72 71 72 71 74 74 79 77 77 77 77 77 77 76 77 75 76 76 77 78 80 -193 -193 77 76 76 78 75 75 75 75 75 75 75 75 74 76 75 75 74 76 74 74 75 74 76 75 75 76 75 76 76 76 77 75 76 76 76 75 75 76 75 74 74 74 74 74 74 74 73 75 75 75 75 74 73 73 73 74 73 74 74 74 75 75 76 75 74 75 73 73 76 73 73 74 74 75 75 76 76 76 77 77 77 79 77 78 79 80 76 76 77 76 75 79 77 77 77 77 77 77 77 78 76 77 78 77 79 79 79 79 80 79 80 79 80 79 79 78 79 83 89 90 91 100 95 95 97 96 95 94 94 94 88 87 85 79 79 83 85 -193 -177 -177 -177 -177 -177 -177 -177 -177 -177 -177 -177 -209 -177 -193 -193 -209 -177 -193 -193 -193 -177 -177 -177 -177 -177 -177 -177 -177 -193 -193 -193 -193 541 540 541 539 541 0 0 0 0 0
    0 0 0 0 0 0 0 0 0 0 0 0 0 0 0 0 0 0 0 0 0 0 0 0 0 0 0 0 0 0 0 0 0 0 0 0 0 0 0 0 0 0 0 0 0 0 0 0 0 0 0 0 0 0 0 0 0 0 0 0 0 0 0 0 0 0 0 0 0 76 76 76 76 74 75 73 75 76 78 77 79 79 79 78 79 77 78 78 77 77 76 76 76 75 76 75 75 76 74 78 76 76 78 80 81 78 77 77 77 77 76 76 74 73 72 73 72 71 71 72 71 74 74 79 77 77 77 77 77 77 77 77 75 77 76 77 78 80 81 78 77 77 76 80 76 76 76 76 76 76 76 76 75 77 76 76 75 76 75 75 75 75 77 76 76 76 76 76 77 76 77 74 76 76 76 76 76 77 76 75 75 75 75 75 75 75 74 75 75 76 75 74 73 73 73 74 74 74 75 74 76 76 77 76 75 76 75 74 78 74 74 75 74 76 76 76 76 76 77 78 77 79 77 78 79 81 76 77 78 77 76 81 79 78 79 78 78 79 79 79 77 78 79 78 80 80 80 80 80 80 80 80 81 79 80 78 81 84 89 90 91 100 94 95 97 96 95 94 95 95 89 88 87 80 80 83 85 -193 -177 -177 -193 -209 -177 -177 -177 -177 -177 -209 -177 -209 -177 -193 -209 -177 -177 -193 -193 -193 -177 -177 -177 -177 -177 -177 -177 -177 -209 -177 -193 -193 542 542 542 540 542 0 0 0 0 0
    0 0 0 0 0 0 0 0 0 0 0 0 0 0 0 0 0 0 0 0 0 0 0 0 0 0 0 0 0 0 0 0 0 0 0 0 0 0 0 0 0 0 0 0 0 0 0 0 0 0 0 0 0 0 0 0 0 0 0 0 0 0 0 0 0 0 0 0 0 76 77 76 76 75 77 75 77 78 80 80 80 80 80 79 80 78 79 78 77 78 77 77 77 76 76 76 75 76 75 78 76 76 77 80 81 78 77 78 77 78 77 76 75 73 72 73 72 72 71 72 72 75 74 80 77 77 77 78 78 78 77 77 75 77 77 78 78 79 81 78 77 78 77 81 76 77 77 77 77 77 77 77 75 77 76 76 76 76 76 76 76 75 78 77 76 77 77 77 77 77 78 75 78 78 77 76 77 78 77 77 76 77 76 75 76 76 75 76 76 76 75 75 74 74 73 75 74 74 75 74 77 77 77 77 76 77 75 75 79 74 75 75 75 77 76 77 77 77 78 78 78 79 77 79 80 82 76 78 80 78 78 82 80 80 80 79 79 79 79 80 78 78 80 79 82 81 81 80 81 81 81 80 81 80 81 80 82 85 89 89 90 99 94 95 97 97 95 95 96 95 90 89 89 81 80 84 86 86 -209 -209 -209 -209 -209 -209 -209 -209 -209 -209 -209 -209 -177 -193 -193 401 -177 -177 -193 389 -177 -177 -177 -177 -177 -177 -177 -177 205 -177 -193 -193 543 543 543 541 542 0 0 0 0 0
    0 0 0 0 0 0 0 0 0 0 0 0 0 0 0 0 0 0 0 0 0 0 0 0 0 0 0 0 0 0 0 0 0 0 0 0 0 0 0 0 0 0 0 0 0 0 0 0 0 0 0 0 0 0 0 0 0 0 0 0 0 0 0 0 0 0 0 0 0 77 77 77 77 75 79 77 80 82 83 82 82 81 81 80 81 79 80 79 78 78 78 78 78 77 78 77 76 77 77 78 76 76 77 80 81 79 78 79 78 79 78 77 75 74 74 74 73 72 72 73 73 76 75 80 77 77 78 78 79 79 78 79 75 79 80 80 80 82 83 80 78 79 78 82 77 78 78 78 78 78 78 77 75 77 76 76 76 76 76 76 75 75 79 77 77 77 77 77 77 78 78 75 79 79 79 77 78 78 77 77 77 78 76 76 77 77 76 77 76 76 75 75 74 74 74 75 75 75 76 75 79 78 78 78 77 78 77 76 80 75 75 75 74 78 76 77 77 78 78 78 79 80 77 80 81 82 77 81 82 80 80 83 82 81 81 80 80 80 80 81 79 79 81 79 83 81 81 81 81 81 81 80 82 81 81 81 83 85 89 89 90 99 94 95 97 97 96 95 96 96 90 91 90 82 80 84 86 86 -209 -209 -209 -209 -193 -209 -209 -209 -209 -209 -209 -209 -209 -209 -193 401 -209 -177 384 387 -177 -177 -177 -177 -177 -177 -177 -177 -209 -177 -193 -193 543 543 543 540 542 0 0 0 0 0
    0 0 0 0 0 0 0 0 0 0 0 0 0 0 0 0 0 0 0 0 0 0 0 0 0 0 0 0 0 0 0 0 0 0 0 0 0 0 0 0 0 0 0 0 0 0 0 0 0 0 0 0 0 0 0 0 0 0 0 0 0 0 0 0 0 0 0 0 0 78 78 78 78 76 80 78 82 84 84 84 83 82 82 81 82 80 80 79 79 79 80 79 80 77 79 78 77 79 79 78 78 77 79 81 82 79 79 79 79 80 78 78 76 75 75 75 74 74 -193 74 74 77 77 81 77 78 78 79 80 80 79 80 77 82 83 82 83 83 84 82 79 82 81 83 79 80 80 79 79 79 79 78 76 78 76 76 76 76 76 76 75 75 79 77 77 77 78 77 78 78 79 76 80 79 79 77 78 78 77 77 77 78 77 77 77 78 77 77 77 76 75 76 75 75 75 77 76 77 77 76 80 79 78 78 78 79 78 78 81 76 76 75 75 79 76 77 77 79 78 79 79 80 78 81 82 83 78 84 84 83 82 85 83 82 83 81 82 81 81 82 79 80 81 78 82 80 81 81 81 82 82 82 82 82 82 82 84 86 89 89 90 99 94 95 97 97 96 95 96 96 90 92 91 83 80 84 86 -193 164 180 -209 -209 -209 -209 -209 -209 -209 -209 -209 -209 -209 -209 -193 401 -209 -177 384 387 -177 -177 -177 -177 -177 -177 -193 -177 -209 -177 -193 -193 -193 543 543 540 542 0 0 0 0 0
    0 0 0 0 0 0 0 0 0 0 0 0 0 0 0 0 0 0 0 0 0 0 0 0 0 0 0 0 0 0 0 0 0 0 0 0 0 0 0 0 0 0 0 0 0 0 0 0 0 0 0 0 0 0 0 0 0 0 0 0 0 0 0 0 0 0 0 0 0 78 79 78 78 76 81 79 82 84 85 84 82 82 82 82 83 80 81 79 79 80 81 80 81 78 81 79 79 80 81 80 80 78 80 82 82 80 79 79 79 79 79 78 76 76 76 77 76 75 -193 76 76 79 79 83 79 79 79 80 81 81 80 81 77 84 84 84 84 84 85 83 81 83 83 84 80 81 81 80 80 80 80 78 77 79 77 76 78 78 78 78 77 77 81 78 78 78 79 78 78 79 79 77 81 79 79 78 78 78 78 77 77 78 77 77 78 78 77 77 78 77 76 78 78 77 77 79 80 79 79 78 82 80 79 79 79 80 80 79 81 76 77 76 75 80 77 76 77 80 79 79 80 80 78 82 83 84 79 85 85 84 84 86 85 84 83 83 83 82 83 83 82 82 82 81 84 80 83 81 82 82 83 83 83 82 83 82 85 87 90 90 91 98 94 95 97 97 95 95 96 96 90 94 93 86 82 85 88 -209 -209 -177 -209 -177 -209 -193 -177 -209 -209 -209 -209 -209 -209 -209 -209 402 -209 386 385 387 -177 -177 -177 -177 -177 -177 -193 -177 -209 -193 -193 -193 -193 543 543 541 544 0 0 0 0 0
    0 0 0 0 0 0 0 0 0 0 0 0 0 0 0 0 0 0 0 0 0 0 0 0 0 0 0 0 0 0 0 0 0 0 0 0 0 0 0 0 0 0 0 0 0 0 0 0 0 0 0 0 0 0 0 0 0 0 0 0 0 0 0 0 0 0 0 0 0 78 79 78 78 76 81 80 83 84 85 84 83 83 83 82 83 81 81 80 79 81 82 81 82 80 82 81 81 82 83 81 82 80 82 83 82 80 80 80 80 80 79 78 77 77 78 79 77 -193 -193 79 79 83 82 84 80 81 81 81 82 81 80 81 78 84 84 84 84 85 85 84 82 84 84 84 82 83 82 81 81 81 81 79 78 79 77 77 79 79 80 80 78 78 82 79 80 79 80 79 79 80 80 78 81 79 80 79 79 79 79 79 78 79 78 78 79 79 78 78 79 78 77 80 79 78 79 81 82 81 81 80 82 80 80 80 80 81 80 80 81 77 79 78 77 83 77 77 78 82 80 80 81 81 79 83 84 84 81 85 86 85 85 86 85 85 84 84 85 84 84 84 83 83 83 84 85 80 84 81 83 83 84 83 83 83 83 83 85 87 89 90 90 98 94 95 96 96 95 95 96 97 91 96 95 89 84 87 91 -209 -209 176 188 -177 -209 -193 -177 -177 -209 -209 -209 -209 -209 -209 -209 -209 -209 384 384 387 -177 -177 -177 -177 -177 -177 -177 -177 -209 -193 -193 -193 -193 544 544 542 545 0 0 0 0 0
    0 0 0 0 0 0 0 0 0 0 0 0 0 0 0 0 0 0 0 0 0 0 0 0 0 0 0 0 0 0 0 0 0 0 0 0 0 0 0 0 0 0 0 0 0 0 0 0 0 0 0 0 0 0 0 0 0 0 0 0 0 0 0 0 0 0 0 0 0 78 79 78 77 76 81 81 83 84 85 85 83 83 83 83 83 82 82 81 80 82 83 82 83 82 84 84 85 85 85 83 85 82 83 84 83 81 81 81 81 80 80 79 77 79 81 81 80 80 82 83 83 85 84 85 82 82 82 82 82 82 80 82 79 84 84 84 84 84 85 84 83 85 85 85 83 84 83 82 82 82 82 80 80 81 79 79 81 80 82 81 80 79 82 80 81 80 81 80 80 81 81 80 83 80 82 81 81 81 81 80 80 80 79 79 81 80 79 80 80 79 79 81 80 78 79 82 82 82 82 80 82 81 80 81 81 82 82 81 83 80 84 83 83 86 79 80 81 83 81 81 83 82 80 83 84 84 82 86 86 85 86 87 86 85 84 85 86 85 85 85 84 85 85 85 86 83 85 83 85 85 85 85 84 84 84 84 86 88 89 89 90 97 94 94 96 96 95 95 97 97 91 97 96 89 85 87 94 -209 -209 -209 -177 -177 -177 -193 -177 -177 -209 -209 -209 -209 -209 365 -209 -209 -209 382 382 387 -177 -177 -177 -177 -177 -177 -177 -177 -209 -193 -193 -193 -193 544 545 543 545 0 0 0 0 0
    0 0 0 0 0 0 0 0 0 0 0 0 0 0 0 0 0 0 0 0 0 0 0 0 0 0 0 0 0 0 0 0 0 0 0 0 0 0 0 0 0 0 0 0 0 0 0 0 0 0 0 0 0 0 0 0 0 0 0 0 0 0 0 0 0 0 0 0 0 79 79 78 77 76 81 81 84 84 85 85 83 84 84 84 84 83 84 82 81 84 84 83 84 84 86 86 87 87 87 85 86 84 84 84 83 82 82 81 82 80 81 79 78 80 82 82 81 82 84 85 85 86 85 85 83 82 82 82 82 82 80 82 80 84 84 84 84 84 85 85 84 85 86 85 83 84 84 83 83 83 83 80 82 82 80 80 82 82 83 82 81 80 83 81 82 81 82 81 81 82 83 83 84 82 84 84 83 83 82 81 81 81 80 80 82 81 80 81 81 80 80 82 81 78 80 82 82 82 82 80 83 81 81 81 81 83 83 83 84 82 85 84 84 86 80 81 82 84 81 81 83 82 80 83 84 85 83 86 87 86 87 88 87 86 85 85 87 85 86 86 85 86 86 87 88 86 88 86 87 88 88 86 85 85 85 85 87 88 90 89 90 97 94 94 96 96 95 96 97 97 91 98 97 90 86 88 99 -193 -193 -209 -209 -177 -193 -193 -177 -177 -209 -209 -209 -193 -209 364 373 -209 -209 382 381 387 -193 -193 -177 -177 -177 -177 -193 -193 -209 -193 -193 -193 -193 544 544 542 545 0 0 0 0 0
    0 0 0 0 0 0 0 0 0 0 0 0 0 0 0 0 0 0 0 0 0 0 0 0 0 0 0 0 0 0 0 0 0 0 0 0 0 0 0 0 0 0 0 0 0 0 0 0 0 0 0 0 0 0 0 0 0 0 0 0 0 0 0 0 0 0 0 0 0 80 80 78 77 76 81 82 85 84 85 85 84 85 85 85 85 84 85 83 83 85 85 84 85 85 87 87 88 87 88 85 86 84 84 84 83 83 83 82 83 80 81 80 80 82 83 83 82 84 86 -193 86 87 85 85 84 83 83 83 83 83 80 83 81 85 85 85 85 85 86 86 85 85 86 84 84 85 85 84 84 83 84 81 84 83 82 82 83 83 84 83 82 80 83 82 83 81 82 82 82 83 84 84 85 84 86 86 84 84 83 82 82 82 81 81 83 82 81 82 82 82 82 83 82 79 81 84 84 83 83 82 84 82 82 82 82 84 84 84 85 83 85 85 85 86 80 82 82 83 81 81 83 82 80 83 84 84 82 86 86 85 87 88 87 86 86 86 87 85 86 86 86 87 87 88 89 88 90 90 90 93 91 88 86 86 86 87 88 89 90 90 91 98 94 95 97 96 96 97 98 98 91 98 97 89 87 90 101 -193 -177 -193 -209 -177 -193 -193 -177 -193 -209 -209 -209 347 -209 -193 372 -193 -209 380 380 387 379 -193 -193 -177 -177 -177 -193 -193 -209 -193 -193 -193 -193 543 543 541 544 0 0 0 0 0
    0 0 0 0 0 0 0 0 0 0 0 0 0 0 0 0 0 0 0 0 0 0 0 0 0 0 0 0 0 0 0 0 0 0 0 0 0 0 0 0 0 0 0 0 0 0 0 0 0 0 0 0 0 0 0 0 0 0 0 0 0 0 0 0 0 0 0 0 0 83 82 78 76 76 81 -193 -193 84 86 86 84 85 86 85 85 85 85 84 84 85 85 85 86 86 88 88 88 87 89 86 87 85 85 85 84 84 84 83 84 80 81 81 81 82 83 83 82 84 86 86 86 87 85 85 84 83 83 83 83 83 80 84 83 85 86 86 86 86 87 87 86 85 86 85 85 85 85 85 85 84 85 82 85 84 83 83 84 83 84 84 83 80 82 83 83 82 82 82 82 83 85 85 84 84 86 86 84 84 83 82 82 82 82 82 84 83 82 83 83 83 83 84 83 80 83 85 85 85 85 84 85 84 82 83 83 85 85 85 86 84 86 85 85 86 80 82 82 82 81 81 84 82 81 83 84 84 83 85 86 84 87 87 87 85 87 87 88 86 87 87 87 87 88 89 90 89 91 91 92 93 92 91 87 87 87 88 89 91 91 91 92 99 95 95 97 97 96 97 98 98 91 98 96 89 87 91 101 -193 -177 -193 -193 -177 -177 -209 -177 -193 -209 -209 -209 -209 -209 368 374 -177 -209 378 378 386 379 379 -193 -177 -177 -193 -193 -193 -209 -193 -193 -193 -193 542 543 541 543 0 0 0 0 0
    0 0 0 0 0 0 0 0 0 0 0 0 0 0 0 0 0 0 0 0 0 0 0 0 0 0 0 0 0 0 0 0 0 0 0 0 0 0 0 0 0 0 0 0 0 0 0 0 0 0 0 0 0 0 0 0 0 0 0 0 0 0 0 0 0 0 0 0 0 87 86 85 77 77 83 -193 -193 84 86 86 85 86 86 86 86 85 86 84 85 86 85 85 86 87 88 89 89 88 90 88 88 86 86 86 85 85 85 84 84 80 82 82 82 83 83 83 83 85 87 87 87 87 85 85 85 84 84 83 83 84 81 84 85 86 87 87 87 87 87 87 86 85 87 85 85 86 86 85 85 85 86 83 86 85 83 84 84 84 84 84 83 80 82 83 84 82 83 83 83 84 86 86 84 83 86 86 84 84 83 83 83 83 83 82 85 83 84 84 84 84 84 84 83 81 84 85 86 86 86 86 86 85 84 85 85 87 86 86 87 85 86 86 86 86 81 82 82 82 81 82 84 82 81 83 84 84 83 85 86 84 87 88 88 86 89 89 90 87 88 88 88 88 89 90 90 89 91 91 92 92 92 92 89 89 89 89 90 92 92 91 93 99 96 96 98 97 97 98 99 99 91 99 96 89 89 92 100 -193 -177 -209 -177 -193 -177 -209 -209 -177 -209 -209 -209 -209 -177 -177 -177 -177 -193 376 376 385 379 379 380 -193 -177 -193 380 -193 -209 -193 -177 -177 543 542 543 -193 542 0 0 0 0 0
    0 0 0 0 0 0 0 0 0 0 0 0 0 0 0 0 0 0 0 0 0 0 0 0 0 0 0 0 0 0 0 0 0 0 0 0 0 0 0 0 0 0 0 0 0 0 0 0 0 0 0 0 0 0 0 0 0 0 0 0 0 0 0 0 0 0 0 0 0 90 90 89 82 82 86 -193 -193 84 86 85 84 85 86 86 86 85 86 85 86 86 86 86 86 87 89 89 89 88 90 88 89 87 86 86 86 86 86 84 85 81 83 83 84 84 84 84 84 86 88 88 88 88 86 85 86 84 85 84 84 84 81 85 86 86 88 87 87 88 88 88 87 86 87 86 86 87 86 86 86 85 86 84 87 85 84 85 85 84 84 84 83 81 82 84 84 83 83 84 83 84 86 86 84 83 87 86 85 85 84 84 84 84 84 83 86 84 84 85 85 85 85 85 84 82 85 86 87 87 88 88 87 87 87 87 87 88 87 87 87 86 -193 86 86 85 81 82 82 82 81 82 85 83 82 83 85 84 84 85 86 84 88 88 88 87 90 90 92 89 90 89 89 88 89 90 90 89 91 91 92 93 93 95 93 92 93 92 93 94 93 92 95 100 97 97 99 98 98 99 101 100 92 100 97 90 91 93 100 116 -177 -193 -193 -177 -177 -209 -209 -177 -209 -209 -209 -209 -193 -177 -177 367 369 368 375 383 378 -177 -177 -193 -177 -177 -193 -193 -209 -193 543 542 543 542 542 -193 542 0 0 0 0 0
    0 0 0 0 0 0 0 0 0 0 0 0 0 0 0 0 0 0 0 0 0 0 0 0 0 0 0 0 0 0 0 0 0 0 0 0 0 0 0 0 0 0 0 0 0 0 0 0 0 0 0 0 0 0 0 0 0 0 0 0 0 0 0 0 0 0 0 0 0 90 92 91 -209 88 90 -209 -193 86 87 86 85 86 86 86 86 86 86 85 86 87 87 86 87 87 89 90 90 89 91 89 89 87 87 87 86 86 86 85 85 82 84 84 84 84 84 84 85 86 88 88 88 88 86 86 86 85 85 85 84 84 81 86 87 86 88 89 89 90 90 91 89 87 88 87 87 87 86 86 86 86 87 85 87 86 85 86 85 84 84 84 84 82 82 84 84 83 84 84 84 85 86 86 85 84 88 87 86 86 86 85 86 86 86 84 86 84 85 86 85 85 85 85 84 82 87 87 88 89 89 89 89 89 89 88 88 89 88 88 88 -193 -193 86 86 85 81 83 83 82 82 83 86 83 83 83 85 83 84 85 85 83 88 88 89 88 90 92 93 91 91 90 90 89 89 90 91 90 91 91 92 94 94 97 97 96 96 94 95 96 95 93 96 101 98 99 100 99 99 100 102 101 92 99 96 90 92 95 101 116 -177 -177 -177 -177 -177 -209 -209 -209 -209 -209 -209 -209 -193 -209 -177 361 361 361 374 379 -177 -177 -193 -193 -177 -177 -193 -193 -209 -193 543 542 542 542 542 -193 -193 0 0 0 0 0
    0 0 0 0 0 0 0 0 0 0 0 0 0 0 0 0 0 0 0 0 0 0 0 0 0 0 0 0 0 0 0 0 0 0 0 0 0 0 0 0 0 0 0 0 0 0 0 0 0 0 0 0 0 0 0 0 0 0 0 0 0 0 0 0 0 0 0 0 0 91 93 93 -193 90 91 -209 -209 87 87 87 85 86 86 86 86 86 87 86 87 88 87 87 88 88 89 91 91 90 92 91 90 88 88 88 87 86 86 85 85 82 83 84 85 85 84 85 85 87 88 88 88 88 85 85 86 85 85 84 84 84 80 86 86 86 88 89 88 90 91 92 90 88 89 88 88 88 87 87 87 87 88 86 87 86 86 86 86 85 84 85 84 82 83 85 84 84 85 85 85 85 87 87 86 86 89 88 87 87 86 86 87 86 86 85 87 84 85 86 86 86 86 86 85 84 89 89 89 90 90 91 91 91 90 90 90 91 89 89 89 -193 -193 87 86 86 83 84 84 83 84 85 87 84 83 84 85 84 84 85 85 83 88 88 89 89 91 93 94 92 93 92 92 90 89 90 91 91 92 92 92 94 94 98 97 97 96 94 96 98 97 95 98 103 100 100 -193 -193 100 -193 102 102 92 100 96 90 93 96 101 117 -177 -177 -177 -177 -177 -209 -209 -177 -209 -209 -209 -209 -209 -209 -209 353 353 359 368 374 -177 -177 -193 -193 668 670 -177 -193 -209 -177 543 542 542 541 541 -193 -193 0 0 0 0 0
    0 0 0 0 0 0 0 0 0 0 0 0 0 0 0 0 0 0 0 0 0 0 0 0 0 0 0 0 0 0 0 0 0 0 0 0 0 0 0 0 0 0 0 0 0 0 0 0 0 0 0 0 0 0 0 0 0 0 0 0 0 0 0 0 0 0 0 0 0 90 92 -209 -209 90 91 -209 -209 87 87 87 85 86 87 86 87 87 88 87 87 88 88 88 89 89 90 91 93 92 93 92 92 90 89 89 88 87 87 85 85 82 82 84 85 84 84 85 85 86 87 87 87 88 84 84 86 84 84 84 83 83 79 86 86 85 88 88 88 89 90 91 90 88 90 89 88 88 87 87 87 87 89 85 87 86 86 86 86 85 84 85 85 83 83 85 85 85 86 87 86 87 88 88 88 88 91 89 -193 88 88 88 88 87 87 86 87 85 85 86 86 86 86 86 86 86 89 90 90 90 91 91 92 92 91 91 90 93 90 90 90 -193 -193 88 87 87 85 86 86 84 86 87 88 84 83 84 85 84 84 85 86 84 89 89 90 90 92 94 95 93 94 95 94 93 91 91 92 92 92 92 92 94 93 97 97 98 96 96 99 100 99 97 101 104 101 102 -193 -193 101 102 103 103 93 101 98 91 96 97 102 -177 -177 -177 -177 -177 -177 -209 -193 -177 -209 -209 -209 -209 -209 -209 -209 344 344 358 360 -177 -177 -177 362 -193 -193 -193 -193 -209 -193 -177 542 541 541 541 -193 -193 -193 0 0 0 0 0
    0 0 0 0 0 0 0 0 0 0 0 0 0 0 0 0 0 0 0 0 0 0 0 0 0 0 0 0 0 0 0 0 0 0 0 0 0 0 0 0 0 0 0 0 0 0 0 0 0 0 0 0 0 0 0 0 0 0 0 0 0 0 0 0 0 0 0 0 0 90 -193 -209 -209 -193 93 -209 -209 -209 88 87 86 86 87 86 87 88 88 88 88 -193 -193 88 -193 -209 -209 -193 95 93 94 94 93 91 90 89 89 87 87 85 85 80 78 82 83 82 83 83 85 84 86 86 86 88 83 84 85 83 83 83 82 82 79 85 85 84 87 88 87 89 90 91 89 88 91 90 89 89 88 87 88 88 89 86 87 86 86 87 86 85 84 84 85 83 83 86 85 86 87 88 87 87 88 89 88 89 92 -193 -193 -193 -193 89 88 88 88 86 87 85 86 85 86 87 87 87 87 88 90 91 91 91 91 92 93 93 92 91 91 94 -193 -193 -193 -193 88 88 88 88 86 88 87 87 89 89 89 85 84 84 86 83 84 85 86 85 89 90 91 90 93 95 95 94 94 98 96 97 93 94 94 95 94 94 94 95 94 98 98 100 98 98 100 101 101 99 101 105 103 103 -193 -193 103 103 105 105 95 102 100 94 -193 -193 103 121 145 -177 -177 -177 -193 -209 -193 262 -209 -177 -177 -177 -209 -209 -209 338 343 356 357 358 -177 -177 359 359 362 -193 -193 363 548 -177 540 540 539 540 -193 -193 -193 0 0 0 0 0
    0 0 0 0 0 0 0 0 0 0 0 0 0 0 0 0 0 0 0 0 0 0 0 0 0 0 0 0 0 0 0 0 0 0 0 0 0 0 0 0 0 0 0 0 0 0 0 0 0 0 0 0 0 0 0 0 0 0 0 0 0 0 0 0 0 0 0 0 0 -209 -209 -193 -193 91 94 -193 -209 -209 -193 -209 -209 87 -209 87 88 88 89 -209 -209 -193 -209 -209 -209 855 856 -209 -209 -209 -209 -209 93 91 91 88 89 86 87 83 84 76 73 77 -209 -193 -209 -193 -193 -209 -193 85 85 -209 81 81 83 80 80 80 80 79 77 83 84 84 87 89 88 89 91 93 90 92 95 92 91 90 89 89 89 90 91 88 88 88 88 87 87 84 83 83 84 82 81 86 86 86 88 89 88 88 88 89 89 88 95 -209 -209 -209 -209 91 90 89 90 88 88 86 87 86 87 88 88 88 87 89 91 91 92 91 91 92 93 93 92 91 92 94 -193 -193 -193 -209 88 89 89 89 89 89 89 90 90 91 90 85 84 83 86 83 84 85 86 86 89 91 91 91 93 95 95 95 95 99 98 100 97 98 97 98 97 96 96 97 97 100 101 -193 -193 103 104 -193 103 101 103 109 104 104 -193 -193 104 105 107 107 100 105 -193 100 -193 -193 -193 126 -177 -177 170 183 -193 -209 252 262 -209 -177 -177 -177 316 -209 -193 -209 -193 -193 -193 -193 -193 -193 -177 358 -193 -209 -209 -209 546 -193 539 538 538 538 538 -193 -193 0 0 0 0 0
    0 0 0 0 0 0 0 0 0 0 0 0 0 0 0 0 0 0 0 0 0 0 0 0 0 0 0 0 0 0 0 0 0 0 0 0 0 0 0 0 0 0 0 0 0 0 0 0 0 0 0 0 0 0 0 0 0 0 0 0 0 0 0 0 0 0 0 0 0 -209 -209 -193 -209 91 96 -193 -209 -209 -193 -193 -209 -209 -209 -209 -209 89 -193 528 531 532 -209 -209 -193 856 856 -193 127 -209 -209 -209 -209 -193 91 88 89 85 87 -209 -209 -209 -209 126 127 129 -193 -193 -193 132 -193 -193 -193 132 -193 -209 78 -193 76 76 -209 -193 76 -209 83 85 87 90 88 91 93 97 93 100 101 96 94 93 91 91 91 92 91 88 88 -193 -209 -193 -209 -209 82 -193 -209 -209 -193 -193 -209 87 90 -193 89 90 88 -209 -209 -209 -209 -209 -209 -193 -193 96 95 92 95 91 91 88 88 87 87 89 89 89 88 90 91 92 92 92 91 92 93 94 92 92 93 -193 -193 419 420 -193 -193 91 91 90 91 92 91 94 94 94 93 85 84 83 86 83 84 85 86 87 90 92 92 91 94 96 96 97 98 102 101 104 104 -193 102 102 100 98 98 99 99 -193 102 -193 -209 107 112 117 110 103 104 113 107 106 -193 -193 105 106 109 111 103 115 -193 -193 126 129 -193 129 141 -177 169 183 -193 241 250 258 -209 -209 -177 -177 -193 -193 638 -177 -177 -193 -193 -193 -193 -193 -177 -177 -193 -209 -209 -209 543 -193 537 537 537 538 537 537 537 0 0 0 0 0
    0 0 0 0 0 0 0 0 0 0 0 0 0 0 0 0 0 0 0 0 0 0 0 0 0 0 0 0 0 0 0 0 0 0 0 0 0 0 0 0 0 0 0 0 0 0 0 0 0 0 0 0 0 0 0 0 0 0 0 0 0 0 0 0 0 0 0 0 0 -193 132 -209 -209 93 98 -193 -209 -209 -193 496 -193 -209 -209 -209 -209 -209 -209 530 534 -193 -209 -209 -209 -193 -193 129 130 127 126 -209 -209 -193 -209 -209 -209 -209 -209 -193 -209 126 130 129 129 130 130 130 130 132 134 131 132 131 132 -193 -209 -193 -209 -209 -193 -209 -209 -209 -209 -209 -193 90 89 94 96 101 99 107 -193 -209 -193 -209 -193 -193 -193 -193 92 87 88 -209 -209 -209 -193 -209 -209 -209 -209 -209 -209 -193 -209 -209 97 -193 -209 -209 -209 -209 -209 -209 -209 -209 -209 -193 943 -209 -193 -193 100 94 93 90 88 90 88 91 91 90 90 92 93 95 95 94 93 96 97 97 97 96 -209 -209 -193 -177 -177 -177 -209 93 -209 91 94 95 93 100 99 98 -193 -209 -209 83 86 83 84 86 87 88 90 93 94 92 94 97 97 99 101 104 104 114 116 122 122 119 -193 102 102 102 102 103 104 108 111 111 119 120 119 108 107 117 111 109 110 -193 109 112 117 119 116 122 126 128 129 130 129 131 138 -177 168 182 -209 -177 -177 -209 0 -209 -209 -193 -209 -177 -177 -177 -177 -177 -193 -193 -193 -193 -193 -193 -193 -209 -209 -209 539 536 536 535 535 536 536 536 536 0 0 0 0 0
    0 0 0 0 0 0 0 0 0 0 0 0 0 0 0 0 0 0 0 0 0 0 0 0 0 0 0 0 0 0 0 0 0 0 0 0 0 0 0 0 0 0 0 0 0 0 0 0 0 0 0 0 0 0 0 0 0 0 0 0 0 0 0 0 0 0 0 0 0 131 134 -209 -209 -193 100 -209 -209 -209 493 495 499 -193 -193 130 129 128 131 -193 -193 -209 129 132 130 132 130 130 131 128 128 126 -193 -193 -193 -193 -209 -209 -193 -193 -193 128 132 131 131 130 131 130 131 132 133 131 132 132 132 130 131 129 131 128 128 128 127 127 128 125 -193 -209 -209 -209 -209 -193 -209 121 128 126 -193 -193 -209 -209 -193 -193 -209 88 -209 124 -193 -209 126 130 -193 130 -193 -193 130 130 132 130 -193 123 -209 -209 -193 -193 -209 -193 124 126 125 124 -193 -193 123 124 -193 -193 -193 -209 -209 97 94 97 94 95 94 97 97 98 99 99 98 103 -209 -193 -193 -193 136 135 -193 -193 -177 -209 -209 -209 -209 -209 -209 -209 94 103 -193 99 -193 -209 -209 84 87 84 85 87 88 89 91 94 95 94 96 98 99 101 104 108 117 120 121 124 124 123 124 112 110 111 108 109 109 114 116 117 121 121 121 120 117 119 116 116 115 116 117 120 121 122 122 124 127 130 130 129 131 132 139 -177 168 182 -209 -177 -177 -209 0 -209 -193 -193 -193 -193 -193 -177 -177 -177 -177 -177 -209 -209 -193 -209 -209 -209 -209 -209 537 534 534 534 534 535 535 535 535 0 0 0 0 0
    0 0 0 0 0 0 0 0 0 0 0 0 0 0 0 0 0 0 0 0 0 0 0 0 0 0 0 0 0 0 0 0 0 0 0 0 0 0 0 0 0 0 0 0 0 0 0 0 0 0 0 0 0 0 0 0 0 0 0 0 0 0 0 0 0 0 0 0 0 132 135 -209 -209 -209 102 -209 -209 -193 492 495 -193 -193 128 131 131 130 132 132 134 132 131 133 131 133 132 131 132 130 130 127 125 125 123 124 125 124 127 -193 130 128 132 131 131 130 131 130 131 132 133 130 133 132 133 130 132 129 131 130 130 129 129 128 130 127 129 -193 126 126 129 126 125 124 129 127 124 124 124 123 123 125 124 -209 121 126 127 127 128 130 129 131 132 132 131 131 133 130 126 127 127 124 127 127 126 126 126 128 127 125 128 125 126 126 124 125 123 124 125 123 123 126 -193 101 100 102 101 100 102 -209 -209 -209 124 127 131 133 134 134 132 134 -193 135 133 131 131 -209 -209 -209 -209 -209 -209 -209 -209 -209 -209 -209 -209 -209 86 88 91 92 92 97 98 96 97 99 100 103 -209 -193 122 122 123 125 126 125 126 119 119 119 117 117 115 117 119 119 122 122 122 123 121 122 119 120 119 120 122 123 124 124 124 126 128 131 131 130 132 134 140 152 167 180 -209 -177 -193 -193 0 -209 286 -193 -193 -193 -193 -209 -193 -209 -209 -209 -209 -209 -209 -209 -209 -209 -209 -209 536 532 532 532 533 534 534 535 535 0 0 0 0 0
    0 0 0 0 0 0 0 0 0 0 0 0 0 0 0 0 0 0 0 0 0 0 0 0 0 0 0 0 0 0 0 0 0 0 0 0 0 0 0 0 0 0 0 0 0 0 0 0 0 0 0 0 0 0 0 0 0 0 0 0 0 0 0 0 0 0 0 0 0 134 137 -193 -209 -209 -209 -209 -209 -209 -193 -193 129 130 130 132 132 131 132 133 134 133 132 134 133 134 133 133 133 131 132 130 127 128 125 126 127 126 128 130 131 129 132 131 131 130 131 131 131 132 132 130 132 132 133 131 132 130 131 130 130 130 130 129 130 128 129 128 128 127 130 127 126 125 128 127 124 125 125 124 124 126 125 123 123 128 129 129 130 131 130 132 132 132 131 132 133 130 128 130 129 126 128 127 127 127 127 129 127 126 129 126 128 127 125 128 125 127 129 127 127 129 132 -193 -193 110 116 102 -193 -209 -209 122 126 130 132 132 133 133 131 133 135 134 133 131 132 131 126 -193 -209 -209 -193 -209 -209 -193 125 -193 125 128 130 -209 -193 -193 96 100 100 99 99 101 102 106 -209 -193 124 124 125 126 128 127 127 122 122 123 120 122 120 -193 -193 121 124 124 124 126 124 126 124 125 124 124 127 128 128 127 126 127 129 131 132 131 133 135 141 151 163 175 189 -193 0 0 0 13 -209 -209 -177 -193 145 149 -209 -177 -209 -209 -209 -209 -209 -177 -177 -193 -209 -193 -193 530 530 531 531 533 532 534 534 0 0 0 0 0
    0 0 0 0 0 0 0 0 0 0 0 0 0 0 0 0 0 0 0 0 0 0 0 0 0 0 0 0 0 0 0 0 0 0 0 0 0 0 0 0 0 0 0 0 0 0 0 0 0 0 0 0 0 0 0 0 0 0 0 0 0 0 0 0 0 0 0 0 0 135 136 135 135 134 -193 -193 133 130 129 129 131 132 131 132 132 131 132 133 134 133 132 134 133 134 133 133 134 132 133 131 129 130 127 128 129 128 130 131 131 130 133 131 131 130 131 130 130 131 132 129 131 132 133 130 132 130 131 130 130 130 130 129 130 128 129 128 128 127 129 128 127 127 129 128 125 126 126 125 125 127 127 125 125 131 131 130 131 131 131 132 131 132 131 131 133 130 129 131 130 128 130 128 128 129 128 130 128 127 130 127 129 128 126 129 127 129 131 129 129 128 131 124 123 122 123 123 124 127 125 125 128 131 133 132 132 132 131 133 134 133 133 132 132 132 128 131 125 122 125 -193 -193 124 127 131 128 131 132 128 127 128 -193 -193 -193 -209 -193 -193 -209 -209 -193 125 126 126 126 128 129 128 128 123 124 130 124 131 131 132 131 126 127 127 127 129 128 129 129 131 130 129 132 131 131 129 128 129 129 132 133 133 135 136 142 150 159 171 -209 0 0 0 0 -209 -209 -177 -177 -193 -177 -177 -209 -177 -209 -209 -209 -209 -209 -177 -209 -209 11 -193 -193 528 528 528 529 531 530 533 533 0 0 0 0 0
    0 0 0 0 0 0 0 0 0 0 0 0 0 0 0 0 0 0 0 0 0 0 0 0 0 0 0 0 0 0 0 0 0 0 0 0 0 0 0 0 0 0 0 0 0 0 0 0 0 0 0 0 0 0 0 0 0 0 0 0 0 0 0 0 0 0 0 0 0 134 135 133 132 133 130 128 133 131 130 130 132 132 132 132 132 131 132 133 134 133 133 135 133 134 134 134 134 132 133 132 130 131 128 129 130 129 131 131 132 130 133 132 131 130 131 131 130 131 132 128 131 131 132 130 131 130 131 130 130 130 130 128 129 128 129 128 127 127 129 128 127 127 130 129 126 127 127 127 126 128 128 126 126 132 132 130 131 131 131 132 131 132 131 131 132 130 130 132 131 129 131 129 129 130 129 131 129 128 130 128 130 129 127 130 128 131 132 130 130 128 130 127 126 124 125 126 128 130 130 129 130 132 134 133 133 132 131 133 134 133 133 132 132 132 130 132 127 125 128 126 127 126 128 131 129 131 132 130 130 131 133 127 127 -193 -193 123 -193 124 130 126 126 127 127 128 129 128 128 124 126 131 126 133 134 134 134 129 130 128 129 130 130 131 131 133 134 132 134 133 132 131 130 130 130 132 134 134 136 138 143 149 155 -209 -209 0 0 0 -193 -209 -177 -177 -177 -193 -177 -177 -193 -177 -193 -177 -177 -209 -209 -209 -209 -193 12 17 -193 526 526 526 527 529 529 532 533 0 0 0 0 0
    0 0 0 0 0 0 0 0 0 0 0 0 0 0 0 0 0 0 0 0 0 0 0 0 0 0 0 0 0 0 0 0 0 0 0 0 0 0 0 0 0 0 0 0 0 0 0 0 0 0 0 0 0 0 0 0 0 0 0 0 0 0 0 0 0 0 0 0 0 133 134 131 130 131 130 129 133 131 130 130 132 132 132 132 132 131 132 133 134 133 133 135 134 134 134 134 134 133 133 133 130 131 128 128 129 129 131 131 132 130 133 132 131 131 131 131 130 130 131 127 130 131 132 129 131 130 131 130 131 130 130 128 129 128 128 128 127 127 129 128 128 128 130 130 127 128 128 127 127 129 129 127 127 132 132 130 131 131 130 131 131 131 131 130 132 130 131 132 132 130 131 130 130 131 130 131 129 129 131 129 131 130 127 131 129 131 132 130 130 128 130 128 127 125 126 127 130 132 131 131 131 132 134 133 133 132 131 133 133 132 133 131 132 132 131 132 129 128 131 128 129 129 129 130 129 130 132 129 130 131 132 129 128 128 126 125 125 125 131 127 127 128 128 128 130 129 129 126 128 133 130 135 134 134 133 129 130 129 128 130 129 131 131 134 135 133 135 134 133 131 131 131 130 132 134 134 137 139 142 148 -193 -209 -209 -177 0 -177 -193 -209 -177 -177 -193 -193 141 145 -209 -177 -193 -177 -177 -209 -209 254 -209 -193 12 19 -193 525 525 526 526 528 529 532 533 0 0 0 0 0
    0 0 0 0 0 0 0 0 0 0 0 0 0 0 0 0 0 0 0 0 0 0 0 0 0 0 0 0 0 0 0 0 0 0 0 0 0 0 0 0 0 0 0 0 0 0 0 0 0 0 0 0 0 0 0 0 0 0 0 0 0 0 0 0 0 0 0 0 0 134 134 131 129 131 130 129 133 131 130 130 132 131 131 132 132 131 131 133 134 133 133 135 134 135 135 135 135 133 134 133 130 131 127 127 128 128 130 131 132 130 133 132 131 131 132 131 130 130 131 127 129 130 132 128 130 129 131 131 131 130 130 129 129 128 129 129 128 128 130 129 128 128 130 130 127 128 129 128 128 130 129 128 127 132 132 129 130 130 129 130 130 131 130 130 132 130 131 133 132 131 132 131 130 131 131 131 130 129 131 130 131 130 127 131 129 131 132 130 129 127 129 128 126 125 126 127 130 132 132 132 131 132 134 133 133 132 131 133 132 132 132 131 131 131 131 132 130 129 131 129 130 130 130 130 130 130 131 129 130 131 132 130 129 130 128 126 127 127 132 128 128 129 129 129 130 130 130 126 129 133 132 136 135 135 135 132 133 131 130 131 131 132 132 135 135 134 135 134 133 132 132 132 131 133 135 135 137 139 142 147 -193 -209 -209 0 10 9 13 -209 -209 -209 -209 132 -209 -209 -193 837 -177 -209 -193 -209 -209 -193 -209 -193 11 17 23 -193 524 525 526 528 529 533 534 0 0 0 0 0
    0 0 0 0 0 0 0 0 0 0 0 0 0 0 0 0 0 0 0 0 0 0 0 0 0 0 0 0 0 0 0 0 0 0 0 0 0 0 0 0 0 0 0 0 0 0 0 0 0 0 0 0 0 0 0 0 0 0 0 0 0 0 0 0 0 0 0 0 0 134 133 131 130 131 131 130 133 132 130 131 132 131 131 132 132 130 131 133 134 134 133 135 134 135 135 135 135 134 135 134 130 131 127 126 127 127 129 131 132 130 133 132 131 131 132 131 130 130 131 127 129 131 132 128 129 129 131 131 131 131 131 129 129 130 129 129 128 129 131 129 128 128 130 131 127 128 129 128 128 130 130 128 127 132 132 128 130 129 129 130 130 130 129 130 132 129 131 133 132 131 131 131 130 131 131 132 130 130 132 130 132 131 129 132 129 132 132 130 130 127 128 127 126 125 126 127 129 132 131 131 131 132 133 132 133 131 130 132 132 132 132 131 131 131 131 132 130 130 131 129 130 130 130 131 130 130 131 129 130 130 132 130 129 130 129 127 129 129 133 129 129 130 129 130 131 130 131 127 130 132 130 134 134 133 133 131 133 131 130 131 132 133 133 135 135 134 135 134 134 132 132 132 131 134 136 136 138 140 142 146 -193 -209 -209 0 11 11 11 -193 -209 -209 -209 -193 -177 -209 -177 -177 -193 -209 -209 -209 -209 -193 -193 -193 -209 15 22 -193 524 525 525 528 530 533 535 0 0 0 0 0
    0 0 0 0 0 0 0 0 0 0 0 0 0 0 0 0 0 0 0 0 0 0 0 0 0 0 0 0 0 0 0 0 0 0 0 0 0 0 0 0 0 0 0 0 0 0 0 0 0 0 0 0 0 0 0 0 0 0 0 0 0 0 0 0 0 0 0 0 0 133 133 131 129 132 131 130 133 133 131 131 132 132 131 132 132 130 131 133 134 134 134 136 135 136 136 136 136 135 135 134 130 130 126 125 126 127 128 130 131 130 133 132 131 131 132 131 130 130 131 127 130 131 132 128 127 129 130 130 130 130 130 128 129 130 129 130 129 129 131 130 128 128 130 131 127 128 130 128 129 130 130 128 127 133 132 128 131 129 129 130 130 130 129 130 132 128 131 132 131 131 131 131 130 131 131 132 130 130 132 131 132 132 130 132 130 132 132 130 130 128 129 128 127 126 126 127 128 131 131 131 131 132 133 132 133 131 130 132 131 131 132 130 130 130 131 131 129 130 131 129 130 130 130 130 130 129 131 128 129 129 132 129 129 130 129 127 130 129 133 129 130 131 130 130 131 130 131 127 130 132 129 133 132 131 132 129 131 130 129 130 131 132 133 135 136 135 135 135 134 133 133 133 133 135 137 137 138 140 142 145 149 149 -209 0 11 14 13 -209 -177 -209 -209 -193 -209 -209 -177 -177 -177 -209 -209 -209 -209 -193 -177 -193 -209 14 22 -193 -193 524 525 527 530 533 535 0 0 0 0 0
    0 0 0 0 0 0 0 0 0 0 0 0 0 0 0 0 0 0 0 0 0 0 0 0 0 0 0 0 0 0 0 0 0 0 0 0 0 0 0 0 0 0 0 0 0 0 0 0 0 0 0 0 0 0 0 0 0 0 0 0 0 0 0 0 0 0 0 0 0 131 131 131 129 132 132 131 133 133 131 131 132 132 132 132 132 131 131 134 135 135 134 136 135 136 136 136 136 136 136 134 130 130 126 125 126 128 128 130 132 131 133 132 131 131 132 132 131 130 131 127 130 131 132 128 126 128 129 130 129 129 128 127 128 130 130 131 130 130 131 130 129 129 130 132 128 129 130 129 130 131 131 130 127 134 133 129 131 129 129 130 130 130 128 130 131 128 131 132 131 131 131 131 130 131 131 132 130 131 132 130 132 131 130 132 129 132 132 130 130 128 129 128 127 127 126 127 128 130 131 131 131 132 133 132 132 130 130 132 131 131 131 129 130 129 130 131 128 129 130 129 130 130 129 130 130 129 130 127 128 127 131 128 128 129 129 128 130 130 134 130 130 131 130 130 131 130 130 127 130 131 129 132 132 131 131 128 130 129 127 127 130 131 132 135 136 135 136 136 135 134 134 134 134 135 138 138 138 140 142 145 148 148 150 -193 12 20 -193 -177 -177 -177 -209 -209 -209 -193 -177 -177 -177 -209 -209 -209 -209 -193 -177 -177 -193 -209 -209 -209 -193 523 525 528 531 534 536 0 0 0 0 0
    0 0 0 0 0 0 0 0 0 0 0 0 0 0 0 0 0 0 0 0 0 0 0 0 0 0 0 0 0 0 0 0 0 0 0 0 0 0 0 0 0 0 0 0 0 0 0 0 0 0 0 0 0 0 0 0 0 0 0 0 0 0 0 0 0 0 0 0 0 130 131 131 131 133 132 132 133 133 132 132 132 132 132 133 132 131 130 134 134 135 134 136 135 136 -193 -193 -193 136 136 134 130 130 126 125 126 128 129 130 132 131 133 132 131 131 132 132 131 130 131 126 129 131 131 128 125 128 129 130 130 129 129 127 128 131 131 131 131 131 132 131 130 130 131 133 129 130 131 130 131 131 132 130 127 134 133 128 131 128 129 129 130 130 129 131 131 128 132 132 131 131 131 131 130 132 132 132 130 131 131 131 132 131 130 132 128 132 131 130 130 128 129 128 127 127 127 127 128 130 130 130 130 131 132 132 132 130 130 132 130 130 131 129 129 129 130 130 128 129 129 128 130 129 128 129 129 128 129 126 127 127 130 129 128 129 129 129 132 132 134 131 130 131 130 130 130 130 130 127 130 131 129 132 132 131 131 128 130 128 127 126 130 130 132 135 136 135 136 136 136 134 135 135 135 136 138 138 139 141 142 144 147 148 149 -193 10 -209 -209 -177 -177 -177 -177 -209 -209 -193 -209 -209 -209 -209 -209 -177 -209 -193 -177 -177 -193 330 331 334 -209 524 526 529 533 535 537 0 0 0 0 0
    0 0 0 0 0 0 0 0 0 0 0 0 0 0 0 0 0 0 0 0 0 0 0 0 0 0 0 0 0 0 0 0 0 0 0 0 0 0 0 0 0 0 0 0 0 0 0 0 0 0 0 0 0 0 0 0 0 0 0 0 0 0 0 0 0 0 0 0 0 130 131 131 133 134 132 132 134 134 132 132 132 132 132 133 132 131 129 133 133 134 134 135 135 -193 -193 -193 -193 -193 -209 133 128 127 126 125 126 128 128 129 132 131 134 132 132 132 132 132 131 130 130 126 128 130 130 127 124 127 128 129 129 129 128 126 128 131 132 132 132 133 133 132 132 132 133 134 130 131 131 130 131 132 132 131 127 134 133 130 132 129 129 129 131 131 130 132 132 129 132 132 132 131 131 131 131 132 132 132 130 131 131 131 132 131 129 132 127 132 130 129 129 128 129 128 126 127 127 127 128 129 129 130 130 131 132 131 132 130 130 132 130 130 130 129 129 129 130 130 127 130 129 128 130 129 128 129 128 127 128 126 126 126 129 129 129 129 130 130 133 133 135 131 131 131 130 130 131 130 130 127 130 131 130 132 132 131 131 129 130 128 127 127 130 129 131 134 135 134 135 135 135 134 134 134 134 136 137 138 138 139 141 142 145 146 147 148 -209 -209 -193 -193 -177 -209 -177 -193 -177 -177 -193 -209 -193 -209 -209 -177 -177 -193 -177 -177 -193 -193 331 334 -209 523 526 530 534 536 538 0 0 0 0 0
    0 0 0 0 0 0 0 0 0 0 0 0 0 0 0 0 0 0 0 0 0 0 0 0 0 0 0 0 0 0 0 0 0 0 0 0 0 0 0 0 0 0 0 0 0 0 0 0 0 0 0 0 0 0 0 0 0 0 0 0 0 0 0 0 0 0 0 0 0 130 131 132 -193 -209 134 134 134 134 133 133 133 132 131 133 131 131 128 133 133 134 133 136 135 -193 -209 -209 -209 -209 -209 -209 -209 125 -193 125 126 128 128 130 133 132 134 133 133 133 133 132 131 131 131 126 129 130 130 127 -193 127 -193 -193 -193 127 -193 126 127 131 131 132 133 134 135 134 134 134 134 135 131 132 132 131 132 132 132 131 128 133 133 131 132 129 130 130 133 133 133 134 133 131 133 133 132 132 131 132 131 132 132 132 131 131 131 131 132 130 129 131 126 131 130 129 129 127 129 128 125 126 126 126 126 128 128 129 129 131 132 131 132 130 130 133 130 131 130 129 129 129 130 130 128 130 129 129 131 130 129 130 129 127 128 126 127 127 129 129 129 130 131 131 134 134 135 132 131 132 130 131 131 131 131 128 131 132 131 133 132 132 131 129 129 127 126 127 129 129 130 134 134 134 134 134 134 133 134 133 134 136 137 138 137 138 140 141 144 144 146 147 -209 -193 -193 -209 -193 -209 -193 -193 -177 -177 -177 -193 -177 -209 -209 -177 -193 -209 -177 -177 -209 -193 -193 336 -209 523 527 531 535 537 539 0 0 0 0 0
    0 0 0 0 0 0 0 0 0 0 0 0 0 0 0 0 0 0 0 0 0 0 0 0 0 0 0 0 0 0 0 0 0 0 0 0 0 0 0 0 0 0 0 0 0 0 0 0 0 0 0 0 0 0 0 0 0 0 0 0 0 0 0 0 0 0 0 0 0 132 133 133 -209 -193 -193 135 135 135 133 133 133 132 131 133 131 131 128 133 133 135 -193 -193 -209 -209 -209 -209 -193 -193 -209 -193 -209 -193 -193 128 -193 131 130 131 134 133 135 133 133 133 133 132 132 132 132 127 129 130 130 127 -193 -193 -193 627 -193 127 -193 125 126 131 133 133 135 136 136 135 136 136 136 137 133 133 133 132 133 133 134 133 129 135 134 133 134 131 131 131 134 134 134 134 133 131 134 133 133 132 132 132 132 133 133 133 131 131 132 132 132 130 130 132 127 -193 131 130 129 129 131 130 126 127 127 127 126 130 128 129 128 131 132 131 132 131 131 134 131 131 131 129 130 130 131 131 128 131 129 129 131 130 129 129 128 127 127 126 127 127 129 131 130 131 132 133 137 136 136 133 131 132 131 132 132 132 132 130 132 133 132 133 132 132 132 130 129 128 129 133 133 133 133 134 134 134 135 135 135 134 135 134 135 137 138 138 138 138 140 141 143 143 145 146 -193 -193 -177 -209 -177 -177 -193 -209 -177 -177 -193 -193 -209 -209 -209 -209 -209 -193 -177 -177 -177 -193 -209 -193 -209 -209 529 533 537 -193 540 0 0 0 0 0
    0 0 0 0 0 0 0 0 0 0 0 0 0 0 0 0 0 0 0 0 0 0 0 0 0 0 0 0 0 0 0 0 0 0 0 0 0 0 0 0 0 0 0 0 0 0 0 0 0 0 0 0 0 0 0 0 0 0 0 0 0 0 0 0 0 0 0 0 0 -209 -209 135 139 142 138 -193 136 136 134 134 133 132 131 133 131 131 128 134 133 136 -193 -193 -209 -209 -209 -209 -209 -209 -177 -177 -209 -209 -209 -209 -209 -209 133 134 135 134 135 134 134 134 133 133 133 133 -193 -193 -193 -193 131 -193 -193 -193 -193 -193 -209 -193 126 125 127 134 135 135 138 139 138 136 137 137 136 140 134 134 134 134 135 135 135 135 132 137 137 -209 -209 -193 134 133 135 -193 135 135 133 131 134 133 133 132 131 132 132 133 133 133 131 132 132 133 133 132 132 134 -193 -209 -209 -209 132 132 -209 -193 -193 133 133 134 130 133 132 132 131 132 133 132 133 133 133 135 131 132 132 130 131 131 131 132 130 132 131 131 132 132 130 131 131 129 128 127 128 128 130 132 131 132 133 135 138 138 137 133 132 133 132 133 133 133 133 131 133 133 132 134 132 133 133 133 130 132 136 139 138 138 138 135 134 136 136 136 136 135 135 135 136 138 138 139 138 139 140 142 143 143 145 146 147 -209 -177 -209 -177 -209 -209 -209 -177 -209 -209 -209 -209 -209 -209 -209 -209 -209 -177 -177 -177 -177 -209 -209 -209 -209 -209 -209 -209 -209 540 0 0 0 0 0
    0 0 0 0 0 0 0 0 0 0 0 0 0 0 0 0 0 0 0 0 0 0 0 0 0 0 0 0 0 0 0 0 0 0 0 0 0 0 0 0 0 0 0 0 0 0 0 0 0 0 0 0 0 0 0 0 0 0 0 0 0 0 0 0 0 0 0 0 0 -209 144 141 145 148 147 146 146 148 135 135 134 133 132 134 132 132 130 136 -193 -209 -209 -193 -193 -193 -209 -193 -193 -209 -209 -209 -209 -209 -209 -209 -209 -193 -209 -193 142 139 138 136 136 135 134 133 -193 -193 -193 -193 -193 -193 -193 -209 -193 -193 -193 -193 -209 -193 127 126 129 137 138 137 141 144 143 136 139 139 138 145 136 136 135 136 138 137 138 138 135 139 139 140 -193 -193 -209 135 -193 -209 136 136 133 132 134 133 133 132 131 132 132 133 133 133 132 132 132 133 133 134 135 136 -209 -209 -193 -193 -209 -209 -209 -209 -209 -193 -193 -209 -193 136 136 135 134 135 136 135 135 135 135 136 132 133 133 131 132 132 133 133 131 134 133 133 134 134 133 133 133 132 131 128 130 130 133 -193 134 136 138 139 143 141 139 135 134 134 133 134 134 134 133 132 134 134 133 135 134 134 135 136 134 136 139 142 141 142 141 137 135 137 136 137 136 135 135 135 136 138 139 140 139 139 141 143 144 143 146 147 148 -193 1008 -209 -209 -209 -209 -177 -177 744 -193 -209 -209 -209 -209 -177 -209 -209 -177 -177 -177 -177 -193 -209 -209 -209 -209 -209 -209 43 -209 0 0 0 0 0
    0 0 0 0 0 0 0 0 0 0 0 0 0 0 0 0 0 0 0 0 0 0 0 0 0 0 0 0 0 0 0 0 0 0 0 0 0 0 0 0 0 0 0 0 0 0 0 0 0 0 0 0 0 0 0 0 0 0 0 0 0 0 0 0 0 0 0 0 0 -193 150 -193 149 150 150 149 150 150 139 139 136 135 134 136 134 135 135 142 -209 -209 -209 -193 -193 -193 -193 150 -193 -193 -193 -209 -193 -193 -209 -209 -209 -193 151 150 150 151 150 145 141 137 136 135 -193 -209 -209 -193 -177 687 -193 -209 -209 -209 -209 -209 -209 -209 -209 -209 135 143 143 146 147 151 152 149 145 146 148 151 141 140 139 140 143 143 143 142 139 144 144 144 146 -193 140 136 137 -193 137 136 134 133 135 134 134 133 132 133 133 133 134 134 133 133 133 134 134 135 136 141 -209 150 155 154 153 -209 -209 -209 -209 -193 -193 -193 -193 140 141 139 140 141 146 148 143 146 147 146 134 135 134 133 134 134 134 134 133 136 135 136 136 136 135 135 135 135 135 132 134 134 -209 -193 -209 143 146 146 148 147 145 138 137 137 134 135 136 135 135 134 137 136 135 137 137 136 139 142 141 141 146 148 147 148 146 142 136 137 137 137 136 135 135 135 137 139 140 141 140 140 143 145 146 144 147 147 149 -193 -209 -209 -209 -209 -209 -209 -177 -193 -209 -209 -209 -209 -209 -209 -209 -209 -177 -177 -177 -209 -209 -209 -209 -209 -209 -209 -209 45 -209 0 0 0 0 0
    0 0 0 0 0 0 0 0 0 0 0 0 0 0 0 0 0 0 0 0 0 0 0 0 0 0 0 0 0 0 0 0 0 0 0 0 0 0 0 0 0 0 0 0 0 0 0 0 0 0 0 0 0 0 0 0 0 0 0 0 0 0 0 0 0 0 0 0 0 -209 -193 -193 151 152 151 151 152 152 148 147 146 141 139 142 140 140 141 -193 -209 -209 -193 -193 -193 -193 154 155 155 156 157 -193 -193 -193 -209 -209 -193 152 152 152 151 153 152 152 150 145 148 -193 -193 -209 -193 -177 686 692 -209 -209 -209 -209 -209 -209 -209 -209 -193 143 141 146 147 150 150 152 154 153 150 151 152 153 149 147 147 146 148 150 149 148 143 149 149 149 151 147 147 139 140 142 139 139 136 135 136 136 136 135 134 134 134 134 134 135 133 133 134 135 136 138 140 147 150 151 155 154 154 153 -193 151 -209 -193 -193 -193 -193 145 146 144 146 146 150 152 149 151 151 152 -193 139 136 135 136 136 137 137 -193 139 140 139 139 139 137 137 137 137 137 135 137 137 142 -193 -193 148 150 150 150 150 149 144 140 140 137 138 138 137 137 138 139 139 139 140 140 142 145 149 150 148 150 151 150 151 149 150 136 138 138 138 137 136 135 135 137 139 140 142 141 141 145 147 147 147 148 149 150 -193 -209 -193 -177 -193 -209 -209 -209 -209 -209 -209 -209 -209 -177 -209 -209 -209 -177 -177 -209 -209 -209 -209 -209 -209 -209 -209 -209 -209 -209 0 0 0 0 0
    0 0 0 0 0 0 0 0 0 0 0 0 0 0 0 0 0 0 0 0 0 0 0 0 0 0 0 0 0 0 0 0 0 0 0 0 0 0 0 0 0 0 0 0 0 0 0 0 0 0 0 0 0 0 0 0 0 0 0 0 0 0 0 0 0 0 0 0 0 153 -193 -193 152 153 152 153 153 153 152 152 153 151 151 150 151 148 150 153 -209 -193 155 -193 154 155 155 157 156 158 158 159 -193 -193 -209 154 153 -193 -193 152 152 153 153 153 152 151 153 149 -193 -193 -209 -209 -193 -209 -209 -193 -209 -193 -209 -209 -209 -193 -193 149 148 149 149 151 152 153 155 155 153 153 153 155 152 151 151 150 151 151 151 150 147 150 150 150 151 150 149 142 143 144 141 142 140 138 139 139 139 138 136 136 -193 135 135 136 134 135 135 136 139 147 147 150 152 152 155 155 154 153 151 152 -193 149 149 149 -193 148 149 149 149 150 152 153 151 152 152 153 151 147 146 142 141 143 143 143 142 144 147 145 145 145 -193 -193 -193 140 140 137 139 144 148 150 150 150 151 151 151 150 150 148 145 145 142 143 142 140 141 141 142 142 142 143 144 146 147 151 151 151 152 151 151 152 151 153 140 141 140 141 139 138 137 137 138 140 142 144 143 142 147 148 149 149 150 150 151 -193 -209 -209 617 -177 -193 -193 -209 -209 -209 -209 -209 -177 -177 -177 -209 -209 -177 -193 -209 -177 -177 -209 -209 -209 -209 -209 -193 -193 -193 0 0 0 0 0
    0 0 0 0 0 0 0 0 0 0 0 0 0 0 0 0 0 0 0 0 0 0 0 0 0 0 0 0 0 0 0 0 0 0 0 0 0 0 0 0 0 0 0 0 0 0 0 0 0 0 0 0 0 0 0 0 0 0 0 0 0 0 0 0 0 0 0 0 0 153 153 153 153 153 152 153 153 154 153 154 154 153 154 153 153 152 152 154 154 153 155 154 155 156 156 159 157 158 159 160 -193 -193 -193 154 154 153 153 153 152 153 153 153 152 152 154 -209 -193 -209 -209 -209 992 -193 -209 -193 -209 -193 -209 -209 -193 -193 -193 151 150 150 150 153 154 154 156 155 155 154 154 155 153 152 153 152 152 152 152 151 149 151 151 150 151 150 150 147 146 146 144 146 146 142 145 146 147 149 146 -209 -209 -209 -193 -193 137 138 137 140 147 152 151 152 153 153 154 154 154 153 152 152 -193 -193 150 151 150 151 151 151 151 152 153 155 153 153 153 154 153 152 151 150 148 149 148 149 148 148 150 149 148 149 -193 -193 -193 146 146 143 146 151 151 152 152 151 152 152 151 151 150 149 148 148 146 146 146 143 144 144 144 144 145 145 146 148 149 151 152 151 152 152 152 152 152 153 145 145 143 143 141 140 139 139 139 141 143 146 144 144 148 149 150 149 150 150 152 151 152 -193 -209 -193 -209 -193 -209 -209 -209 -209 -209 -177 -177 -177 -209 -209 -209 -209 -177 -177 -177 -209 -209 -209 -209 -209 -209 -177 -193 0 0 0 0 0
    0 0 0 0 0 0 0 0 0 0 0 0 0 0 0 0 0 0 0 0 0 0 0 0 0 0 0 0 0 0 0 0 0 0 0 0 0 0 0 0 0 0 0 0 0 0 0 0 0 0 0 0 0 0 0 0 0 0 0 0 0 0 0 0 0 0 0 0 0 153 153 153 153 -193 151 153 153 154 154 154 154 154 154 154 153 153 153 154 153 154 155 155 155 156 156 158 157 158 158 158 156 -193 155 154 155 154 154 153 153 153 153 153 153 152 154 -209 -193 -209 -209 -193 -193 -209 -209 -209 -209 -193 -193 155 -193 154 153 152 152 151 152 153 154 155 156 155 156 155 154 156 154 153 154 153 153 153 153 153 150 152 152 151 152 152 152 152 151 151 149 151 151 149 151 153 153 154 154 154 154 154 154 -193 152 148 146 148 151 155 152 152 153 153 154 154 154 153 152 152 153 -193 151 151 151 152 152 152 153 153 155 155 154 154 154 155 154 154 154 153 151 152 151 151 151 150 151 -193 150 150 -193 -193 -193 149 150 149 150 153 153 153 153 153 153 152 152 151 150 150 150 149 149 148 149 146 147 147 147 147 148 147 149 149 150 152 152 152 153 153 153 153 153 153 150 149 146 147 145 144 143 143 143 145 147 149 149 150 152 152 152 152 152 152 153 152 152 153 150 150 -193 -193 -209 -209 -209 -209 -209 -177 -177 -209 -209 -209 -209 -209 -209 -209 -209 -209 -177 -209 -209 -209 -209 -193 -209 0 0 0 0 0
    0 0 0 0 0 0 0 0 0 0 0 0 0 0 0 0 0 0 0 0 0 0 0 0 0 0 0 0 0 0 0 0 0 0 0 0 0 0 0 0 0 0 0 0 0 0 0 0 0 0 0 0 0 0 0 0 0 0 0 0 0 0 0 0 0 0 0 0 0 153 153 153 153 -193 151 152 152 153 153 154 153 153 153 153 153 153 152 153 153 154 155 155 155 156 155 157 156 157 156 156 155 155 155 155 156 155 154 154 154 154 153 153 153 151 153 -209 -209 -209 -209 152 -193 -193 -209 152 -193 153 153 154 154 154 153 152 152 152 152 153 154 155 155 154 156 155 155 156 155 154 154 154 154 154 154 154 151 153 153 152 153 152 153 153 153 153 152 153 154 154 154 155 156 156 156 156 155 155 155 155 154 152 151 152 152 157 153 153 153 153 154 154 154 153 152 153 153 -193 152 152 152 152 152 153 153 153 155 155 155 155 154 155 154 155 155 154 153 153 152 152 152 152 152 -193 152 -193 -193 -193 -193 152 152 152 151 153 153 154 153 153 153 153 153 152 151 151 151 151 151 150 150 149 150 150 149 149 150 149 151 151 151 153 153 153 153 153 153 153 153 153 152 152 150 150 149 149 149 150 150 150 150 151 152 154 154 154 154 153 154 153 154 154 153 153 151 151 151 151 152 -209 -209 -209 -209 -209 -209 -209 -209 -209 -209 -177 -177 -177 -193 -209 -209 -209 -209 -177 -177 -209 -209 0 0 0 0 0
    0 0 0 0 0 0 0 0 0 0 0 0 0 0 0 0 0 0 0 0 0 0 0 0 0 0 0 0 0 0 0 0 0 0 0 0 0 0 0 0 0 0 0 0 0 0 0 0 0 0 0 0 0 0 0 0 0 0 0 0 0 0 0 0 0 0 0 0 0 153 153 152 153 153 151 152 151 153 153 154 153 153 152 153 152 153 152 153 153 154 154 155 155 155 155 156 155 155 154 155 154 155 155 155 157 155 155 155 154 154 154 153 153 151 153 151 152 -209 152 152 153 154 153 152 152 153 152 154 154 153 152 152 151 151 151 153 153 154 155 154 156 155 154 157 155 154 155 154 155 154 155 155 151 153 153 152 152 152 152 152 153 153 153 154 155 155 155 155 156 156 156 156 155 154 155 154 153 152 151 151 151 155 152 152 152 152 153 153 153 153 151 153 153 -193 152 153 153 153 152 -193 153 154 155 155 154 155 154 155 154 155 155 154 153 153 152 153 153 153 153 153 153 153 -193 -193 -193 152 153 153 152 154 153 154 153 153 153 152 153 152 151 151 151 152 152 151 152 150 151 152 151 151 151 151 152 152 152 154 153 153 153 153 153 154 153 154 153 153 152 151 152 153 153 153 153 152 153 153 154 155 155 155 155 155 155 154 155 155 153 153 152 152 152 152 152 -209 -193 -209 -209 -209 -209 -209 -209 -209 -209 -209 -177 -177 -177 -177 -209 -209 -209 -209 -177 -193 -177 0 0 0 0 0
    0 0 0 0 0 0 0 0 0 0 0 0 0 0 0 0 0 0 0 0 0 0 0 0 0 0 0 0 0 0 0 0 0 0 0 0 0 0 0 0 0 0 0 0 0 0 0 0 0 0 0 0 0 0 0 0 0 0 0 0 0 0 0 0 0 0 0 0 0 153 153 153 153 153 151 152 152 153 153 154 153 153 152 153 152 153 152 153 153 154 154 155 155 155 154 155 155 154 153 153 153 154 154 155 158 155 155 155 154 154 154 153 153 151 153 152 153 154 -193 -193 -193 154 153 153 153 154 153 155 154 153 152 152 151 151 151 153 153 154 155 154 156 154 154 157 155 154 155 154 154 154 154 155 151 153 153 152 152 152 152 152 152 153 153 154 155 155 156 155 156 155 155 155 155 154 154 154 153 152 152 151 151 155 151 152 152 152 152 152 152 152 151 153 154 -193 153 154 153 154 153 -193 153 154 155 155 154 154 153 154 153 155 154 154 153 153 153 154 153 153 153 153 152 153 -193 -193 -193 152 152 -193 152 154 153 154 153 153 152 152 152 152 151 151 151 151 152 152 152 151 152 152 151 152 152 151 152 152 152 154 153 153 153 153 153 154 154 154 153 154 154 153 154 155 154 153 153 153 154 154 155 156 157 157 157 157 157 156 156 156 154 154 152 152 152 152 153 153 153 166 -209 -209 -209 -209 -209 -209 -209 -209 -193 -209 -209 -209 -209 -209 -209 -177 -177 -193 -177 0 0 0 0 0
    0 0 0 0 0 0 0 0 0 0 0 0 0 0 0 0 0 0 0 0 0 0 0 0 0 0 0 0 0 0 0 0 0 0 0 0 0 0 0 0 0 0 0 0 0 0 0 0 0 0 0 0 0 0 0 0 0 0 0 0 0 0 0 0 0 0 0 0 0 153 153 153 153 153 150 153 152 153 153 154 153 153 152 153 153 154 153 153 153 155 154 156 156 155 154 155 154 154 153 153 152 154 154 156 159 155 155 155 154 154 154 153 153 152 153 -193 153 -193 -193 -193 367 -193 153 153 -193 154 -193 155 155 154 153 152 152 152 151 153 152 153 154 154 155 154 154 156 154 154 154 154 154 153 154 155 151 152 152 151 151 152 151 152 151 153 154 155 156 155 156 155 156 155 156 155 155 154 155 154 154 153 153 152 152 156 152 152 152 152 152 152 152 152 151 153 154 -193 153 154 154 154 153 154 153 154 155 154 154 154 153 154 154 155 154 154 153 154 154 154 153 153 153 153 152 153 -193 -193 -193 152 153 152 152 154 153 154 153 152 152 151 152 151 151 151 151 152 152 152 152 151 152 153 152 152 152 151 152 152 152 154 153 154 154 154 154 154 154 155 154 155 154 154 155 156 154 153 152 152 153 153 155 155 156 157 157 157 158 156 156 156 154 154 153 153 153 153 153 154 154 166 -209 -209 -209 -209 -209 -209 -209 -193 -209 -209 -209 -209 -209 -209 -209 -177 -177 -193 -177 0 0 0 0 0
    0 0 0 0 0 0 0 0 0 0 0 0 0 0 0 0 0 0 0 0 0 0 0 0 0 0 0 0 0 0 0 0 0 0 0 0 0 0 0 0 0 0 0 0 0 0 0 0 0 0 0 0 0 0 0 0 0 0 0 0 0 0 0 0 0 0 0 0 0 153 153 153 153 153 150 153 153 153 154 155 154 154 153 153 153 154 153 154 154 155 155 156 156 156 153 154 154 154 152 153 152 155 155 156 160 155 156 155 154 154 153 153 153 151 153 -193 -193 -193 -177 365 367 -193 153 -209 -193 -193 -193 155 155 155 153 152 152 152 151 153 152 153 153 153 155 153 153 156 154 154 154 153 153 153 154 154 150 152 151 151 152 152 152 152 151 153 154 155 156 155 156 155 156 155 156 155 154 154 155 154 154 154 153 153 152 156 152 152 152 152 152 152 152 152 151 153 154 -193 153 154 154 154 154 154 153 154 154 154 154 154 153 154 154 155 154 154 153 154 154 154 153 153 153 152 152 153 152 -193 -193 153 153 152 152 153 153 153 153 152 152 151 152 151 150 151 151 151 152 151 152 151 152 153 152 152 152 152 153 153 152 154 153 154 154 153 154 154 154 155 154 155 154 154 156 156 155 153 152 151 152 153 154 154 155 156 157 157 157 156 156 156 154 154 153 153 153 153 153 154 154 163 161 166 166 -209 -209 -193 -177 -177 -177 -209 -209 -209 -209 -209 -209 -209 -209 -209 -209 0 0 0 0 0
    0 0 0 0 0 0 0 0 0 0 0 0 0 0 0 0 0 0 0 0 0 0 0 0 0 0 0 0 0 0 0 0 0 0 0 0 0 0 0 0 0 0 0 0 0 0 0 0 0 0 0 0 0 0 0 0 0 0 0 0 0 0 0 0 0 0 0 0 0 153 153 153 153 153 150 153 153 -193 155 156 154 154 153 153 153 154 153 153 154 155 154 155 155 155 152 153 153 153 152 154 154 156 156 158 161 156 156 155 155 154 153 -193 153 151 152 -193 152 -177 -177 365 368 -193 153 -193 -193 -193 -193 155 155 155 153 152 152 152 152 153 151 152 -193 152 154 153 153 156 154 154 154 153 153 153 153 154 150 152 151 151 152 153 153 153 153 153 155 156 157 156 156 156 156 156 156 156 155 154 154 154 154 154 154 153 153 156 152 152 153 152 152 152 152 152 151 153 154 153 154 155 155 155 155 155 154 154 154 154 154 154 153 154 154 155 154 155 154 154 154 153 153 152 153 152 152 153 152 -193 -193 153 153 152 153 153 153 153 153 152 152 151 152 151 150 151 151 151 152 151 152 151 152 153 153 152 152 152 153 153 153 153 153 153 153 153 153 153 154 155 153 154 153 153 155 155 155 153 153 152 153 153 154 154 155 155 155 156 156 155 156 156 154 153 153 153 153 153 153 154 154 159 158 165 164 166 -193 -193 -209 -209 -177 -177 -177 -177 -193 -209 -209 -209 -209 -209 -209 0 0 0 0 0
    0 0 0 0 0 0 0 0 0 0 0 0 0 0 0 0 0 0 0 0 0 0 0 0 0 0 0 0 0 0 0 0 0 0 0 0 0 0 0 0 0 0 0 0 0 0 0 0 0 0 0 0 0 0 0 0 0 0 0 0 0 0 0 0 0 0 0 0 0 153 153 153 153 153 150 153 153 -193 155 155 153 153 153 153 153 155 154 154 154 155 154 156 155 155 152 152 153 153 153 154 154 157 156 158 162 156 157 156 155 154 154 154 153 151 152 -193 152 -177 -177 365 368 -193 153 -193 -193 -193 -193 156 155 155 153 152 152 152 151 152 150 151 151 151 153 152 152 155 153 154 154 153 153 153 154 154 151 152 152 152 153 153 153 154 153 153 155 157 157 156 157 156 156 156 156 156 155 154 154 154 154 154 154 154 153 156 152 153 153 152 152 152 -193 152 151 153 154 153 154 156 155 156 155 155 154 154 154 154 154 154 153 154 154 155 155 155 154 154 154 154 153 153 153 152 152 152 152 -193 -193 153 153 -193 152 -193 152 153 153 152 -193 -193 -193 151 151 -193 152 152 153 152 153 152 153 154 153 152 153 153 153 153 152 153 153 153 153 152 152 153 153 154 152 153 151 152 154 155 155 154 154 153 153 154 155 155 156 155 154 154 156 155 156 155 153 153 153 153 153 153 153 153 154 158 157 164 163 165 166 166 166 166 -193 -193 -193 -177 -177 -209 -177 -209 -209 -209 -209 0 0 0 0 0
    0 0 0 0 0 0 0 0 0 0 0 0 0 0 0 0 0 0 0 0 0 0 0 0 0 0 0 0 0 0 0 0 0 0 0 0 0 0 0 0 0 0 0 0 0 0 0 0 0 0 0 0 0 0 0 0 0 0 0 0 0 0 0 0 0 0 0 0 0 153 153 153 153 153 150 153 154 153 155 156 154 154 152 154 154 156 154 154 154 155 154 155 154 154 152 153 153 153 154 154 154 157 156 158 162 156 157 156 156 155 154 154 153 152 153 -193 152 -177 -193 -193 -193 -193 153 -193 -193 -193 -193 156 155 154 153 151 151 151 150 151 149 150 149 150 152 151 152 155 153 154 154 153 153 153 154 154 152 153 153 153 155 154 154 154 153 154 155 157 157 156 157 156 156 156 156 155 154 154 154 153 153 154 154 154 153 155 152 153 153 152 152 152 -193 151 150 153 154 153 154 155 155 155 155 154 153 153 154 154 154 153 153 154 154 155 155 155 154 155 155 154 153 153 153 152 152 152 151 151 -193 153 153 -193 -193 -193 -193 153 153 -193 -209 -193 -193 -193 152 -193 -193 153 153 153 154 153 154 154 154 153 153 153 153 153 152 153 153 153 153 152 152 153 153 154 151 153 151 154 156 158 157 157 156 154 155 155 157 156 157 155 153 153 156 155 156 153 152 152 152 153 153 152 153 153 153 157 157 164 162 164 165 166 166 166 166 166 -193 -209 -209 -209 850 -209 -193 -209 -209 0 0 0 0 0
    0 0 0 0 0 0 0 0 0 0 0 0 0 0 0 0 0 0 0 0 0 0 0 0 0 0 0 0 0 0 0 0 0 0 0 0 0 0 0 0 0 0 0 0 0 0 0 0 0 0 0 0 0 0 0 0 0 0 0 0 0 0 0 0 0 0 0 0 0 153 153 153 153 153 151 154 154 154 156 156 156 156 153 155 154 156 154 154 154 154 154 156 155 156 154 155 -193 156 156 156 156 158 157 158 161 156 156 155 155 154 154 154 153 152 153 153 153 -193 -193 -193 -193 153 153 153 152 -193 -193 155 154 153 152 150 151 151 150 150 148 150 150 151 151 151 152 -193 154 154 -193 153 153 153 154 154 152 152 153 153 155 154 154 154 153 154 155 157 157 156 156 156 156 155 155 155 154 154 154 153 153 155 154 154 153 155 152 153 154 153 152 152 152 152 150 153 154 153 154 155 155 154 154 154 153 153 152 153 153 153 153 153 154 155 155 155 154 154 155 154 153 152 153 152 152 152 151 151 -209 -193 153 -193 -193 -193 -193 154 154 -193 -209 -193 -193 -193 152 -193 -193 -193 153 153 154 153 154 154 154 153 153 154 153 153 153 154 154 153 153 152 152 152 152 153 149 151 150 153 155 156 157 157 155 154 154 155 156 155 155 152 151 151 153 153 154 152 152 152 152 153 152 152 152 152 153 156 157 163 161 163 164 166 166 166 166 166 163 163 157 158 -193 -209 -209 -209 -209 0 0 0 0 0
    0 0 0 0 0 0 0 0 0 0 0 0 0 0 0 0 0 0 0 0 0 0 0 0 0 0 0 0 0 0 0 0 0 0 0 0 0 0 0 0 0 0 0 0 0 0 0 0 0 0 0 0 0 0 0 0 0 0 0 0 0 0 0 0 0 0 0 0 0 153 153 153 153 154 151 154 155 154 155 156 155 155 153 154 153 155 154 153 154 154 154 156 156 157 155 157 157 158 157 157 156 157 156 156 157 154 155 154 154 154 154 154 154 153 154 153 153 154 152 153 153 153 153 153 152 154 152 154 153 152 151 150 150 150 149 150 149 150 150 151 151 151 152 -193 153 154 153 153 153 153 153 154 152 152 152 153 155 154 155 155 153 154 155 156 156 155 156 155 155 155 155 155 154 155 155 153 154 156 154 154 154 155 153 153 154 153 152 152 152 151 150 152 153 152 154 155 155 154 154 153 152 152 151 152 151 151 151 152 153 153 153 155 153 154 154 153 153 152 152 151 151 151 150 150 152 152 153 -193 153 -193 153 154 154 152 152 151 152 151 152 152 -193 152 153 152 153 153 154 153 154 152 153 154 154 154 153 154 154 154 154 153 153 153 153 154 -193 151 151 154 154 154 154 155 152 152 150 153 155 155 155 152 152 151 153 153 154 151 151 151 151 152 152 152 152 151 154 156 157 163 160 162 163 165 165 165 165 165 161 165 161 162 -209 -209 -209 -209 -209 0 0 0 0 0
    0 0 0 0 0 0 0 0 0 0 0 0 0 0 0 0 0 0 0 0 0 0 0 0 0 0 0 0 0 0 0 0 0 0 0 0 0 0 0 0 0 0 0 0 0 0 0 0 0 0 0 0 0 0 0 0 0 0 0 0 0 0 0 0 0 0 0 0 0 153 153 153 153 153 152 154 155 154 155 156 155 155 154 154 153 154 154 153 153 154 155 157 157 158 157 159 159 159 158 157 156 156 155 155 155 153 153 153 153 153 153 153 154 153 154 153 152 154 153 153 153 153 153 154 153 154 153 154 153 152 150 -193 -193 -193 149 151 150 151 150 150 151 151 152 154 153 153 153 153 153 153 153 153 152 152 152 152 154 155 155 154 152 152 153 154 155 154 154 154 154 154 154 154 154 154 155 153 154 157 155 156 156 156 154 154 154 153 152 152 152 151 150 152 152 152 154 154 154 154 154 153 152 152 151 151 151 151 151 151 151 152 152 154 153 154 154 153 153 153 153 151 151 151 150 150 152 152 152 152 153 153 153 153 153 152 152 151 152 151 151 151 152 151 152 152 153 153 153 153 154 152 153 154 153 153 153 154 154 154 154 153 153 154 154 154 153 153 152 153 -193 153 153 153 150 151 148 150 -193 154 157 154 153 153 153 153 155 151 151 151 151 152 152 152 152 151 154 157 158 163 159 161 163 165 164 165 165 165 161 166 166 165 -193 -209 -209 -209 847 0 0 0 0 0
    0 0 0 0 0 0 0 0 0 0 0 0 0 0 0 0 0 0 0 0 0 0 0 0 0 0 0 0 0 0 0 0 0 0 0 0 0 0 0 0 0 0 0 0 0 0 0 0 0 0 0 0 0 0 0 0 0 0 0 0 0 0 0 0 0 0 0 0 0 153 153 153 153 153 152 154 155 154 156 156 155 154 154 154 153 -209 -193 153 153 154 -193 157 158 160 159 161 161 162 160 158 157 156 155 154 154 152 153 152 152 152 152 -193 154 153 154 153 152 -193 153 153 153 153 153 153 153 154 152 152 152 -193 -193 -193 -193 -209 148 150 150 150 149 149 150 150 152 154 153 153 153 153 153 153 153 153 152 151 -193 -193 155 155 155 155 152 152 152 153 154 153 153 153 153 154 154 154 153 154 155 154 154 157 155 156 157 156 154 154 155 -193 -193 -193 -193 151 150 151 151 151 153 154 154 154 154 153 -193 152 151 152 151 151 150 150 151 151 152 154 153 154 154 153 153 153 153 151 151 151 150 150 152 152 152 152 153 153 153 153 153 152 152 151 152 151 151 151 152 151 151 151 152 153 153 153 154 152 153 154 153 153 153 154 154 154 154 154 153 154 154 154 153 153 152 152 153 153 153 153 150 151 149 151 154 154 155 152 152 152 153 153 155 151 151 151 152 153 153 153 152 152 154 157 159 162 159 161 164 166 166 166 166 166 164 168 169 166 164 -193 166 171 -193 0 0 0 0 0
    0 0 0 0 0 0 0 0 0 0 0 0 0 0 0 0 0 0 0 0 0 0 0 0 0 0 0 0 0 0 0 0 0 0 0 0 0 0 0 0 0 0 0 0 0 0 0 0 0 0 0 0 0 0 0 0 0 0 0 0 0 0 0 0 0 0 0 0 0 153 153 153 153 153 153 154 155 154 156 156 155 154 153 153 152 -209 -209 -193 153 154 -193 -193 -193 159 159 161 161 162 160 158 157 156 155 153 154 151 152 152 151 152 152 152 154 153 154 153 152 153 153 153 153 153 153 153 153 153 151 148 149 -193 -193 -193 -177 -193 -193 149 148 149 147 148 149 150 152 154 153 153 153 153 153 153 153 153 -193 -193 -193 -193 155 155 155 155 152 152 152 152 153 152 153 153 153 154 154 154 153 154 155 154 154 157 155 156 157 156 154 154 155 -193 -193 -193 -193 -193 151 151 151 151 153 154 154 154 154 153 -193 152 151 152 151 151 150 150 150 150 152 153 153 153 154 153 153 153 153 151 151 151 150 150 152 151 152 152 153 153 153 153 153 152 152 151 151 151 151 151 152 152 151 151 153 153 153 153 154 152 153 154 153 153 153 154 154 154 154 154 153 154 154 154 153 153 152 152 153 153 153 153 151 152 151 153 157 155 155 151 150 151 152 152 153 151 151 151 152 154 153 153 153 153 154 157 159 161 158 161 164 166 166 166 166 165 164 167 168 165 162 161 163 169 181 0 0 0 0 0
    0 0 0 0 0 0 0 0 0 0 0 0 0 0 0 0 0 0 0 0 0 0 0 0 0 0 0 0 0 0 0 0 0 0 0 0 0 0 0 0 0 0 0 0 0 0 0 0 0 0 0 0 0 0 0 0 0 0 0 0 0 0 0 0 0 0 0 0 0 153 153 153 153 153 153 155 156 155 156 156 156 155 -193 -209 -193 -193 -209 -193 152 153 -209 -193 -193 158 158 160 160 161 159 158 157 156 156 154 154 152 152 152 151 152 152 152 154 153 154 152 151 152 152 152 153 153 153 153 153 153 152 148 150 -193 -193 -193 -193 -193 -193 148 148 -193 146 148 148 149 152 154 153 153 153 153 154 153 153 -193 -209 -193 -193 -193 155 155 155 154 152 151 152 152 152 152 152 153 152 153 -193 154 153 154 155 153 154 157 155 156 157 156 154 154 155 -193 -193 -193 -193 -193 151 151 151 150 153 154 153 154 -193 -193 -193 153 152 153 152 151 150 150 150 150 151 152 152 153 153 153 153 153 153 151 151 151 150 150 151 151 151 152 153 153 153 154 -193 -193 152 151 151 151 151 151 152 152 152 152 153 153 153 153 154 151 153 153 153 152 153 154 154 154 154 154 154 154 154 154 153 153 152 152 153 153 153 153 151 153 152 154 159 156 155 150 150 151 152 151 152 151 151 151 152 154 153 153 153 153 154 157 159 161 158 160 164 166 166 166 166 166 164 167 167 163 160 159 159 166 173 0 0 0 0 0
    0 0 0 0 0 0 0 0 0 0 0 0 0 0 0 0 0 0 0 0 0 0 0 0 0 0 0 0 0 0 0 0 0 0 0 0 0 0 0 0 0 0 0 0 0 0 0 0 0 0 0 0 0 0 0 0 0 0 0 0 0 0 0 0 0 0 0 0 0 152 153 153 153 153 154 155 155 154 156 156 156 -193 0 -193 -193 -209 -209 -193 -193 -193 -193 158 159 160 160 161 161 161 159 157 157 156 155 153 153 151 152 152 151 152 152 151 154 153 -193 -209 150 152 151 152 153 153 153 153 153 -193 -209 -209 -209 -177 -177 -193 -193 -193 -193 148 -193 -193 146 147 148 150 152 154 154 153 153 153 154 153 154 153 153 152 153 153 155 154 154 153 151 151 151 151 152 151 152 152 152 153 -193 153 153 154 155 154 154 158 156 157 158 156 154 155 155 -193 -177 -193 -177 -193 151 151 150 150 153 153 153 154 -193 -193 -193 154 153 153 -193 152 150 150 149 150 150 151 151 152 153 153 153 154 153 151 151 151 150 149 151 151 151 153 153 153 154 154 -209 -209 151 151 150 150 150 151 152 151 -193 153 153 153 154 153 153 150 152 152 152 152 153 154 155 155 155 155 155 155 155 154 153 153 152 152 153 -193 153 153 151 153 152 153 158 155 153 149 150 151 151 151 152 150 150 151 153 154 153 152 152 152 154 156 158 159 157 159 164 166 166 166 166 166 164 166 166 162 159 161 159 162 169 0 0 0 0 0
    0 0 0 0 0 0 0 0 0 0 0 0 0 0 0 0 0 0 0 0 0 0 0 0 0 0 0 0 0 0 0 0 0 0 0 0 0 0 0 0 0 0 0 0 0 0 0 0 0 0 0 0 0 0 0 0 0 0 0 0 0 0 0 0 0 0 0 0 0 152 153 152 153 153 154 155 155 154 155 156 -193 -193 0 0 -193 -193 -193 -193 -193 -209 -209 158 163 -177 164 -193 -209 -193 -209 -209 159 157 157 153 152 152 152 152 151 -209 -193 -193 154 -209 -209 -209 -209 -209 -209 -209 153 152 152 152 -209 -209 -209 -177 -177 -177 -193 -193 -193 400 -209 -209 -193 970 -209 149 149 -193 154 156 155 154 153 154 155 154 154 154 153 152 152 -193 -193 -193 153 153 151 151 151 151 152 151 151 151 151 152 152 152 152 153 154 154 154 159 156 158 159 156 155 155 156 -193 -177 -177 -177 -209 -209 -193 -193 -193 151 152 -209 -209 -209 -209 -209 -193 -209 -209 -209 151 149 149 146 148 147 149 149 151 152 153 154 154 152 151 151 150 149 149 151 150 150 -193 -193 -193 154 -193 -193 -193 -209 152 150 149 149 150 151 150 -193 -193 150 151 152 151 152 149 150 151 151 152 155 156 156 157 156 156 -193 157 156 155 154 -193 152 152 153 153 153 152 151 152 152 -193 157 154 -193 152 152 152 -193 152 152 152 151 152 154 154 154 153 153 153 154 158 159 158 157 160 165 167 165 166 166 166 164 166 166 160 157 160 158 161 168 0 0 0 0 0
    0 0 0 0 0 0 0 0 0 0 0 0 0 0 0 0 0 0 0 0 0 0 0 0 0 0 0 0 0 0 0 0 0 0 0 0 0 0 0 0 0 0 0 0 0 0 0 0 0 0 0 0 0 0 0 0 0 0 0 0 0 0 0 0 0 0 0 0 0 152 153 151 151 154 155 -225 -225 156 156 158 156 -193 -193 -209 150 -193 -193 -193 -177 -177 -193 -193 -193 -193 -209 -209 -209 -209 -209 -209 -209 -209 -209 -209 -209 155 -209 -209 -209 -209 -209 -209 -209 -209 -209 -209 -209 -209 -209 -209 -209 -209 -209 -209 -209 -209 -209 -209 -193 -209 -193 629 -193 -209 -193 975 979 972 -209 -209 -209 -193 165 -209 163 163 -193 159 162 162 -193 -193 -193 -193 -193 733 735 -209 -193 153 152 -193 -193 -209 -209 151 151 151 151 -209 -193 -209 151 153 154 -209 156 167 165 164 163 159 157 158 -193 -193 -209 -209 -209 -209 -209 -193 -209 -209 -209 -209 -177 -193 -209 -209 -209 -209 -209 -209 -193 148 145 144 142 144 142 144 145 149 -193 -193 156 155 153 152 151 151 150 148 150 149 149 -193 -209 -193 -209 -209 -193 741 -209 -209 -209 -209 -209 149 149 -193 -193 -193 142 140 138 145 -209 148 144 148 150 153 160 160 158 161 -209 -209 -193 -193 -193 -193 156 -209 -209 -193 -193 154 154 152 150 152 152 155 163 163 168 -209 163 163 161 158 157 155 153 154 156 157 157 155 156 155 155 162 163 159 159 161 166 168 167 167 168 167 166 167 168 162 -209 160 161 165 170 0 0 0 0 0
    0 0 0 0 0 0 0 0 0 0 0 0 0 0 0 0 0 0 0 0 0 0 0 0 0 0 0 0 0 0 0 0 0 0 0 0 0 0 0 0 0 0 0 0 0 0 0 0 0 0 0 0 0 0 0 0 0 0 0 0 0 0 0 0 0 0 0 0 0 -209 -193 -193 190 -225 -225 -225 -225 -209 -209 -209 -193 164 162 156 157 -209 -209 -209 -209 -193 -193 -177 -193 -209 -193 188 192 -193 186 -193 -209 -209 -209 -193 -209 -209 -209 -209 -209 -209 -209 -193 -209 -193 184 187 -209 -209 -193 -209 -209 -209 -209 -193 -209 -209 -209 -209 637 635 635 -193 -209 -209 -193 -177 983 -193 987 -193 -209 -209 -193 -209 -209 -209 -209 -209 -209 -209 -209 -209 -209 727 728 730 733 -193 -193 156 -209 -193 -177 -209 -209 -209 152 -209 -209 -209 -209 -177 -193 -193 79 81 166 171 172 169 168 -193 -193 -193 470 -193 468 466 -209 -209 -209 -209 -209 -193 -193 -209 -209 -209 733 732 -193 -193 -209 -209 -209 144 142 141 139 142 -193 -193 -193 -209 -193 -209 169 169 167 160 -193 152 151 150 151 149 148 448 -177 -193 -209 -209 -209 -209 -209 -209 182 -193 -209 -209 -209 -209 -209 -193 136 135 133 -209 -209 -209 -209 147 -193 155 165 163 162 -193 -209 -209 -209 -193 -193 -193 -193 -209 -209 -193 -193 155 155 153 151 152 154 159 168 169 179 179 173 173 170 -209 164 163 156 156 160 160 161 160 161 162 160 167 169 -209 -193 167 171 171 170 171 171 170 169 170 171 -193 -209 163 164 169 174 0 0 0 0 0
    0 0 0 0 0 0 0 0 0 0 0 0 0 0 0 0 0 0 0 0 0 0 0 0 0 0 0 0 0 0 0 0 0 0 0 0 0 0 0 0 0 0 0 0 0 0 0 0 0 0 0 0 0 0 0 0 0 0 0 0 0 0 0 0 0 0 0 0 0 190 189 189 189 188 193 186 186 184 184 184 182 182 181 178 179 183 182 184 183 185 185 187 188 188 188 189 194 188 187 187 185 -193 -193 -193 -193 185 187 -193 -193 -193 190 191 -193 -193 -209 -193 -209 -193 182 -193 -177 -193 -193 183 184 184 186 -193 -193 640 -193 -193 -209 -209 -209 -209 -209 -209 -209 -209 -209 -193 -193 498 -209 -209 -193 -193 -193 185 187 187 -193 -209 -193 -193 -193 182 -193 171 -193 834 837 -193 -193 -209 -209 -209 -209 1008 -209 -177 -209 -177 -193 -193 177 177 178 171 173 -193 -177 -177 -177 -193 -209 -193 -209 178 -193 -209 -209 -193 -193 185 187 187 732 732 730 731 -209 -209 -209 -209 -209 -209 -209 -193 -193 -209 -209 -193 182 180 179 180 179 178 175 174 163 158 159 -209 -209 -209 -209 -193 -209 -209 -209 -209 186 -193 184 184 184 -193 -193 182 -193 -209 173 -193 -193 -209 -209 -209 -209 -209 -209 -193 -209 -209 165 -209 -209 -193 -209 -209 -209 -193 -209 -209 -209 -209 160 159 159 -193 152 154 159 -193 -209 182 183 183 181 181 -193 180 -209 -193 -193 -209 166 165 165 165 166 169 168 170 174 -209 176 185 182 179 177 175 175 175 173 173 173 -209 170 163 165 171 179 0 0 0 0 0
    0 0 0 0 0 0 0 0 0 0 0 0 0 0 0 0 0 0 0 0 0 0 0 0 0 0 0 0 0 0 0 0 0 0 0 0 0 0 0 0 0 0 0 0 0 0 0 0 0 0 0 0 0 0 0 0 0 0 0 0 0 0 0 0 0 0 0 0 0 190 189 189 189 187 189 186 186 185 185 185 184 184 184 183 184 184 185 185 184 185 185 186 188 188 188 189 192 189 188 187 186 186 185 186 186 184 185 186 -193 186 186 187 184 183 182 183 183 183 183 181 182 184 -193 185 186 185 186 185 -193 -193 -193 186 -209 -193 -209 -193 -209 -209 -193 184 -193 182 182 -193 185 185 185 185 185 185 187 187 183 185 185 -209 -193 184 185 183 183 182 182 179 179 179 178 181 183 182 186 187 190 190 191 186 184 181 181 178 179 -193 -193 -193 -193 181 182 180 180 182 182 183 185 185 186 186 187 188 -193 -193 -193 -193 -193 -193 185 186 186 188 186 188 187 188 187 186 185 183 183 183 182 182 181 181 182 180 185 184 184 185 185 183 184 -209 -209 184 185 186 184 184 184 184 184 183 183 181 178 180 -193 178 177 -193 -209 -209 -209 -209 -209 -209 -209 -193 -209 -209 186 187 187 187 186 185 -209 185 -209 -209 168 -209 165 -209 -193 179 -193 184 185 183 182 182 -193 -193 -193 -193 -193 -193 -193 170 169 170 170 172 173 175 179 -193 179 185 184 180 180 178 177 176 174 174 174 169 172 168 166 176 184 0 0 0 0 0
    0 0 0 0 0 0 0 0 0 0 0 0 0 0 0 0 0 0 0 0 0 0 0 0 0 0 0 0 0 0 0 0 0 0 0 0 0 0 0 0 0 0 0 0 0 0 0 0 0 0 0 0 0 0 0 0 0 0 0 0 0 0 0 0 0 0 0 0 0 191 190 189 189 187 188 186 186 185 185 185 184 185 185 184 184 184 185 185 184 185 186 186 188 188 189 188 191 188 188 186 186 185 184 185 185 184 185 185 -193 185 185 185 183 182 181 182 182 183 183 183 184 185 186 187 187 186 186 185 186 -193 184 186 -209 -193 184 -193 -193 -193 186 185 185 182 183 186 184 184 185 185 185 185 187 187 184 185 186 -193 185 185 185 183 183 182 183 181 180 180 181 182 183 184 186 186 188 188 188 186 184 182 181 180 180 180 182 181 182 182 183 182 182 183 183 184 185 185 186 186 188 188 188 187 186 186 -193 183 184 184 185 185 185 187 187 188 189 186 185 184 184 184 183 183 182 180 181 180 183 182 181 182 182 182 183 183 184 184 184 186 184 184 184 184 184 183 183 182 180 182 180 180 179 177 -193 177 -209 -193 -209 -193 187 189 188 187 188 189 189 188 187 187 186 187 188 183 180 182 182 186 182 182 184 184 184 183 183 183 182 182 180 -193 -193 -193 174 174 173 174 174 178 181 182 183 183 182 185 183 182 -193 179 177 177 175 174 176 172 174 171 168 182 187 0 0 0 0 0
    0 0 0 0 0 0 0 0 0 0 0 0 0 0 0 0 0 0 0 0 0 0 0 0 0 0 0 0 0 0 0 0 0 0 0 0 0 0 0 0 0 0 0 0 0 0 0 0 0 0 0 0 0 0 0 0 0 0 0 0 0 0 0 0 0 0 0 0 0 191 190 189 188 187 188 186 186 186 186 186 185 186 186 185 185 185 186 186 185 186 187 187 188 189 189 188 190 188 188 186 186 185 184 185 185 184 184 185 184 184 184 184 183 182 181 182 182 183 184 185 185 187 186 187 187 187 186 185 186 -193 184 185 -193 -193 184 184 185 185 185 185 185 182 183 186 185 185 185 185 185 185 187 187 184 185 186 185 185 184 185 183 183 182 183 181 181 180 182 183 184 185 186 186 187 187 188 185 182 181 180 180 180 181 182 182 183 183 183 183 182 183 183 184 184 185 185 185 187 188 188 187 -193 186 184 182 184 184 183 184 184 186 186 187 188 186 185 185 184 185 183 183 182 180 181 180 182 181 180 180 181 181 182 182 184 183 184 186 184 184 185 184 185 184 184 183 180 183 180 180 179 177 179 178 180 -209 181 185 187 189 188 187 188 189 188 188 187 187 186 187 186 181 180 182 181 185 181 183 183 183 184 182 183 183 182 182 180 179 178 -193 177 177 175 177 178 181 183 184 184 184 184 185 183 182 182 180 180 181 181 180 181 181 182 181 183 184 189 0 0 0 0 0
    0 0 0 0 0 0 0 0 0 0 0 0 0 0 0 0 0 0 0 0 0 0 0 0 0 0 0 0 0 0 0 0 0 0 0 0 0 0 0 0 0 0 0 0 0 0 0 0 0 0 0 0 0 0 0 0 0 0 0 0 0 0 0 0 0 0 0 0 0 192 189 189 188 187 188 186 186 186 186 186 185 186 186 185 185 185 187 186 186 187 188 187 188 189 189 188 189 188 188 186 186 185 184 185 185 184 184 184 184 184 184 184 183 182 181 182 183 184 185 185 186 187 187 187 188 187 187 186 186 185 184 185 185 -193 184 184 185 184 184 184 184 182 183 187 185 185 185 185 185 185 186 186 183 185 185 185 185 184 185 183 184 183 183 181 181 181 182 183 184 185 187 187 187 187 188 185 183 182 181 180 181 181 183 182 183 183 184 183 183 183 184 184 184 184 185 185 187 188 187 187 185 185 183 182 183 184 183 183 184 186 185 187 188 186 185 185 185 185 184 183 181 179 180 179 182 181 180 180 181 181 183 183 184 183 184 186 184 185 185 185 185 184 184 183 180 183 180 180 179 177 179 178 180 182 182 185 187 188 187 187 188 188 188 188 187 187 186 187 185 181 181 182 182 185 182 183 184 183 184 182 183 183 182 182 181 180 179 175 178 177 176 177 178 181 183 185 184 185 185 185 183 183 183 180 180 181 181 181 182 183 184 184 186 186 192 0 0 0 0 0
    0 0 0 0 0 0 0 0 0 0 0 0 0 0 0 0 0 0 0 0 0 0 0 0 0 0 0 0 0 0 0 0 0 0 0 0 0 0 0 0 0 0 0 0 0 0 0 0 0 0 0 0 0 0 0 0 0 0 0 0 0 0 0 0 0 0 0 0 0 192 189 189 188 187 188 186 186 185 185 186 185 185 185 185 184 185 187 187 186 187 188 187 188 189 188 188 189 188 188 186 186 185 185 186 186 185 184 185 184 184 183 183 182 182 181 182 182 183 184 185 186 187 187 187 187 187 187 186 186 185 185 186 185 184 184 184 185 184 184 184 184 182 183 187 185 185 185 185 185 184 186 186 183 184 185 185 185 184 185 184 184 183 183 182 182 181 182 183 184 185 187 187 187 187 188 186 183 182 182 181 182 182 183 182 183 184 184 183 183 184 184 184 184 184 185 185 187 187 187 186 184 185 183 182 182 183 183 183 183 185 185 187 188 186 186 185 185 185 184 184 182 180 180 180 182 182 180 181 181 182 183 183 184 184 184 186 184 185 185 185 185 184 184 184 180 183 180 179 179 177 180 180 182 184 183 186 187 188 187 187 187 188 188 188 187 187 186 187 184 182 181 183 182 185 182 183 184 184 184 183 183 183 182 182 181 181 180 177 180 179 178 179 179 181 183 185 184 184 184 184 184 183 183 181 181 181 181 181 183 183 184 184 187 188 195 0 0 0 0 0
    0 0 0 0 0 0 0 0 0 0 0 0 0 0 0 0 0 0 0 0 0 0 0 0 0 0 0 0 0 0 0 0 0 0 0 0 0 0 0 0 0 0 0 0 0 0 0 0 0 0 0 0 0 0 0 0 0 0 0 0 0 0 0 0 0 0 0 0 0 192 189 189 187 187 187 186 185 185 185 186 185 185 185 184 184 185 187 187 187 187 188 187 188 189 188 188 188 189 188 187 187 186 185 186 186 185 184 184 184 184 183 183 182 182 181 182 183 184 185 186 187 188 187 187 187 187 186 186 186 185 184 186 185 185 184 184 185 184 184 185 184 182 183 187 185 185 186 185 185 -193 186 186 183 184 185 185 186 185 185 184 184 183 183 182 182 182 182 183 184 184 186 186 186 186 187 185 183 183 182 182 182 182 184 183 183 184 184 183 183 183 183 183 183 183 185 185 186 187 186 186 184 184 183 181 182 182 183 183 183 185 185 186 187 186 186 185 185 185 184 184 182 180 181 180 182 182 181 180 181 181 183 182 184 183 184 186 184 185 185 184 185 183 183 183 179 181 177 178 178 177 180 181 182 185 185 187 187 188 187 186 186 186 186 186 186 186 184 185 182 181 181 182 181 184 181 183 184 184 184 183 183 183 182 182 181 181 180 178 180 179 179 180 180 182 183 184 184 183 184 183 184 183 184 182 182 182 182 182 184 183 184 185 188 189 195 0 0 0 0 0
    0 0 0 0 0 0 0 0 0 0 0 0 0 0 0 0 0 0 0 0 0 0 0 0 0 0 0 0 0 0 0 0 0 0 0 0 0 0 0 0 0 0 0 0 0 0 0 0 0 0 0 0 0 0 0 0 0 0 0 0 0 0 0 0 0 0 0 0 0 190 188 188 187 186 187 186 185 185 185 186 185 185 185 184 185 185 186 187 187 187 188 187 188 189 188 188 188 189 187 186 187 186 185 186 186 185 184 184 184 183 183 183 182 182 182 183 183 184 185 187 187 188 187 187 187 186 186 185 185 185 184 185 185 185 184 184 184 184 184 185 183 182 183 186 185 185 186 185 185 185 186 186 183 184 185 185 186 185 185 184 185 183 183 182 182 181 182 183 183 183 185 185 186 186 187 186 184 184 183 183 183 183 184 183 183 184 183 182 182 183 183 182 182 183 184 184 185 186 185 184 183 183 182 181 181 182 183 183 183 184 185 186 187 186 186 185 184 185 184 183 181 179 180 179 182 182 181 180 181 181 183 182 184 184 184 186 185 185 185 184 185 184 184 184 180 181 177 179 177 178 182 183 183 186 187 189 187 188 186 185 185 185 184 185 184 185 183 184 182 182 182 182 181 183 180 183 183 183 184 182 182 182 181 181 180 180 180 177 180 180 180 181 181 183 184 184 183 183 183 182 183 183 183 182 182 182 182 183 184 184 185 185 189 189 195 0 0 0 0 0
    0 0 0 0 0 0 0 0 0 0 0 0 0 0 0 0 0 0 0 0 0 0 0 0 0 0 0 0 0 0 0 0 0 0 0 0 0 0 0 0 0 0 0 0 0 0 0 0 0 0 0 0 0 0 0 0 0 0 0 0 0 0 0 0 0 0 0 0 0 190 188 188 187 186 186 185 185 185 185 185 184 185 185 184 185 185 187 188 188 188 188 187 189 189 189 188 187 188 187 186 187 186 185 186 185 185 184 184 183 183 182 182 182 182 182 183 183 184 185 187 187 188 188 187 187 187 187 186 186 185 184 186 185 185 184 184 184 184 184 185 183 182 183 186 185 185 186 184 185 184 186 186 183 184 185 184 186 184 185 183 184 183 183 182 181 181 181 182 183 183 185 185 186 186 187 187 185 186 185 184 185 183 184 183 184 184 184 183 183 183 184 183 183 183 183 183 185 186 186 184 184 184 183 181 182 183 183 183 183 184 185 186 187 186 185 185 184 185 184 183 181 179 180 180 181 182 181 181 182 182 183 182 184 185 184 186 185 185 186 185 186 185 184 184 181 183 182 183 182 181 184 185 185 187 187 188 188 188 186 185 185 184 184 184 183 184 183 184 183 183 183 183 182 184 181 183 183 183 184 182 182 182 181 181 180 180 180 178 180 180 181 181 182 183 184 184 183 183 183 182 183 183 183 182 182 183 183 184 186 186 189 189 191 191 195 0 0 0 0 0
    0 0 0 0 0 0 0 0 0 0 0 0 0 0 0 0 0 0 0 0 0 0 0 0 0 0 0 0 0 0 0 0 0 0 0 0 0 0 0 0 0 0 0 0 0 0 0 0 0 0 0 0 0 0 0 0 0 0 0 0 0 0 0 0 0 0 0 0 0 189 188 188 187 186 186 185 185 184 185 185 184 184 185 184 185 185 188 188 188 189 189 187 189 189 189 188 187 189 187 187 187 186 185 186 185 185 184 184 183 183 182 182 182 182 182 183 183 184 185 187 188 188 188 188 187 188 187 186 186 185 184 186 185 185 184 184 184 183 184 184 183 182 182 184 184 185 185 184 184 184 186 186 183 184 185 185 186 185 185 182 183 183 182 181 180 181 181 182 183 184 185 186 186 188 189 189 187 187 185 185 185 183 183 183 184 184 184 183 183 183 184 183 183 183 183 183 185 186 187 184 185 185 183 182 182 183 182 182 183 184 184 185 187 186 185 184 184 184 183 183 181 177 181 180 181 182 181 181 182 182 183 182 183 185 184 186 185 185 185 185 186 185 184 185 182 184 185 186 185 185 186 187 187 188 188 188 187 187 185 185 184 184 183 184 182 183 183 184 183 184 183 184 183 184 183 183 183 183 184 183 182 182 181 182 181 181 181 180 182 182 181 182 183 183 184 183 183 183 183 182 183 183 183 182 183 183 183 185 187 189 192 194 193 192 194 0 0 0 0 0
    0 0 0 0 0 0 0 0 0 0 0 0 0 0 0 0 0 0 0 0 0 0 0 0 0 0 0 0 0 0 0 0 0 0 0 0 0 0 0 0 0 0 0 0 0 0 0 0 0 0 0 0 0 0 0 0 0 0 0 0 0 0 0 0 0 0 0 0 0 189 187 187 187 186 186 185 185 184 184 185 184 184 185 184 185 185 188 189 188 189 189 188 189 190 189 188 187 189 188 187 188 186 186 186 185 185 183 184 183 183 182 182 182 182 182 183 183 184 185 188 188 189 188 188 187 188 187 186 186 185 185 186 185 185 184 184 183 183 183 184 183 182 182 184 184 185 185 184 184 184 -193 -193 -193 -193 185 -193 186 185 185 181 182 183 182 181 180 181 181 182 183 184 185 186 187 188 189 189 187 187 185 -193 185 183 184 183 184 184 184 183 183 183 184 183 183 183 183 183 185 186 187 184 186 185 183 182 182 182 182 182 183 184 184 185 186 185 185 184 184 183 183 183 181 179 182 182 182 183 182 182 183 183 184 183 184 185 185 186 186 186 186 185 186 185 185 185 184 186 187 187 187 188 188 188 188 189 188 187 187 186 185 184 184 183 183 183 181 183 183 184 183 184 184 184 183 184 183 183 184 183 184 183 182 183 182 182 182 182 182 182 183 184 -193 184 184 184 183 183 183 183 183 182 183 183 182 182 183 184 184 186 189 -193 195 197 194 193 195 0 0 0 0 0
    0 0 0 0 0 0 0 0 0 0 0 0 0 0 0 0 0 0 0 0 0 0 0 0 0 0 0 0 0 0 0 0 0 0 0 0 0 0 0 0 0 0 0 0 0 0 0 0 0 0 0 0 0 0 0 0 0 0 0 0 0 0 0 0 0 0 0 0 0 188 187 187 186 186 186 185 185 183 183 184 183 183 185 184 185 186 188 189 189 189 189 188 189 190 190 188 187 189 188 187 188 186 186 186 186 186 183 184 183 183 182 182 182 182 182 183 183 184 185 188 188 188 188 188 187 188 188 187 186 185 185 186 185 185 184 183 183 182 183 183 182 182 182 184 184 185 186 184 184 184 -193 -193 -193 -193 184 -193 186 185 184 182 183 183 182 181 180 181 181 182 183 184 185 186 187 188 190 190 -193 -193 186 -193 185 184 184 183 184 184 184 183 182 183 184 183 183 183 183 183 185 185 187 184 187 185 184 182 182 183 183 182 183 183 184 184 186 185 184 184 184 183 182 182 181 179 183 183 183 184 183 183 184 184 185 183 184 186 186 186 186 186 186 185 186 186 185 185 184 186 187 187 188 189 189 189 188 189 188 187 187 186 184 184 183 183 183 183 181 183 183 183 183 184 183 184 183 184 183 183 184 184 184 183 182 183 183 183 183 183 183 183 185 186 -193 184 184 183 183 183 183 183 183 183 184 184 184 184 185 187 189 191 196 -193 198 199 196 195 195 0 0 0 0 0
    0 0 0 0 0 0 0 0 0 0 0 0 0 0 0 0 0 0 0 0 0 0 0 0 0 0 0 0 0 0 0 0 0 0 0 0 0 0 0 0 0 0 0 0 0 0 0 0 0 0 0 0 0 0 0 0 0 0 0 0 0 0 0 0 0 0 0 0 0 187 186 186 186 185 185 184 184 182 182 182 182 182 184 183 184 186 188 189 189 190 189 188 189 190 190 189 187 190 188 188 188 187 186 186 186 186 183 184 183 183 182 182 182 182 182 183 184 184 185 187 188 188 188 188 187 188 188 187 186 186 185 186 185 185 184 183 183 182 183 183 182 182 182 184 184 185 185 183 184 184 186 -193 -193 -193 184 -193 187 185 184 182 183 183 182 181 180 180 181 181 182 183 185 186 188 190 192 193 -193 -193 190 188 186 184 183 182 184 183 183 182 182 183 184 183 183 183 183 184 185 186 187 185 188 186 184 182 182 183 183 183 183 183 184 184 186 185 184 183 183 182 182 182 180 180 183 184 184 184 183 184 184 184 185 184 185 186 186 187 186 186 186 185 186 186 185 185 184 186 187 188 188 189 189 189 188 189 189 187 187 186 184 184 183 183 182 183 181 183 183 184 183 184 184 184 183 184 184 183 184 185 185 184 183 184 183 183 183 183 183 183 184 185 -193 184 183 183 183 183 182 183 183 183 184 185 185 185 187 189 195 196 199 199 200 200 197 195 195 0 0 0 0 0
    0 0 0 0 0 0 0 0 0 0 0 0 0 0 0 0 0 0 0 0 0 0 0 0 0 0 0 0 0 0 0 0 0 0 0 0 0 0 0 0 0 0 0 0 0 0 0 0 0 0 0 0 0 0 0 0 0 0 0 0 0 0 0 0 0 0 0 0 0 186 186 186 187 185 185 183 183 181 182 181 181 181 184 183 184 186 187 190 189 190 189 188 189 190 190 189 187 190 188 188 188 187 187 186 186 186 184 184 183 183 181 182 182 182 182 183 184 184 185 187 187 188 188 188 186 188 188 187 186 186 185 187 186 185 184 184 183 183 183 183 181 181 181 183 183 184 185 183 183 184 186 -193 -209 -193 184 -209 187 -193 184 181 182 183 181 180 179 180 180 180 181 182 184 186 188 189 192 194 -193 -193 194 192 187 184 183 182 183 183 183 182 181 182 184 183 183 183 184 184 185 186 187 185 189 186 184 182 182 183 183 183 184 183 184 184 185 185 184 183 182 180 181 181 181 181 184 184 184 184 184 184 185 185 185 184 185 186 187 187 186 186 185 185 186 186 185 185 184 186 187 188 188 190 189 189 188 189 189 187 187 186 184 184 183 183 182 182 181 182 183 184 184 184 184 184 183 184 -193 182 184 184 184 184 182 184 183 183 183 183 184 183 184 185 -193 183 183 183 182 182 182 182 182 182 183 184 184 184 188 191 196 198 199 200 200 201 198 196 196 0 0 0 0 0</data></disparity>
</opencv_storage>
