<?xml version="1.0"?>
<opencv_storage>
<gps_time_stamp>24657</gps_time_stamp>
<gps_x>-4.5620474815368652e+000</gps_x>
<gps_y>5.7376438379287720e-001</gps_y>
<gps_z>-8.6335229873657227e-001</gps_z>
<image_time_stamp>12566</image_time_stamp>
<disparity type_id="opencv-matrix">
  <rows>82</rows>
  <cols>320</cols>
  <dt>s</dt>
  <data>
    0 0 0 0 0 0 0 0 0 0 0 0 0 0 0 0 0 0 0 0 0 0 0 0 0 0 0 0 0 0 0 0 0 0 0 0 0 0 0 0 0 0 0 0 0 0 0 0 0 0 0 0 0 0 0 0 0 0 0 0 0 0 0 0 0 0 0 0 0 -193 -193 -193 69 70 69 69 69 70 70 71 69 71 69 70 71 70 70 69 69 71 70 72 73 72 72 71 71 71 71 71 70 68 69 70 71 71 73 72 73 74 74 74 74 72 70 70 71 70 71 70 71 68 72 74 -193 73 71 71 70 69 69 69 69 70 69 70 69 70 70 72 -193 71 70 71 69 72 71 71 71 71 71 71 71 72 71 71 72 72 73 73 72 71 71 70 70 70 70 71 71 71 72 71 72 74 74 75 73 72 73 72 72 72 71 70 70 70 70 70 71 71 73 75 -209 -209 -209 874 869 -177 -209 181 182 178 177 176 175 174 176 176 174 170 184 193 198 188 186 186 186 186 186 188 186 184 185 190 190 188 187 187 187 186 187 188 185 184 -209 77 76 77 76 78 78 85 87 -193 905 -209 -209 -193 -193 -193 -177 -193 -193 -193 -209 539 147 151 154 156 157 158 158 159 158 156 155 154 153 153 134 128 125 122 119 -209 -209 86 85 85 85 83 82 84 83 81 80 79 80 76 78 79 76 75 76 77 76 76 75 75 77 78 79 79 76 78 78 84 87 96 105 -209 -193 -193 150 0 0 0 0 0
    0 0 0 0 0 0 0 0 0 0 0 0 0 0 0 0 0 0 0 0 0 0 0 0 0 0 0 0 0 0 0 0 0 0 0 0 0 0 0 0 0 0 0 0 0 0 0 0 0 0 0 0 0 0 0 0 0 0 0 0 0 0 0 0 0 0 0 0 0 938 938 939 -193 -193 69 69 69 71 71 71 70 72 71 72 74 73 72 71 70 72 71 72 75 73 73 -209 -193 72 72 72 71 69 71 71 72 72 74 74 75 75 75 74 75 -209 -193 71 70 -209 -209 -209 -209 -193 71 -193 -209 74 70 71 70 69 69 69 69 70 69 71 70 70 71 -193 -193 -193 71 71 69 72 71 71 71 71 71 72 72 73 72 73 74 75 75 75 74 73 72 72 71 70 71 71 72 72 73 72 74 76 77 77 76 74 75 74 74 74 72 71 70 70 71 71 71 71 73 76 -209 885 -177 -209 -209 -193 -209 179 182 178 177 176 176 174 176 176 175 170 184 195 197 190 186 185 185 185 185 188 185 184 185 189 190 188 187 187 186 186 186 187 185 184 -209 82 79 80 80 85 86 89 89 94 -209 -193 -209 -177 -177 -177 -177 -193 -177 -177 -209 -209 146 150 154 155 157 158 158 159 158 156 154 154 153 152 134 130 125 122 120 -209 -209 86 84 85 85 82 81 83 83 80 80 82 83 79 83 85 80 79 79 80 77 77 76 75 77 78 79 80 76 78 -193 84 87 96 -193 -209 -209 -193 150 0 0 0 0 0
    0 0 0 0 0 0 0 0 0 0 0 0 0 0 0 0 0 0 0 0 0 0 0 0 0 0 0 0 0 0 0 0 0 0 0 0 0 0 0 0 0 0 0 0 0 0 0 0 0 0 0 0 0 0 0 0 0 0 0 0 0 0 0 0 0 0 0 0 0 938 939 -209 -209 -193 70 70 69 71 71 -193 -209 73 -209 76 -193 85 89 87 74 76 76 74 78 75 75 -193 -193 75 75 74 -209 71 -193 -209 -193 -193 80 -193 -193 -193 86 -193 -193 -209 -209 -209 -193 -193 -193 983 982 -209 -209 -209 -209 -209 71 72 -193 70 70 69 70 71 70 72 71 72 73 75 75 75 74 72 72 -193 -209 -209 -209 -193 -193 -193 73 75 74 75 78 78 79 79 78 76 74 74 73 72 72 73 74 -193 75 -193 76 79 82 81 79 76 76 76 75 75 73 72 71 71 71 72 72 72 75 83 -209 -177 -177 -209 -209 876 -193 175 182 178 177 176 176 174 177 177 176 170 185 195 194 191 186 184 184 184 184 187 184 184 185 188 190 188 188 188 186 186 186 186 184 183 -209 85 83 83 84 88 91 93 93 96 98 91 -193 -193 -177 -177 -177 -193 -177 -177 -177 -209 -193 150 154 156 157 159 158 160 158 155 154 154 153 152 137 133 132 123 -193 -209 -209 86 84 85 84 82 81 84 84 80 80 84 85 80 84 88 82 81 82 83 79 79 77 76 78 79 81 80 76 78 -193 84 88 96 -193 -209 -209 -193 150 0 0 0 0 0
    0 0 0 0 0 0 0 0 0 0 0 0 0 0 0 0 0 0 0 0 0 0 0 0 0 0 0 0 0 0 0 0 0 0 0 0 0 0 0 0 0 0 0 0 0 0 0 0 0 0 0 0 0 0 0 0 0 0 0 0 0 0 0 0 0 0 0 0 0 -209 -209 -209 -209 936 -209 -209 -193 -193 -209 -209 -177 -193 -209 -209 91 93 94 94 91 90 86 76 82 78 77 -193 -193 -193 79 77 -193 72 -209 -209 -193 -193 -209 -193 -193 -209 91 -209 980 979 -193 979 982 980 982 972 -209 -193 -209 -209 -209 -209 -209 -209 -193 70 70 69 70 71 70 73 -193 73 80 -193 81 85 87 87 90 -209 -209 -193 -193 -193 -193 -193 -193 76 75 77 84 -193 -193 84 84 82 78 79 85 -209 -193 -193 -209 -209 -209 -209 -209 84 -193 85 82 78 79 79 78 76 73 74 74 73 74 74 74 75 79 90 -193 -177 -209 -209 -209 -209 -193 175 182 178 178 177 177 174 177 177 177 171 185 194 190 192 187 183 183 183 184 185 182 184 185 187 189 188 188 188 186 186 187 186 -193 184 -209 86 85 86 87 93 99 98 98 100 101 96 96 -193 -193 -177 -177 -209 -193 -177 -177 -177 -193 150 154 156 158 160 158 160 158 154 153 153 153 152 139 136 137 125 -209 -209 -193 86 83 84 84 83 82 84 85 80 80 86 -193 -209 -193 100 -193 85 -193 -193 83 82 80 77 79 81 82 81 76 78 -193 84 88 96 -193 -209 -209 -209 150 0 0 0 0 0
    0 0 0 0 0 0 0 0 0 0 0 0 0 0 0 0 0 0 0 0 0 0 0 0 0 0 0 0 0 0 0 0 0 0 0 0 0 0 0 0 0 0 0 0 0 0 0 0 0 0 0 0 0 0 0 0 0 0 0 0 0 0 0 0 0 0 0 0 0 -209 -193 -193 -209 -209 -209 -209 -209 -209 -193 -193 -177 -193 -209 91 94 98 98 98 97 95 89 80 84 -193 82 82 -193 -209 -209 -193 -209 -209 -193 -209 -193 -193 -193 -193 -193 94 95 -193 978 -193 -209 976 980 979 981 -209 -209 97 99 -193 -209 -209 -193 -193 -209 71 70 69 70 71 70 74 75 75 -193 864 -193 90 91 92 95 -193 -193 929 -177 930 -193 -193 -193 79 78 80 -193 -193 -193 -193 -193 -193 -193 85 90 -193 -209 -193 -193 -209 -209 -209 -209 -209 -193 -193 85 81 81 82 81 79 75 76 77 77 77 80 78 79 84 92 104 -209 -209 -193 -177 -209 179 178 182 178 177 177 177 173 176 176 176 171 185 194 191 190 187 182 182 182 183 184 181 183 184 186 189 188 188 188 187 187 187 186 -193 184 -209 87 87 88 89 95 101 100 100 101 101 99 98 100 -193 -193 -177 -193 -193 -177 -177 -177 -193 148 154 157 158 160 157 160 157 153 153 153 153 152 141 138 138 -193 -209 112 85 86 82 84 85 83 83 86 86 84 84 90 103 102 106 105 107 -193 110 112 111 -193 -209 -209 -193 83 84 82 -193 80 79 85 89 97 -193 -209 -209 -209 -193 0 0 0 0 0
    0 0 0 0 0 0 0 0 0 0 0 0 0 0 0 0 0 0 0 0 0 0 0 0 0 0 0 0 0 0 0 0 0 0 0 0 0 0 0 0 0 0 0 0 0 0 0 0 0 0 0 0 0 0 0 0 0 0 0 0 0 0 0 0 0 0 0 0 0 -193 -209 104 104 -209 -193 -209 -193 -209 91 -193 -209 -209 94 96 97 101 101 101 102 101 95 89 87 -209 87 -177 -209 -209 -209 -209 -209 -193 -193 -193 101 -193 96 -193 -193 99 99 95 -193 -193 -209 -193 -193 977 -209 -209 -209 99 101 101 -193 -193 -193 -193 -193 71 71 68 69 70 70 -209 -209 -193 91 -193 -193 94 95 95 99 100 -193 929 930 931 -193 -193 -193 -193 -193 86 -193 -193 -193 -193 -193 92 -209 89 93 -209 -209 -193 -193 -193 -209 -209 -209 -193 92 91 -209 84 84 84 83 81 77 79 81 82 82 85 84 84 87 95 105 -209 -209 -193 -177 -209 180 180 182 178 177 177 176 173 175 175 175 171 186 194 192 193 189 183 183 183 184 185 180 182 184 186 189 188 188 188 187 187 187 186 -193 182 -209 89 89 91 91 97 101 101 100 101 100 100 101 101 101 -209 -209 -209 -209 -209 -193 -209 -193 148 154 157 158 159 157 160 156 153 153 152 153 152 144 139 140 -193 -193 -209 -193 87 82 84 85 84 84 87 87 87 87 96 105 105 106 106 108 106 112 111 112 114 -193 -193 -193 86 -193 -209 -209 82 84 86 91 100 107 -209 -209 -177 -193 0 0 0 0 0
    0 0 0 0 0 0 0 0 0 0 0 0 0 0 0 0 0 0 0 0 0 0 0 0 0 0 0 0 0 0 0 0 0 0 0 0 0 0 0 0 0 0 0 0 0 0 0 0 0 0 0 0 0 0 0 0 0 0 0 0 0 0 0 0 0 0 0 0 0 104 104 104 104 103 102 102 101 92 98 96 97 98 99 101 100 102 102 102 103 103 101 99 -193 -209 -193 91 93 99 -193 -193 -193 -193 98 103 102 102 99 102 -193 -193 101 99 96 96 -209 -193 -209 -193 -209 -193 -193 102 103 -193 -193 101 -193 -193 -193 -209 -193 -193 68 -193 -209 -209 -209 -209 -193 -193 94 97 98 98 100 102 101 -193 -193 -193 -193 -193 -193 -193 -193 -193 94 94 -193 -193 92 95 93 91 96 -209 -193 -193 100 -193 -209 -193 -193 -193 96 94 -193 -209 86 87 86 84 80 83 85 87 87 89 89 88 89 98 105 -193 -209 -209 -209 -209 -209 181 182 178 177 177 176 172 175 175 174 172 186 194 193 195 191 185 185 185 185 185 178 180 183 186 189 188 188 188 187 186 186 185 -193 182 -209 91 91 93 93 98 102 101 101 102 101 103 103 103 103 -209 -209 -193 -193 -177 -193 -209 -193 146 154 157 158 158 156 160 156 153 153 153 153 152 146 142 142 -193 141 145 -209 88 80 83 85 84 85 88 89 -209 89 100 105 105 106 107 109 107 112 111 111 112 114 116 116 107 -209 -209 -209 91 93 94 99 104 110 -193 193 -177 -193 0 0 0 0 0
    0 0 0 0 0 0 0 0 0 0 0 0 0 0 0 0 0 0 0 0 0 0 0 0 0 0 0 0 0 0 0 0 0 0 0 0 0 0 0 0 0 0 0 0 0 0 0 0 0 0 0 0 0 0 0 0 0 0 0 0 0 0 0 0 0 0 0 0 0 103 104 104 103 103 102 103 102 95 101 99 99 100 100 102 101 103 103 103 105 105 103 103 -193 102 -193 98 99 101 100 100 100 101 101 104 102 103 100 102 102 102 102 100 99 100 -193 -209 -193 -193 -193 -193 -209 103 104 -193 -193 102 102 103 102 97 100 101 98 99 100 -193 -193 -193 98 -193 98 100 100 100 101 103 102 101 100 101 100 100 -193 -193 -193 -193 98 98 96 94 94 98 96 93 99 99 100 101 102 102 100 102 -193 -193 100 100 -193 -209 90 91 90 89 87 87 89 91 90 92 92 91 93 101 106 109 -209 -209 -209 -209 -209 182 181 177 177 176 176 172 175 175 173 173 187 195 193 196 194 186 185 185 185 181 174 177 180 184 187 187 186 187 186 185 186 184 184 182 -209 94 94 96 96 100 102 101 101 102 102 104 105 105 106 108 119 127 -209 -209 -193 -177 -177 146 154 158 158 158 156 160 157 154 153 153 153 153 148 146 145 139 145 150 -209 -209 78 82 85 84 84 88 -209 -209 -193 101 105 105 107 107 110 108 112 111 112 112 113 115 114 110 110 -193 -209 103 104 106 103 107 112 -193 198 200 199 0 0 0 0 0
    0 0 0 0 0 0 0 0 0 0 0 0 0 0 0 0 0 0 0 0 0 0 0 0 0 0 0 0 0 0 0 0 0 0 0 0 0 0 0 0 0 0 0 0 0 0 0 0 0 0 0 0 0 0 0 0 0 0 0 0 0 0 0 0 0 0 0 0 0 103 103 103 103 103 103 103 102 95 101 100 99 100 101 103 102 103 104 104 105 106 105 105 101 103 102 102 102 103 102 102 102 103 103 104 103 103 101 102 102 102 102 101 100 101 -193 103 103 103 103 103 -193 104 104 105 104 103 102 103 102 99 102 102 101 103 103 102 101 101 101 102 99 100 101 100 102 104 102 102 101 102 102 102 102 -193 98 100 101 100 100 98 98 101 99 98 101 102 102 103 103 103 102 103 -193 -193 102 102 -193 -193 100 100 96 94 92 91 92 95 94 97 97 97 99 103 108 111 -209 -209 -193 -209 -209 -209 180 177 177 176 176 172 174 174 172 174 188 194 192 195 192 185 -193 185 184 172 173 176 179 184 187 186 186 186 186 185 185 184 183 182 -209 98 97 98 98 101 103 101 101 102 102 104 108 110 111 112 119 125 -193 -177 -177 -177 -177 148 155 158 159 158 156 160 157 155 154 154 154 153 150 148 147 140 145 149 -209 -193 78 80 83 83 83 -193 -209 -209 -209 101 106 106 107 108 110 108 112 111 111 111 112 114 112 109 111 109 -209 109 109 110 108 110 114 -193 200 -177 -177 0 0 0 0 0
    0 0 0 0 0 0 0 0 0 0 0 0 0 0 0 0 0 0 0 0 0 0 0 0 0 0 0 0 0 0 0 0 0 0 0 0 0 0 0 0 0 0 0 0 0 0 0 0 0 0 0 0 0 0 0 0 0 0 0 0 0 0 0 0 0 0 0 0 0 103 103 103 103 103 102 103 102 95 102 100 99 100 101 102 102 103 104 104 105 106 105 105 102 104 103 103 103 103 103 103 102 103 103 104 103 103 101 102 102 102 102 101 100 101 101 103 104 103 104 104 105 104 104 105 104 103 103 103 102 99 101 101 100 102 103 102 101 102 101 101 99 100 100 100 101 104 101 102 102 103 102 102 103 102 100 103 103 102 102 101 101 102 101 100 103 103 103 104 103 103 103 104 -193 -193 103 103 -193 -193 103 103 100 100 97 97 97 99 98 100 100 101 102 104 109 112 -209 -177 -177 -209 -209 -209 180 177 177 176 175 172 174 174 171 174 188 193 190 192 189 183 183 184 182 172 173 176 180 184 186 185 185 186 186 186 186 185 183 -209 -209 101 99 100 100 101 103 101 100 101 102 104 109 112 113 115 120 125 -177 -177 -177 -193 -177 150 155 158 159 157 156 161 158 156 154 154 154 153 151 151 150 144 146 147 -209 111 113 -209 -193 -209 -209 -209 -209 -209 -193 105 107 106 107 109 110 109 111 111 111 111 112 113 111 110 113 111 120 119 117 115 113 114 116 -193 -193 -177 -177 0 0 0 0 0
    0 0 0 0 0 0 0 0 0 0 0 0 0 0 0 0 0 0 0 0 0 0 0 0 0 0 0 0 0 0 0 0 0 0 0 0 0 0 0 0 0 0 0 0 0 0 0 0 0 0 0 0 0 0 0 0 0 0 0 0 0 0 0 0 0 0 0 0 0 103 103 103 103 103 102 103 102 95 102 100 99 100 101 102 102 103 104 104 105 106 106 105 -193 104 103 103 103 103 103 103 103 104 104 104 103 103 101 102 102 -193 102 -193 100 102 -193 103 104 103 103 103 105 104 104 105 103 103 102 103 101 98 101 100 99 102 103 102 100 101 101 102 100 101 101 100 101 104 101 101 101 102 102 102 102 102 100 103 103 102 102 102 102 103 101 101 103 103 103 103 103 103 103 104 -193 -193 104 104 -193 -193 104 103 101 101 99 99 99 101 100 101 102 102 103 106 111 -193 -209 -193 -193 -209 -209 -209 180 177 176 176 175 173 174 174 170 174 188 190 188 188 185 181 181 182 181 173 174 176 180 183 185 185 185 186 186 186 186 185 -193 -209 -209 103 101 101 102 102 103 101 100 101 101 104 -193 -193 -193 -193 120 125 -177 -177 -177 -177 -193 150 155 158 158 155 156 161 158 156 155 154 155 154 153 152 151 147 147 145 139 117 117 117 117 116 114 115 114 112 113 108 109 107 107 110 111 109 111 111 111 111 112 113 111 111 115 115 121 121 119 118 117 116 118 -193 -193 -177 -193 0 0 0 0 0
    0 0 0 0 0 0 0 0 0 0 0 0 0 0 0 0 0 0 0 0 0 0 0 0 0 0 0 0 0 0 0 0 0 0 0 0 0 0 0 0 0 0 0 0 0 0 0 0 0 0 0 0 0 0 0 0 0 0 0 0 0 0 0 0 0 0 0 0 0 103 103 103 103 103 103 103 102 96 103 101 100 101 101 103 103 104 105 105 107 107 106 106 -209 104 -193 103 103 103 103 103 103 104 104 105 104 104 101 102 102 -193 -193 -193 101 103 103 104 105 104 104 104 105 104 104 104 103 102 102 102 101 98 100 100 98 101 103 102 101 102 102 102 101 102 102 101 102 104 101 102 102 102 102 102 103 102 100 104 103 103 103 102 102 103 102 102 103 103 103 104 104 104 104 105 105 -193 104 105 105 105 105 104 102 101 100 100 99 101 100 101 101 102 103 106 113 -193 -209 -209 -193 -209 -209 185 179 176 176 176 174 172 174 174 169 174 188 188 186 185 182 179 179 182 180 174 174 176 179 183 184 184 184 185 187 186 186 186 185 -209 -209 -193 102 102 103 103 104 101 100 101 101 105 -193 -193 -193 -193 119 125 -177 -177 -193 -177 -193 150 155 157 157 154 156 161 158 156 155 154 155 154 153 152 152 147 148 142 133 119 119 119 118 117 115 115 114 112 115 108 109 106 106 110 111 109 111 110 111 111 112 113 112 112 116 117 121 122 121 120 118 117 119 -193 -193 203 -193 0 0 0 0 0
    0 0 0 0 0 0 0 0 0 0 0 0 0 0 0 0 0 0 0 0 0 0 0 0 0 0 0 0 0 0 0 0 0 0 0 0 0 0 0 0 0 0 0 0 0 0 0 0 0 0 0 0 0 0 0 0 0 0 0 0 0 0 0 0 0 0 0 0 0 103 104 104 104 103 103 103 103 99 105 103 102 102 103 104 105 106 107 107 109 109 108 108 -193 104 -193 103 103 103 103 103 104 105 105 105 104 104 102 102 103 -193 -193 -193 102 105 -193 106 107 106 107 105 107 105 105 105 104 103 103 103 102 99 101 100 98 101 103 102 101 102 102 103 102 103 102 102 103 105 102 103 103 104 103 103 103 103 101 105 104 103 103 103 103 103 102 102 103 104 104 104 104 104 104 106 105 105 105 106 106 106 105 105 103 102 100 100 99 101 100 101 102 102 104 108 117 -209 -209 -209 -209 -209 -209 183 177 175 175 175 173 172 174 174 167 176 186 186 186 183 178 177 178 181 179 175 175 176 180 183 183 183 183 185 187 186 186 186 186 -209 -209 106 103 103 104 104 104 100 100 100 101 105 -209 -193 -193 -209 -193 -193 -177 -177 -193 870 -193 151 154 156 156 153 156 160 157 155 154 154 154 153 152 152 151 145 146 -193 126 119 119 119 118 117 115 114 115 112 118 110 109 105 105 111 111 109 111 110 111 111 112 113 112 113 117 119 -193 122 121 120 117 117 119 -209 -209 -209 150 0 0 0 0 0
    0 0 0 0 0 0 0 0 0 0 0 0 0 0 0 0 0 0 0 0 0 0 0 0 0 0 0 0 0 0 0 0 0 0 0 0 0 0 0 0 0 0 0 0 0 0 0 0 0 0 0 0 0 0 0 0 0 0 0 0 0 0 0 0 0 0 0 0 0 104 105 105 105 105 104 104 104 101 106 105 104 104 105 106 107 107 109 110 111 111 110 109 108 106 107 104 104 104 104 104 104 106 106 106 106 106 -193 104 105 -193 -193 -193 -193 108 110 109 112 109 110 107 109 106 106 106 105 104 104 104 103 101 102 101 99 103 104 103 101 102 103 103 102 104 104 103 104 108 104 104 104 105 105 104 104 105 102 106 106 104 104 105 104 104 103 103 104 104 104 104 104 104 104 106 106 106 106 107 106 107 106 106 104 104 103 102 101 102 102 103 105 105 108 114 120 -209 -209 -209 -209 -209 -193 182 176 174 174 175 173 173 174 174 167 180 185 185 185 180 177 177 178 181 178 176 176 177 180 182 183 183 182 185 186 186 186 186 187 -193 -209 108 106 106 106 105 104 101 100 100 102 106 -193 -193 -193 -193 -193 -193 -177 -177 -177 869 -193 151 154 155 155 152 156 160 156 155 154 154 154 153 152 152 151 144 147 134 123 119 119 119 119 117 115 115 116 115 119 114 113 106 104 115 112 109 110 110 111 111 112 113 113 115 119 121 122 123 122 121 119 118 120 -209 -193 147 149 0 0 0 0 0
    0 0 0 0 0 0 0 0 0 0 0 0 0 0 0 0 0 0 0 0 0 0 0 0 0 0 0 0 0 0 0 0 0 0 0 0 0 0 0 0 0 0 0 0 0 0 0 0 0 0 0 0 0 0 0 0 0 0 0 0 0 0 0 0 0 0 0 0 0 106 106 106 106 106 106 105 105 104 107 107 106 105 107 107 109 109 113 112 113 113 112 111 110 108 109 105 104 104 104 105 105 107 108 108 110 109 -193 107 108 -193 110 109 107 111 115 112 115 112 113 109 111 108 108 107 107 105 105 105 104 102 103 103 101 104 105 104 102 104 104 105 104 105 106 106 106 112 107 106 106 107 106 106 106 106 104 106 108 107 107 108 107 109 105 105 106 105 105 105 104 105 105 106 106 106 107 108 108 108 107 107 107 107 106 105 105 104 104 106 108 109 111 116 121 135 -209 -209 -209 -209 -209 182 175 173 174 175 174 174 175 175 168 184 185 183 184 178 176 176 177 180 177 176 176 177 180 182 182 182 182 184 186 186 186 186 188 -193 -193 112 110 109 109 108 108 102 101 101 102 108 -193 -193 111 -193 117 -193 -177 -193 867 870 140 152 153 154 154 152 155 158 155 154 154 155 154 153 153 152 151 147 152 -193 122 120 120 120 120 119 117 117 118 118 121 117 118 116 111 116 113 110 111 111 112 112 113 114 114 117 121 123 123 124 123 123 121 120 122 -209 542 -193 149 0 0 0 0 0
    0 0 0 0 0 0 0 0 0 0 0 0 0 0 0 0 0 0 0 0 0 0 0 0 0 0 0 0 0 0 0 0 0 0 0 0 0 0 0 0 0 0 0 0 0 0 0 0 0 0 0 0 0 0 0 0 0 0 0 0 0 0 0 0 0 0 0 0 0 107 108 107 107 107 107 107 107 106 109 110 110 108 111 110 113 111 115 114 114 114 113 112 113 109 112 106 106 106 106 106 107 108 109 110 113 112 110 108 111 115 114 113 111 114 118 115 117 115 115 112 113 109 109 108 107 105 106 105 105 104 105 105 104 106 105 105 104 105 106 107 106 108 110 111 110 115 111 109 108 109 109 107 108 108 106 108 111 110 113 114 111 112 107 108 108 107 107 106 105 106 105 107 106 107 109 109 110 109 109 109 109 110 108 107 108 106 107 110 112 112 113 116 121 130 -209 -209 -209 -209 -209 -193 174 173 174 175 174 175 176 176 169 185 184 182 183 176 175 175 177 179 176 176 177 177 181 182 182 182 181 184 185 186 186 186 -193 -209 112 114 113 113 113 112 111 103 102 102 103 109 111 110 112 114 118 123 -177 -193 866 870 141 152 153 154 154 152 156 156 154 153 153 153 153 152 152 151 150 146 151 129 123 121 121 121 121 119 118 118 118 118 120 119 120 119 118 118 114 111 111 112 113 113 114 114 115 119 122 124 123 124 123 123 122 122 124 -209 539 146 149 0 0 0 0 0
    0 0 0 0 0 0 0 0 0 0 0 0 0 0 0 0 0 0 0 0 0 0 0 0 0 0 0 0 0 0 0 0 0 0 0 0 0 0 0 0 0 0 0 0 0 0 0 0 0 0 0 0 0 0 0 0 0 0 0 0 0 0 0 0 0 0 0 0 0 109 110 109 108 108 108 108 108 108 111 111 112 111 113 112 115 113 116 115 114 115 114 114 114 112 115 109 108 109 109 109 109 110 112 113 116 115 115 114 118 120 118 118 117 117 120 117 118 116 117 114 115 112 111 110 108 106 107 106 106 105 106 106 106 107 107 106 105 106 107 109 110 112 115 115 114 117 114 111 111 110 110 109 110 110 107 110 114 113 116 115 113 113 108 109 109 108 108 107 106 107 106 108 107 108 112 110 113 110 110 110 111 112 110 108 110 108 110 113 113 113 114 116 120 -209 -209 -209 -209 -209 -209 -209 174 173 173 175 173 175 176 176 169 185 183 180 182 175 175 175 177 179 176 176 177 178 181 182 182 181 181 183 184 185 -193 -209 -209 -209 114 115 115 115 115 114 113 104 103 103 103 111 111 111 113 115 119 124 -193 -193 -177 -177 143 153 153 154 153 151 155 154 153 153 153 153 153 152 152 151 150 148 -193 126 123 121 121 121 121 120 119 118 118 118 120 119 120 120 120 119 116 113 113 113 114 114 115 115 116 120 123 124 124 123 123 123 122 122 125 -209 -193 147 148 0 0 0 0 0
    0 0 0 0 0 0 0 0 0 0 0 0 0 0 0 0 0 0 0 0 0 0 0 0 0 0 0 0 0 0 0 0 0 0 0 0 0 0 0 0 0 0 0 0 0 0 0 0 0 0 0 0 0 0 0 0 0 0 0 0 0 0 0 0 0 0 0 0 0 112 112 111 110 110 110 109 109 109 111 112 113 112 114 112 116 114 117 116 115 115 115 115 116 113 116 111 110 113 112 113 113 115 117 116 119 119 120 120 121 121 120 120 119 118 120 118 118 117 118 116 116 115 114 113 110 108 108 107 108 107 108 108 108 109 109 108 109 108 111 112 115 115 116 117 116 118 116 114 113 112 112 112 112 113 108 112 115 115 117 116 115 114 110 112 111 110 110 108 108 109 108 109 108 111 115 112 115 112 111 112 113 115 113 109 113 110 113 115 114 114 114 115 120 -209 -209 -209 -209 -209 -209 -209 174 173 173 174 173 175 176 176 169 185 181 180 182 175 175 175 177 179 176 178 178 179 181 182 182 181 181 183 183 184 -193 -209 -209 -209 114 116 116 116 116 115 113 105 104 104 104 113 111 111 113 116 119 123 -193 -193 -177 -177 144 153 153 153 152 151 153 153 152 153 154 154 153 152 152 152 152 153 155 125 122 121 121 122 121 120 120 119 119 119 120 120 120 120 121 120 117 114 113 113 115 115 116 117 118 122 124 125 124 124 123 123 122 122 126 -209 139 147 148 0 0 0 0 0
    0 0 0 0 0 0 0 0 0 0 0 0 0 0 0 0 0 0 0 0 0 0 0 0 0 0 0 0 0 0 0 0 0 0 0 0 0 0 0 0 0 0 0 0 0 0 0 0 0 0 0 0 0 0 0 0 0 0 0 0 0 0 0 0 0 0 0 0 0 114 114 114 112 113 113 112 110 110 111 112 113 113 115 113 116 115 117 117 116 116 116 115 116 115 117 114 113 117 116 117 117 118 119 119 120 120 122 122 122 122 121 121 120 119 120 118 118 117 118 117 118 117 117 116 114 114 114 110 112 110 111 112 111 113 112 112 114 113 115 116 117 117 117 117 117 119 117 116 115 114 115 114 114 115 110 115 116 116 118 118 117 116 114 115 115 113 113 111 111 111 111 112 110 114 117 115 116 115 114 115 116 117 116 112 116 113 115 116 115 114 114 115 119 -209 -177 -209 -209 -209 -209 -177 -209 173 173 174 173 175 176 176 169 185 181 180 182 176 176 176 178 180 176 178 178 178 181 181 181 180 179 182 182 184 -177 -209 -209 -209 115 116 116 116 116 115 113 109 106 106 107 114 112 112 114 116 119 123 -193 -209 -177 -177 146 153 153 153 151 152 152 153 152 154 155 154 153 153 152 152 153 154 -193 125 123 122 122 123 122 121 121 121 121 120 121 121 121 122 122 121 117 114 114 114 115 116 117 119 119 123 125 125 124 124 123 123 121 123 127 137 139 147 148 0 0 0 0 0
    0 0 0 0 0 0 0 0 0 0 0 0 0 0 0 0 0 0 0 0 0 0 0 0 0 0 0 0 0 0 0 0 0 0 0 0 0 0 0 0 0 0 0 0 0 0 0 0 0 0 0 0 0 0 0 0 0 0 0 0 0 0 0 0 0 0 0 0 0 115 115 115 114 115 115 114 112 111 112 112 113 113 114 113 116 115 117 117 116 116 116 115 116 115 117 115 114 117 117 119 119 119 120 119 120 120 121 121 121 120 120 121 120 119 119 118 118 118 119 118 118 118 118 118 117 118 118 113 115 114 114 114 114 115 114 114 116 115 116 117 118 118 118 118 118 119 118 117 117 116 116 117 116 117 113 117 118 118 119 119 117 117 117 117 117 116 116 115 115 115 115 115 113 117 119 116 118 116 116 117 118 118 117 114 117 114 115 116 115 114 114 114 118 -177 -177 -209 -209 -209 -209 -177 -209 172 173 174 173 175 176 176 169 185 180 180 183 177 177 177 178 180 177 179 178 178 181 181 181 180 178 180 181 183 -193 -209 -193 -193 116 116 117 117 117 116 113 113 108 108 110 116 114 114 115 117 119 126 136 -209 -177 -193 147 152 153 153 151 152 153 153 152 155 156 155 153 153 152 152 153 -193 -193 124 123 122 123 124 124 123 123 124 123 123 123 123 124 124 124 122 118 117 117 117 116 117 118 121 120 125 125 125 124 124 123 123 121 123 127 137 138 145 147 0 0 0 0 0
    0 0 0 0 0 0 0 0 0 0 0 0 0 0 0 0 0 0 0 0 0 0 0 0 0 0 0 0 0 0 0 0 0 0 0 0 0 0 0 0 0 0 0 0 0 0 0 0 0 0 0 0 0 0 0 0 0 0 0 0 0 0 0 0 0 0 0 0 0 116 115 115 114 115 115 114 113 111 112 113 114 114 115 114 117 116 117 117 116 116 116 115 116 115 117 115 114 118 117 119 118 119 119 119 119 120 120 119 119 119 119 120 119 118 118 118 118 117 119 118 118 119 119 119 118 119 119 114 116 115 115 115 115 116 115 115 117 116 117 118 119 118 119 118 118 120 118 118 117 117 117 118 117 117 114 118 118 118 119 119 117 117 117 118 118 117 117 116 117 116 117 117 115 118 119 117 118 117 117 117 118 118 116 113 116 113 114 116 114 113 113 114 118 -193 -177 -209 -209 -209 -193 -193 -209 172 173 175 173 176 176 176 169 185 180 180 183 177 177 177 179 180 178 179 179 179 181 181 181 180 179 179 180 183 -209 534 -193 118 116 117 117 117 117 116 114 115 113 113 114 117 116 116 117 119 121 134 140 147 -193 148 149 153 153 153 152 153 153 153 153 157 158 156 154 154 153 153 154 -209 127 122 122 123 124 124 125 125 125 125 125 124 124 124 125 125 124 122 119 119 121 121 119 -193 120 126 124 129 127 126 124 124 123 124 122 124 128 137 138 144 145 0 0 0 0 0
    0 0 0 0 0 0 0 0 0 0 0 0 0 0 0 0 0 0 0 0 0 0 0 0 0 0 0 0 0 0 0 0 0 0 0 0 0 0 0 0 0 0 0 0 0 0 0 0 0 0 0 0 0 0 0 0 0 0 0 0 0 0 0 0 0 0 0 0 0 116 115 116 115 116 115 114 113 111 112 113 113 114 115 115 118 116 117 118 116 116 116 116 116 115 117 115 114 118 117 118 118 118 118 118 119 119 119 118 118 119 119 120 118 117 117 118 118 118 120 119 119 119 120 119 119 120 120 115 117 116 116 116 116 117 115 115 117 116 118 118 119 119 119 118 119 120 118 118 117 117 117 118 117 117 114 117 117 118 118 118 117 117 117 118 117 117 117 117 117 116 117 117 116 118 119 117 118 117 117 117 118 118 116 113 115 112 113 115 114 113 113 113 118 -193 -209 -209 -209 -193 -193 -193 -193 -193 173 174 173 176 176 176 169 185 180 181 183 177 177 177 178 179 178 180 179 179 181 181 181 181 180 178 179 182 -193 535 -209 119 117 117 118 118 118 117 116 117 116 116 116 118 119 119 119 120 132 -193 148 151 150 150 150 152 153 153 152 153 152 152 154 158 160 157 155 155 155 156 157 -193 120 121 121 122 123 124 125 126 127 127 126 125 125 125 126 125 124 122 119 120 123 123 -193 -209 124 130 128 131 129 128 126 126 125 126 125 126 130 137 138 143 144 0 0 0 0 0
    0 0 0 0 0 0 0 0 0 0 0 0 0 0 0 0 0 0 0 0 0 0 0 0 0 0 0 0 0 0 0 0 0 0 0 0 0 0 0 0 0 0 0 0 0 0 0 0 0 0 0 0 0 0 0 0 0 0 0 0 0 0 0 0 0 0 0 0 0 117 115 116 115 115 115 114 113 111 112 113 113 113 114 115 118 116 117 118 116 117 117 116 116 115 117 116 115 119 118 118 118 118 117 117 118 118 118 117 117 117 117 119 117 116 116 118 118 118 120 119 119 119 -193 -193 119 120 120 116 118 117 117 117 117 118 116 116 118 117 118 119 119 119 119 118 119 120 -193 118 117 117 117 118 117 117 113 117 117 118 118 118 117 116 117 118 117 117 117 117 117 116 117 117 116 118 118 117 118 116 116 117 117 117 115 113 115 111 112 115 113 112 112 112 117 -193 -209 -177 -209 -193 -193 -193 -193 -193 173 174 173 175 176 176 169 185 175 180 181 176 176 177 178 178 178 179 178 179 180 180 180 181 180 179 178 182 -193 536 -209 119 117 118 118 119 119 118 117 118 118 118 118 119 120 -193 -177 -209 152 154 151 152 151 152 150 152 153 153 152 152 152 152 156 159 161 157 155 155 156 157 159 120 121 122 122 123 123 125 126 128 128 128 127 126 126 126 126 125 124 122 119 120 125 124 121 -209 124 128 128 130 129 126 126 126 125 127 126 128 132 137 139 142 143 0 0 0 0 0
    0 0 0 0 0 0 0 0 0 0 0 0 0 0 0 0 0 0 0 0 0 0 0 0 0 0 0 0 0 0 0 0 0 0 0 0 0 0 0 0 0 0 0 0 0 0 0 0 0 0 0 0 0 0 0 0 0 0 0 0 0 0 0 0 0 0 0 0 0 117 116 116 115 115 115 115 114 112 113 114 113 114 114 115 117 116 117 118 116 117 117 116 116 115 117 116 114 118 118 117 117 117 116 116 116 116 116 115 115 116 116 117 116 115 114 118 117 117 120 119 119 119 -193 -193 118 121 120 116 118 118 117 117 117 118 117 117 118 118 119 119 119 119 119 118 119 -193 -193 118 117 117 118 118 118 117 114 118 118 118 119 118 117 117 117 118 117 117 117 117 117 116 117 116 115 118 118 117 117 116 116 116 117 117 114 112 115 111 111 115 112 112 111 111 116 -209 -209 -177 -193 -193 -193 -193 -193 -193 172 173 172 174 176 176 167 182 168 179 179 175 175 177 177 178 178 179 178 179 179 179 179 181 179 178 176 181 -209 -209 -209 119 118 118 118 120 120 119 117 118 119 118 117 119 121 121 127 -209 149 154 151 152 151 151 150 152 153 153 152 153 153 153 157 161 163 158 156 155 157 158 -209 122 124 124 124 124 124 125 126 129 128 128 127 126 126 126 126 125 123 122 119 121 124 123 119 -193 122 126 130 129 131 123 124 125 125 128 127 128 133 137 139 142 141 0 0 0 0 0
    0 0 0 0 0 0 0 0 0 0 0 0 0 0 0 0 0 0 0 0 0 0 0 0 0 0 0 0 0 0 0 0 0 0 0 0 0 0 0 0 0 0 0 0 0 0 0 0 0 0 0 0 0 0 0 0 0 0 0 0 0 0 0 0 0 0 0 0 0 117 116 117 115 116 116 116 116 115 115 116 115 116 116 116 118 117 118 118 116 117 117 116 116 115 116 115 112 117 117 116 116 116 116 116 116 116 116 115 116 116 117 119 117 117 117 119 117 117 120 119 118 119 119 119 117 121 120 116 118 117 117 117 117 118 117 117 118 118 119 119 119 119 119 118 119 120 118 118 118 117 118 118 118 117 114 118 118 119 119 119 118 117 118 118 117 117 117 117 117 116 117 116 116 118 117 117 117 116 116 116 117 117 114 113 115 111 111 115 113 112 111 111 116 -209 -209 -177 -193 -193 -193 -193 -193 -193 172 173 172 174 175 175 164 172 167 178 178 175 175 178 177 179 178 180 179 179 180 180 179 181 179 178 176 181 -209 -209 -193 119 118 118 118 120 120 119 118 117 118 117 117 118 120 -193 -193 -209 141 151 149 150 150 150 149 152 152 153 153 153 153 153 159 163 164 161 158 157 158 -209 -209 123 125 127 126 126 127 126 128 130 129 128 127 126 126 127 126 125 124 123 121 122 127 129 -193 131 133 134 135 131 134 124 126 129 128 131 131 130 134 -193 139 141 140 0 0 0 0 0
    0 0 0 0 0 0 0 0 0 0 0 0 0 0 0 0 0 0 0 0 0 0 0 0 0 0 0 0 0 0 0 0 0 0 0 0 0 0 0 0 0 0 0 0 0 0 0 0 0 0 0 0 0 0 0 0 0 0 0 0 0 0 0 0 0 0 0 0 0 117 116 117 116 117 117 118 118 118 118 119 118 119 119 120 120 119 119 119 116 117 117 117 116 116 116 115 111 116 116 116 116 117 117 117 118 117 118 117 118 119 120 123 121 121 122 121 119 119 -209 120 119 119 119 119 118 121 120 117 118 118 118 118 118 118 118 118 119 118 119 119 119 119 119 118 119 120 119 119 118 118 119 119 119 117 115 118 118 119 119 119 118 117 118 118 118 118 118 118 118 117 118 117 116 119 118 118 118 117 117 117 118 118 116 116 116 113 113 116 114 113 112 112 116 -209 -209 -193 -193 -177 -209 -209 -209 171 172 173 172 174 175 175 164 170 169 179 177 175 175 178 177 179 179 180 179 179 180 180 180 181 179 180 177 181 -209 -209 119 119 118 118 118 119 120 119 118 117 118 118 118 118 120 -209 126 138 139 147 147 148 148 148 148 151 152 152 152 153 152 154 160 163 164 162 -193 -193 -193 -209 -209 125 127 128 128 127 129 127 130 132 129 129 128 127 127 128 127 127 125 124 126 127 134 135 133 137 -193 135 134 131 133 125 127 131 131 133 134 134 136 138 139 141 140 0 0 0 0 0
    0 0 0 0 0 0 0 0 0 0 0 0 0 0 0 0 0 0 0 0 0 0 0 0 0 0 0 0 0 0 0 0 0 0 0 0 0 0 0 0 0 0 0 0 0 0 0 0 0 0 0 0 0 0 0 0 0 0 0 0 0 0 0 0 0 0 0 0 0 119 118 118 118 119 119 120 120 120 122 121 122 122 122 123 123 123 121 120 118 118 118 117 117 117 117 117 113 118 -193 117 117 118 118 119 119 119 119 119 121 121 122 129 126 126 126 126 123 121 123 122 120 120 120 119 119 121 121 118 119 118 118 119 119 119 119 120 121 120 121 121 120 120 121 119 120 122 120 120 119 120 120 120 120 118 116 119 118 120 119 119 118 118 119 119 118 118 118 119 118 118 119 118 117 120 119 119 119 119 119 119 120 120 -193 119 118 116 115 117 115 115 112 113 117 -193 -209 -209 -209 -209 -209 -209 -193 171 172 172 171 173 174 174 158 169 171 180 177 176 176 179 178 179 179 180 179 180 180 180 180 182 181 180 179 182 -209 -209 120 119 118 119 118 119 120 119 119 118 119 120 120 120 123 126 135 139 140 145 146 147 148 148 148 151 151 151 152 152 152 154 160 162 163 162 159 -193 -209 -209 -193 128 129 130 130 129 130 128 131 132 130 129 130 129 128 129 129 129 127 127 133 133 136 137 136 137 137 135 134 131 130 125 127 130 131 134 134 135 137 138 140 141 139 0 0 0 0 0
    0 0 0 0 0 0 0 0 0 0 0 0 0 0 0 0 0 0 0 0 0 0 0 0 0 0 0 0 0 0 0 0 0 0 0 0 0 0 0 0 0 0 0 0 0 0 0 0 0 0 0 0 0 0 0 0 0 0 0 0 0 0 0 0 0 0 0 0 0 122 120 120 122 121 122 122 122 123 126 125 126 126 126 126 126 126 123 120 119 118 119 118 118 118 118 119 117 121 -193 120 121 122 122 123 122 122 121 122 124 123 125 132 131 131 131 130 128 124 125 124 121 122 121 120 120 121 121 118 120 120 120 121 121 121 121 122 124 122 123 124 123 123 124 121 123 124 122 122 120 121 121 121 121 120 118 121 121 122 121 121 120 119 120 119 118 118 118 119 119 118 120 119 119 121 120 121 121 121 121 121 122 122 121 122 121 119 119 118 116 116 114 114 118 -193 -209 -209 -209 -177 -193 -209 -193 170 171 172 171 172 173 173 155 168 171 180 176 174 175 178 177 178 179 180 179 180 181 181 181 183 182 181 181 183 -209 -209 120 119 119 120 119 120 120 120 120 119 120 122 122 122 126 131 136 140 141 145 146 148 149 149 150 152 152 151 151 152 152 154 159 160 159 159 157 156 -209 -193 128 130 130 130 131 129 130 128 130 133 129 129 130 129 129 130 130 130 129 130 136 135 137 137 137 137 136 136 135 132 130 127 128 131 132 134 135 135 137 139 141 141 139 0 0 0 0 0
    0 0 0 0 0 0 0 0 0 0 0 0 0 0 0 0 0 0 0 0 0 0 0 0 0 0 0 0 0 0 0 0 0 0 0 0 0 0 0 0 0 0 0 0 0 0 0 0 0 0 0 0 0 0 0 0 0 0 0 0 0 0 0 0 0 0 0 0 0 126 123 121 125 123 125 125 124 126 129 128 130 129 130 129 128 129 125 122 121 120 121 120 120 120 120 122 121 124 124 123 125 125 125 126 125 125 125 127 128 127 130 134 133 133 133 132 131 127 129 127 123 124 123 122 122 122 123 120 122 122 122 124 124 124 124 124 129 125 126 127 125 125 126 123 126 128 124 124 122 122 123 123 123 121 121 123 122 123 123 122 122 121 122 120 119 119 118 120 119 119 120 119 120 124 121 123 123 123 124 124 124 124 122 123 122 122 122 121 118 119 117 118 120 125 -209 -209 -209 -209 -209 -209 -193 170 171 172 170 172 173 172 155 169 177 180 175 175 174 177 177 178 179 179 179 180 181 181 182 183 182 182 181 182 184 -193 120 120 119 121 120 121 121 121 121 120 122 124 124 124 128 131 134 138 141 143 144 147 149 149 150 152 151 150 152 152 152 153 158 157 156 158 156 153 -209 -193 130 131 132 131 132 131 130 130 131 133 130 130 131 130 130 131 131 131 131 132 136 136 136 137 136 136 136 135 135 133 131 129 129 131 132 134 135 135 138 140 141 141 139 0 0 0 0 0
    0 0 0 0 0 0 0 0 0 0 0 0 0 0 0 0 0 0 0 0 0 0 0 0 0 0 0 0 0 0 0 0 0 0 0 0 0 0 0 0 0 0 0 0 0 0 0 0 0 0 0 0 0 0 0 0 0 0 0 0 0 0 0 0 0 0 0 0 0 129 126 123 128 125 129 128 127 129 131 130 132 130 132 130 129 131 127 124 124 123 125 123 123 124 124 125 124 127 127 125 128 127 127 128 128 128 128 131 131 131 133 135 134 133 134 133 133 130 131 130 126 126 126 124 123 124 125 122 124 125 124 127 128 128 127 128 132 129 129 129 127 126 128 125 128 131 127 127 125 125 125 125 127 123 122 125 124 125 125 124 124 124 124 122 120 121 120 122 121 120 121 121 122 127 124 126 125 125 127 125 125 126 123 124 124 123 124 122 121 121 120 121 124 130 137 -209 -209 -209 -209 -209 -193 169 169 171 169 170 171 171 154 169 179 180 174 175 174 177 176 178 178 179 178 180 180 181 181 183 181 182 180 181 183 182 -193 121 121 122 121 121 122 121 122 121 123 126 126 126 129 131 134 137 140 143 144 148 150 150 152 153 152 152 152 153 152 154 157 155 155 157 155 152 140 -193 132 132 132 132 132 131 130 130 132 132 130 131 132 132 132 133 132 133 133 133 136 136 136 136 136 136 135 135 135 132 130 129 128 128 131 133 134 135 138 140 142 142 140 0 0 0 0 0
    0 0 0 0 0 0 0 0 0 0 0 0 0 0 0 0 0 0 0 0 0 0 0 0 0 0 0 0 0 0 0 0 0 0 0 0 0 0 0 0 0 0 0 0 0 0 0 0 0 0 0 0 0 0 0 0 0 0 0 0 0 0 0 0 0 0 0 0 0 131 128 124 131 127 131 130 129 131 133 131 132 131 132 131 130 131 128 124 126 125 129 126 128 129 129 130 128 131 130 128 129 129 128 130 130 130 130 132 132 133 133 135 135 134 134 133 133 132 132 132 128 128 128 126 126 126 127 124 127 128 127 130 130 131 130 131 134 131 131 131 130 127 130 127 131 134 132 132 130 129 130 130 132 127 124 127 126 127 128 127 127 127 127 125 124 125 125 126 125 124 125 127 126 131 130 130 129 128 130 128 128 128 125 126 125 126 125 124 125 125 124 125 130 133 137 -209 -193 -209 -209 185 172 170 170 172 170 171 171 171 159 169 175 178 173 175 174 176 176 179 178 178 178 179 180 180 181 182 180 181 180 181 182 180 -209 121 122 123 123 121 122 122 122 122 124 128 128 127 130 131 133 136 138 143 143 146 149 150 152 153 152 151 152 153 153 154 156 154 154 155 153 151 139 -193 133 133 133 132 133 132 130 131 132 132 131 132 133 134 134 134 134 134 135 135 137 137 137 137 136 136 136 136 135 133 129 129 128 127 131 133 134 136 139 141 144 144 141 0 0 0 0 0
    0 0 0 0 0 0 0 0 0 0 0 0 0 0 0 0 0 0 0 0 0 0 0 0 0 0 0 0 0 0 0 0 0 0 0 0 0 0 0 0 0 0 0 0 0 0 0 0 0 0 0 0 0 0 0 0 0 0 0 0 0 0 0 0 0 0 0 0 0 132 131 127 133 130 132 132 131 132 133 132 133 131 133 132 132 133 131 127 131 131 134 132 133 133 133 133 132 132 131 130 130 130 129 131 131 131 131 133 132 133 133 135 134 134 134 133 133 132 133 132 130 130 131 130 130 129 130 127 130 130 130 131 132 132 132 133 134 133 132 132 131 129 131 129 132 135 134 134 133 133 133 133 134 132 127 130 128 129 130 129 129 129 129 128 128 129 131 131 131 132 131 133 132 133 134 133 132 131 132 131 130 131 128 128 127 129 128 126 129 129 128 130 132 134 135 -209 -177 -177 -193 -209 173 171 171 172 171 171 171 171 164 169 173 175 172 173 174 175 175 178 178 178 178 180 180 180 181 182 180 181 181 181 181 175 -209 124 124 126 125 122 123 123 123 124 125 130 129 128 130 130 132 135 137 142 142 147 151 151 153 153 152 151 151 153 152 153 154 152 153 153 151 149 137 135 134 134 133 133 133 132 130 131 132 131 131 133 134 135 135 136 135 136 136 136 138 138 137 137 137 136 136 136 136 134 130 130 129 130 132 134 135 137 140 142 144 144 142 0 0 0 0 0
    0 0 0 0 0 0 0 0 0 0 0 0 0 0 0 0 0 0 0 0 0 0 0 0 0 0 0 0 0 0 0 0 0 0 0 0 0 0 0 0 0 0 0 0 0 0 0 0 0 0 0 0 0 0 0 0 0 0 0 0 0 0 0 0 0 0 0 0 0 133 132 130 133 132 133 133 132 132 133 132 133 132 133 133 133 134 132 131 134 135 136 136 136 135 135 135 134 134 133 132 132 131 131 132 132 132 131 133 133 133 133 135 134 134 134 133 133 133 134 133 133 133 134 133 133 132 132 131 132 132 132 133 134 133 132 133 135 133 133 133 132 131 134 132 134 137 136 136 135 135 134 135 135 133 128 131 128 130 130 130 130 130 131 130 131 132 133 134 134 135 134 135 135 136 135 135 134 134 134 133 133 133 131 131 130 131 130 127 130 130 130 132 133 133 134 -209 -177 -177 -177 -209 177 173 172 174 172 172 172 171 169 169 171 173 171 172 173 174 175 178 178 178 179 180 181 181 182 183 182 182 182 182 181 172 -209 130 127 129 128 122 123 124 124 125 127 132 131 130 131 131 132 135 138 143 143 148 153 152 154 154 153 153 152 153 152 153 153 151 151 152 150 149 138 135 135 134 133 133 133 132 130 132 132 130 133 134 135 137 137 137 137 138 139 137 138 139 137 138 138 138 137 137 138 -193 135 135 133 134 136 137 138 139 141 143 145 145 145 0 0 0 0 0
    0 0 0 0 0 0 0 0 0 0 0 0 0 0 0 0 0 0 0 0 0 0 0 0 0 0 0 0 0 0 0 0 0 0 0 0 0 0 0 0 0 0 0 0 0 0 0 0 0 0 0 0 0 0 0 0 0 0 0 0 0 0 0 0 0 0 0 0 0 133 133 130 133 132 133 133 132 132 133 132 132 131 133 134 133 134 133 131 135 135 136 136 136 135 135 135 135 135 133 133 132 132 131 132 132 132 132 133 133 133 133 134 134 134 134 133 133 133 134 134 134 134 135 134 135 134 134 133 134 134 134 134 134 133 133 134 135 134 133 134 133 133 136 135 136 139 138 138 137 137 136 137 137 136 131 132 130 132 131 131 131 131 133 132 133 133 134 136 136 136 136 136 136 137 136 136 136 135 135 134 134 134 133 132 131 132 130 127 129 129 130 131 133 132 133 135 -193 -177 -209 -209 -209 -209 172 174 172 172 172 172 170 169 171 171 169 171 171 171 172 175 176 178 178 180 182 181 183 183 182 182 182 182 182 173 -209 -209 131 133 132 123 125 127 126 129 129 134 132 132 132 133 134 136 140 145 144 149 153 153 155 154 153 152 151 152 152 152 152 149 149 151 149 149 139 136 136 134 134 134 134 134 131 133 134 133 136 137 137 138 138 139 138 140 141 139 140 140 139 139 139 139 139 139 140 -193 -193 -193 -193 140 142 143 141 142 144 145 147 147 147 0 0 0 0 0
    0 0 0 0 0 0 0 0 0 0 0 0 0 0 0 0 0 0 0 0 0 0 0 0 0 0 0 0 0 0 0 0 0 0 0 0 0 0 0 0 0 0 0 0 0 0 0 0 0 0 0 0 0 0 0 0 0 0 0 0 0 0 0 0 0 0 0 0 0 133 132 130 133 132 133 133 132 132 133 132 132 131 133 134 133 134 133 132 135 135 136 135 135 135 135 135 134 135 134 133 133 132 132 132 132 132 131 133 133 133 132 134 133 133 134 133 133 133 134 134 134 135 136 134 135 134 135 134 135 134 134 134 135 134 133 134 135 135 134 135 134 134 137 136 137 141 139 140 138 138 138 138 138 137 133 133 131 133 132 132 131 132 134 133 134 134 134 136 136 136 136 136 136 137 136 137 136 135 135 135 134 134 133 133 131 132 130 127 130 129 130 132 133 131 132 134 -209 -209 -209 -209 -209 -209 -193 173 173 173 173 172 171 170 171 171 169 169 170 171 171 173 175 176 176 179 181 180 182 183 181 182 182 182 182 174 -209 -209 135 137 138 131 132 134 131 132 132 135 134 133 134 134 134 136 141 147 145 149 153 153 155 154 153 153 151 153 152 152 152 150 150 151 151 151 142 139 137 135 135 135 135 135 132 135 135 134 137 138 137 139 137 141 140 142 143 140 141 141 140 141 139 141 141 143 -193 -193 -193 -193 147 148 149 149 144 145 147 148 150 149 149 0 0 0 0 0
    0 0 0 0 0 0 0 0 0 0 0 0 0 0 0 0 0 0 0 0 0 0 0 0 0 0 0 0 0 0 0 0 0 0 0 0 0 0 0 0 0 0 0 0 0 0 0 0 0 0 0 0 0 0 0 0 0 0 0 0 0 0 0 0 0 0 0 0 0 133 132 130 133 132 133 133 132 132 132 132 132 130 134 134 134 135 134 134 135 136 137 135 136 135 135 135 135 135 134 133 133 132 132 132 132 132 131 133 132 132 132 133 134 133 134 133 133 134 134 134 135 134 135 134 135 134 134 134 135 134 134 134 136 -193 134 134 136 135 135 135 135 134 137 136 138 142 139 140 138 139 139 139 139 137 133 133 131 133 132 132 131 132 133 132 133 132 133 134 135 135 135 135 -193 137 137 137 137 136 136 135 135 135 134 133 132 133 131 128 131 130 131 132 134 131 132 134 -193 -209 -209 -193 -209 -209 -209 173 173 173 173 173 173 171 172 171 169 169 170 170 170 172 173 175 175 178 180 179 181 182 181 182 183 183 184 179 184 -193 139 140 141 137 138 139 136 135 133 136 134 133 134 134 134 135 140 147 144 148 153 153 155 154 153 153 152 154 153 153 153 151 151 151 151 151 144 141 139 136 136 136 135 135 132 135 135 134 137 139 138 139 138 144 142 144 146 141 141 141 140 141 140 142 144 147 -193 -209 -193 -193 -193 153 154 153 149 150 150 150 152 151 152 0 0 0 0 0
    0 0 0 0 0 0 0 0 0 0 0 0 0 0 0 0 0 0 0 0 0 0 0 0 0 0 0 0 0 0 0 0 0 0 0 0 0 0 0 0 0 0 0 0 0 0 0 0 0 0 0 0 0 0 0 0 0 0 0 0 0 0 0 0 0 0 0 0 0 133 133 130 133 132 133 133 132 132 131 131 131 129 133 134 134 135 134 135 136 136 138 137 137 136 136 136 136 136 135 134 133 132 132 133 132 133 131 133 133 132 132 133 133 133 133 133 133 134 135 134 -193 -193 -193 134 135 134 135 134 135 134 135 -193 -193 -193 134 135 136 136 135 135 134 133 137 136 138 141 140 140 138 139 139 139 139 -193 133 133 132 133 132 133 132 132 133 133 133 132 133 134 134 135 -193 -193 -193 -193 -193 137 137 -193 136 135 135 135 134 134 133 133 131 129 132 131 131 132 134 131 131 134 -193 -209 -209 -209 -209 -209 170 172 174 174 174 174 174 173 173 173 171 169 171 171 171 172 173 175 175 178 180 178 180 182 181 183 183 183 185 183 186 187 -209 -193 -193 -193 139 141 140 137 133 135 133 132 133 134 133 134 138 144 142 146 151 151 154 153 153 153 152 154 153 153 153 151 151 151 151 151 145 142 141 137 136 137 136 136 133 136 136 135 138 139 138 140 139 149 147 146 148 144 142 143 142 143 141 145 149 151 153 156 -193 157 157 158 159 157 152 153 -193 152 155 159 164 0 0 0 0 0
    0 0 0 0 0 0 0 0 0 0 0 0 0 0 0 0 0 0 0 0 0 0 0 0 0 0 0 0 0 0 0 0 0 0 0 0 0 0 0 0 0 0 0 0 0 0 0 0 0 0 0 0 0 0 0 0 0 0 0 0 0 0 0 0 0 0 0 0 0 133 133 131 133 132 133 133 132 131 130 130 130 128 134 -193 136 138 137 137 139 139 140 139 138 137 137 137 137 137 135 134 133 -193 132 133 133 133 132 133 133 132 131 133 132 132 132 132 133 133 134 134 -209 -209 -193 -193 135 135 135 134 135 134 135 -193 -193 -193 134 134 136 136 135 135 134 133 137 136 138 140 139 140 138 139 -193 140 139 -193 134 134 134 136 133 -193 132 132 133 133 132 131 132 134 134 135 -193 -193 367 -209 -209 -209 -209 -193 -193 136 136 136 136 135 135 134 131 129 131 131 131 131 133 130 130 133 -193 -209 -209 -209 -209 -209 169 171 174 174 174 174 175 173 174 174 172 169 171 171 171 171 172 175 175 178 180 176 180 183 182 183 183 184 186 185 187 187 185 186 187 188 -209 -193 -209 -209 -193 -209 134 133 134 135 134 135 138 146 143 148 153 153 155 154 154 154 152 154 153 153 153 151 151 151 151 150 147 144 142 137 136 137 135 135 133 136 136 135 138 140 139 141 140 151 150 147 150 150 147 147 145 148 146 149 153 155 156 161 161 162 163 164 163 161 154 159 -193 163 167 168 171 0 0 0 0 0
    0 0 0 0 0 0 0 0 0 0 0 0 0 0 0 0 0 0 0 0 0 0 0 0 0 0 0 0 0 0 0 0 0 0 0 0 0 0 0 0 0 0 0 0 0 0 0 0 0 0 0 0 0 0 0 0 0 0 0 0 0 0 0 0 0 0 0 0 0 134 133 133 133 133 134 134 132 131 130 130 130 129 134 -193 139 142 143 139 139 139 141 138 137 136 135 -193 -193 137 135 134 134 -193 -193 134 133 133 131 133 133 132 131 132 131 132 132 132 132 132 134 134 -209 -193 -193 -193 135 135 -209 -193 135 134 134 -193 -193 -209 132 133 135 135 134 135 134 134 137 137 139 140 139 139 138 138 139 140 140 -193 135 136 135 -177 134 -193 -193 -193 133 133 131 -193 131 134 135 -193 359 362 369 -209 -209 219 -209 -209 -209 -209 -193 135 135 135 135 134 130 127 129 129 129 130 132 129 129 133 135 -209 -209 -209 -209 -209 170 171 175 175 175 175 176 174 174 174 172 170 171 171 170 170 172 175 175 178 182 177 181 184 184 184 184 184 187 185 187 188 186 186 188 189 189 -193 185 -193 187 194 -193 134 135 136 135 135 139 146 142 146 151 151 153 152 152 153 151 153 152 152 152 151 151 151 151 150 147 145 143 138 137 137 136 136 134 136 136 135 138 140 139 141 -193 -193 -209 145 149 150 148 149 148 151 150 151 157 160 160 164 164 163 163 164 164 161 155 162 -193 -193 169 170 173 0 0 0 0 0
    0 0 0 0 0 0 0 0 0 0 0 0 0 0 0 0 0 0 0 0 0 0 0 0 0 0 0 0 0 0 0 0 0 0 0 0 0 0 0 0 0 0 0 0 0 0 0 0 0 0 0 0 0 0 0 0 0 0 0 0 0 0 0 0 0 0 0 0 0 -193 -209 138 137 137 137 137 134 131 129 130 130 132 -193 -209 -209 -209 152 141 -209 -209 -193 139 134 136 -193 -193 -209 -209 -209 -209 -209 468 -177 -209 135 134 132 133 133 131 131 132 129 130 129 -193 -193 -209 -209 -209 -209 -193 512 -209 -193 -209 -209 -193 -209 -193 -193 -209 -209 938 -193 -193 135 135 134 -193 134 135 138 139 141 141 139 140 137 138 138 140 140 137 135 135 -209 -177 -193 -193 -193 -193 132 133 129 -193 130 -209 -209 -209 -193 363 374 -209 -209 -209 -209 -209 -209 -209 -209 -193 -193 -193 134 133 129 126 127 127 127 129 131 128 129 133 135 -193 -193 -193 -209 -209 169 170 174 175 174 175 177 174 174 174 173 170 170 170 170 169 170 174 175 179 183 178 182 185 185 185 185 185 187 186 187 188 186 187 190 191 190 187 191 194 193 197 201 -209 -193 140 139 137 142 147 145 148 153 153 153 152 152 153 151 152 151 151 151 151 151 151 151 151 148 147 145 140 138 139 137 137 135 137 137 136 138 139 138 -193 -209 -209 -209 -209 -193 -209 148 148 149 152 151 152 159 163 162 164 165 164 163 164 164 161 155 162 -193 -193 169 170 173 0 0 0 0 0
    0 0 0 0 0 0 0 0 0 0 0 0 0 0 0 0 0 0 0 0 0 0 0 0 0 0 0 0 0 0 0 0 0 0 0 0 0 0 0 0 0 0 0 0 0 0 0 0 0 0 0 0 0 0 0 0 0 0 0 0 0 0 0 0 0 0 0 0 0 -193 -209 -209 -209 -209 -193 -209 -209 -193 -209 -209 -209 -209 850 -193 -193 -209 -209 244 -209 236 235 236 237 236 235 237 236 237 -193 -193 -209 -209 -209 -209 -209 -193 134 -193 -209 -193 128 -209 -193 -209 -209 -209 -209 -209 -209 547 541 541 514 -209 -209 -209 -209 -193 -209 -193 -193 -209 -209 -209 131 132 135 135 134 -209 -209 -209 141 -193 -193 -193 -193 -193 -193 -193 -193 -193 144 -209 -209 -209 -209 -209 -209 584 581 -193 -209 -209 -209 -209 -209 -209 -209 -209 -209 -209 -193 -209 -209 238 240 -209 -209 -209 -209 -209 -193 135 133 131 126 124 124 123 125 125 130 126 129 133 -193 -193 -193 437 -209 -209 -209 168 174 176 175 175 179 175 174 175 174 170 170 171 170 169 170 174 174 178 183 177 182 186 186 185 185 185 188 186 187 188 187 187 191 193 192 188 194 198 196 198 202 206 -209 -209 146 142 146 148 144 146 150 150 151 153 153 154 153 155 155 155 154 153 152 153 152 151 149 148 147 143 140 141 138 138 137 138 138 137 138 140 139 -193 -209 -209 -209 -209 -209 -193 -193 152 151 156 154 154 162 164 163 165 166 165 164 165 165 164 159 166 172 170 171 172 175 0 0 0 0 0
    0 0 0 0 0 0 0 0 0 0 0 0 0 0 0 0 0 0 0 0 0 0 0 0 0 0 0 0 0 0 0 0 0 0 0 0 0 0 0 0 0 0 0 0 0 0 0 0 0 0 0 0 0 0 0 0 0 0 0 0 0 0 0 0 0 0 0 0 0 -209 233 235 -193 -193 -193 -209 -209 -193 248 -193 -209 248 249 251 247 244 241 242 242 241 239 240 238 237 235 238 235 236 234 234 234 237 238 237 234 -209 -209 -209 -193 -209 -209 -209 -209 -209 -209 -209 -193 -177 -193 -177 -225 -177 -209 -209 -209 -209 -193 -209 986 -209 -209 -209 -209 -209 -209 -209 -209 -193 -209 -209 -209 -209 305 314 322 -209 -209 -209 -209 -209 -209 -209 90 91 -209 -209 -209 -209 -209 -193 -193 -209 -209 -209 -209 -209 -209 220 223 231 -209 -193 -193 -193 -193 240 240 -193 -209 -193 -209 -209 -193 -193 -193 -209 -209 -209 -209 116 121 120 124 123 131 135 -209 -209 -193 -193 -209 -209 -209 165 176 180 176 177 180 176 176 176 175 171 171 171 171 169 170 175 176 178 183 175 183 191 187 186 186 186 189 188 188 189 187 189 194 195 195 191 200 203 202 202 204 210 217 223 225 -209 -209 -209 143 142 139 141 141 147 150 152 152 154 156 157 155 153 153 154 153 152 149 148 148 145 142 143 140 140 138 140 140 138 139 140 139 -193 -209 -209 -209 -209 -209 -193 -193 -193 155 163 157 157 164 166 165 166 167 167 166 167 167 167 166 169 173 173 174 175 178 0 0 0 0 0
    0 0 0 0 0 0 0 0 0 0 0 0 0 0 0 0 0 0 0 0 0 0 0 0 0 0 0 0 0 0 0 0 0 0 0 0 0 0 0 0 0 0 0 0 0 0 0 0 0 0 0 0 0 0 0 0 0 0 0 0 0 0 0 0 0 0 0 0 0 234 233 235 234 235 238 241 243 244 245 244 244 244 244 245 244 242 239 240 240 240 240 241 238 238 236 238 235 235 234 234 233 235 235 234 234 -193 233 -209 114 -193 -209 -209 -193 -209 -209 -209 -209 -225 -209 -225 -225 -225 -193 -193 -193 -209 -209 -209 -209 -209 -225 -225 -225 -225 -225 -225 -225 -225 -225 243 244 247 245 244 242 -193 234 -193 95 94 94 93 93 -193 -193 238 237 -177 -177 -177 -193 -193 232 -193 234 220 217 222 226 -193 -193 -193 -193 242 239 240 241 240 239 239 235 235 -193 -193 -193 -193 231 233 232 233 232 231 -193 -209 -209 -209 -209 -209 -177 -193 -209 -209 -209 -193 -193 -209 178 179 181 177 176 177 177 172 172 172 172 170 172 177 178 179 182 172 183 -193 -193 188 187 188 192 189 189 189 188 190 196 196 198 192 202 214 214 212 205 215 219 225 228 229 227 228 230 -209 127 131 -209 -209 -209 222 -209 -209 -209 -193 235 237 -193 154 153 151 -193 147 148 147 146 145 141 140 139 141 -193 138 139 140 140 -209 -209 -209 -209 -209 -209 94 -193 -193 -193 -193 157 158 165 167 166 167 168 169 168 169 169 170 170 172 177 178 178 178 181 0 0 0 0 0
    0 0 0 0 0 0 0 0 0 0 0 0 0 0 0 0 0 0 0 0 0 0 0 0 0 0 0 0 0 0 0 0 0 0 0 0 0 0 0 0 0 0 0 0 0 0 0 0 0 0 0 0 0 0 0 0 0 0 0 0 0 0 0 0 0 0 0 0 0 234 233 235 234 236 239 241 242 243 243 243 243 242 241 241 240 240 238 239 239 239 240 240 239 238 237 239 237 237 235 235 234 235 234 234 234 232 234 231 -193 -193 -209 -209 -209 -193 -209 -209 -209 239 -209 -209 -177 -177 -177 -177 -177 -177 -209 -209 -209 -209 -209 -209 -209 -193 -193 234 236 235 238 239 239 243 241 242 241 238 235 237 237 237 94 -193 237 237 237 237 237 235 234 233 233 233 231 232 233 231 232 232 234 236 239 240 239 240 239 239 239 239 239 238 236 237 234 233 233 232 233 233 233 233 231 231 232 231 232 231 231 231 233 232 231 231 231 230 231 229 -193 176 178 174 174 175 175 172 171 172 171 171 -209 -193 -209 -193 -209 -209 233 234 234 189 189 190 195 191 190 191 190 192 198 197 198 192 202 -193 220 -193 -193 -193 221 226 228 230 229 230 233 231 -209 -209 -209 222 225 230 233 233 234 236 236 238 240 240 239 236 242 -209 149 150 153 -209 -209 -209 -193 -209 -209 -209 -209 -209 -209 -209 -209 -209 -209 -177 -209 97 93 94 100 -209 -209 -177 -177 167 166 167 169 169 168 169 169 170 170 173 179 180 180 180 182 0 0 0 0 0
    0 0 0 0 0 0 0 0 0 0 0 0 0 0 0 0 0 0 0 0 0 0 0 0 0 0 0 0 0 0 0 0 0 0 0 0 0 0 0 0 0 0 0 0 0 0 0 0 0 0 0 0 0 0 0 0 0 0 0 0 0 0 0 0 0 0 0 0 0 233 232 233 233 236 238 240 241 241 242 241 242 241 239 240 239 239 237 238 238 238 239 240 239 238 238 239 238 238 236 236 234 234 234 234 234 233 234 233 231 233 -193 -193 -193 -209 -209 -209 -193 237 -193 -209 -209 -177 -177 -209 -177 -177 -177 -209 -209 -193 -209 -209 -209 231 232 233 235 235 236 237 237 240 238 241 239 237 235 237 237 237 -193 237 237 237 237 237 237 236 235 233 233 233 232 233 234 233 234 233 237 236 239 239 239 239 238 239 239 238 239 238 237 237 234 234 233 233 233 233 233 233 230 231 232 232 232 232 232 233 234 234 232 232 231 232 232 231 231 -209 -209 172 172 173 173 172 170 170 -193 -209 93 -193 227 233 233 236 236 236 237 -193 189 191 197 193 192 193 192 195 -193 -193 199 -209 -193 221 224 222 -193 220 223 227 229 230 229 230 233 231 233 231 230 230 231 233 236 235 235 237 237 238 241 240 239 235 240 -193 -209 -209 -209 -209 -209 -209 -209 -209 -193 -209 -209 -209 -209 -209 -209 -209 -209 -209 -209 95 92 93 98 -193 -193 -177 -177 -193 -193 -193 168 168 167 169 168 170 168 170 -209 -209 -193 -193 -209 0 0 0 0 0
    0 0 0 0 0 0 0 0 0 0 0 0 0 0 0 0 0 0 0 0 0 0 0 0 0 0 0 0 0 0 0 0 0 0 0 0 0 0 0 0 0 0 0 0 0 0 0 0 0 0 0 0 0 0 0 0 0 0 0 0 0 0 0 0 0 0 0 0 0 232 232 232 233 235 237 239 240 240 240 240 240 240 238 239 238 239 237 238 238 238 239 239 239 238 238 239 239 239 236 236 235 234 234 234 234 234 234 234 233 234 234 234 233 234 232 -193 234 236 237 -193 -193 -193 -209 -209 -193 -193 -209 -193 -193 -193 -193 -193 -193 -193 233 233 235 235 236 236 236 239 238 240 239 236 234 236 237 237 -193 237 237 237 237 237 237 235 235 233 233 233 232 232 233 234 234 233 236 236 239 238 239 239 238 239 238 238 238 237 236 236 234 234 233 232 233 233 232 232 230 231 232 232 232 232 232 233 233 235 233 232 232 233 233 233 232 -193 -193 -193 -209 -193 -209 -209 -209 -209 -209 -193 -193 229 229 233 234 236 236 237 236 236 -209 -209 -209 196 195 195 198 -209 -209 -209 -209 -193 222 227 229 227 220 225 228 230 232 232 232 233 235 233 233 233 232 232 233 234 237 235 236 238 237 238 239 238 238 234 236 239 234 240 240 241 239 240 239 238 235 -209 -209 -193 226 -209 -209 -209 -209 -209 -209 -193 -209 91 94 -193 -193 -193 -193 -209 -193 -193 -209 -193 167 -209 -193 -209 -193 -209 230 -193 -209 -209 -209 0 0 0 0 0
    0 0 0 0 0 0 0 0 0 0 0 0 0 0 0 0 0 0 0 0 0 0 0 0 0 0 0 0 0 0 0 0 0 0 0 0 0 0 0 0 0 0 0 0 0 0 0 0 0 0 0 0 0 0 0 0 0 0 0 0 0 0 0 0 0 0 0 0 0 233 232 233 233 236 237 239 240 240 239 239 239 239 237 238 237 238 237 237 237 238 240 240 240 239 238 239 239 239 237 236 235 234 234 234 234 234 234 234 234 235 235 234 234 234 233 233 235 235 237 236 238 -193 -193 239 -193 -209 -209 -193 -193 -193 -193 -193 234 233 233 233 235 236 236 236 235 237 236 239 238 236 234 236 237 237 240 237 237 237 236 236 236 235 235 232 232 232 232 232 233 233 234 234 237 236 239 238 239 239 238 238 238 237 238 236 236 236 234 234 233 233 233 233 233 233 230 231 232 232 232 232 232 232 233 234 232 232 232 234 233 233 233 233 233 236 236 -193 233 233 233 233 233 -193 232 232 231 233 234 235 236 236 235 235 235 237 237 -193 -193 198 -209 235 234 233 233 230 229 231 232 231 228 229 231 232 233 234 233 234 236 234 234 234 233 232 234 234 237 235 235 238 236 237 238 237 237 234 235 239 234 239 239 240 239 239 238 237 234 233 -193 230 227 -193 -209 -209 -209 -209 -209 -209 -209 -209 -209 -209 -177 -177 -177 -177 -193 -209 -209 -193 227 227 230 231 232 233 232 233 234 236 235 0 0 0 0 0
    0 0 0 0 0 0 0 0 0 0 0 0 0 0 0 0 0 0 0 0 0 0 0 0 0 0 0 0 0 0 0 0 0 0 0 0 0 0 0 0 0 0 0 0 0 0 0 0 0 0 0 0 0 0 0 0 0 0 0 0 0 0 0 0 0 0 0 0 0 233 233 233 234 236 237 239 239 239 238 239 238 238 236 237 236 237 236 237 237 238 240 240 240 239 239 239 239 239 236 235 234 233 234 234 234 234 235 235 234 235 235 234 234 234 233 234 235 235 237 236 238 239 239 239 238 237 -193 -193 -193 -193 -193 235 234 234 234 234 235 236 236 236 235 236 236 238 237 236 235 236 237 237 240 237 237 236 236 236 236 235 234 232 232 232 233 233 233 233 233 234 236 236 238 237 238 238 237 238 238 237 238 236 236 236 235 234 234 233 234 233 233 233 231 231 232 232 232 231 231 232 232 233 232 232 232 234 233 233 233 233 233 235 235 236 233 233 233 233 233 233 233 233 231 233 234 235 235 235 234 234 234 237 237 237 236 237 234 238 236 235 234 233 233 233 233 233 232 232 233 234 234 234 233 233 236 234 234 234 233 232 234 234 236 235 235 237 236 236 237 236 236 233 235 239 234 238 239 239 239 238 237 237 234 234 233 231 229 229 230 232 232 234 234 234 237 238 -209 -209 -177 -177 -177 -177 -193 -193 -193 -193 228 228 230 232 233 233 232 234 235 236 236 0 0 0 0 0
    0 0 0 0 0 0 0 0 0 0 0 0 0 0 0 0 0 0 0 0 0 0 0 0 0 0 0 0 0 0 0 0 0 0 0 0 0 0 0 0 0 0 0 0 0 0 0 0 0 0 0 0 0 0 0 0 0 0 0 0 0 0 0 0 0 0 0 0 0 233 232 232 233 236 236 238 238 237 237 238 237 237 236 236 236 236 236 237 237 238 240 240 240 239 238 239 238 238 236 235 234 234 234 234 235 235 234 235 234 235 235 234 234 234 233 234 235 235 236 237 238 239 239 239 238 237 238 236 235 235 234 235 234 234 235 234 236 237 236 237 236 237 237 238 237 236 235 236 237 238 240 237 236 236 235 235 235 234 234 232 233 232 233 234 234 234 234 234 236 236 238 237 238 238 237 238 238 237 237 236 236 236 235 234 234 234 234 234 234 234 232 232 232 232 232 231 231 232 232 233 232 232 232 234 233 233 233 233 233 235 235 235 233 234 234 234 233 233 233 233 232 233 234 234 235 235 234 234 234 237 237 238 237 238 236 240 238 236 235 235 234 235 234 235 234 234 235 235 235 234 233 233 235 234 234 234 233 233 234 235 237 235 235 236 235 236 236 235 235 233 235 238 234 238 239 239 239 239 238 237 235 235 234 233 231 230 232 233 233 235 235 235 237 238 238 237 237 -193 -193 -193 -209 -193 -193 228 229 229 231 232 234 234 233 234 235 236 236 0 0 0 0 0
    0 0 0 0 0 0 0 0 0 0 0 0 0 0 0 0 0 0 0 0 0 0 0 0 0 0 0 0 0 0 0 0 0 0 0 0 0 0 0 0 0 0 0 0 0 0 0 0 0 0 0 0 0 0 0 0 0 0 0 0 0 0 0 0 0 0 0 0 0 233 232 232 232 236 236 237 237 237 236 237 237 236 235 236 236 236 236 236 236 237 239 239 239 238 238 238 238 238 236 236 235 234 234 235 235 235 235 235 235 235 235 235 234 234 233 234 235 234 236 237 238 239 239 239 238 237 238 237 235 236 234 235 235 235 236 235 236 237 236 237 236 236 236 238 237 236 235 236 237 237 239 236 236 235 234 234 234 234 234 232 233 232 234 234 234 235 235 236 237 237 238 237 238 238 237 238 238 237 237 236 236 236 235 235 234 234 234 234 234 234 233 233 232 232 232 232 232 232 232 233 232 231 232 234 233 233 233 233 233 234 235 235 233 234 234 234 234 234 234 234 233 233 234 234 235 235 235 235 235 237 237 237 236 237 236 239 237 235 235 235 234 234 234 234 234 234 235 235 235 234 234 234 236 236 235 235 234 234 235 235 237 235 235 236 235 235 236 235 235 233 235 238 235 238 239 239 238 238 237 237 235 235 235 234 233 233 233 234 235 235 235 235 236 237 237 236 236 235 235 234 233 233 231 231 231 231 232 234 235 235 234 235 235 236 235 0 0 0 0 0
    0 0 0 0 0 0 0 0 0 0 0 0 0 0 0 0 0 0 0 0 0 0 0 0 0 0 0 0 0 0 0 0 0 0 0 0 0 0 0 0 0 0 0 0 0 0 0 0 0 0 0 0 0 0 0 0 0 0 0 0 0 0 0 0 0 0 0 0 0 233 232 232 233 236 236 238 237 237 236 237 237 236 235 236 235 235 235 235 235 236 239 238 239 238 238 238 238 238 236 236 235 234 234 235 235 235 235 236 236 236 236 235 234 234 234 234 235 234 235 237 237 238 238 238 237 236 238 236 235 236 234 235 235 235 236 235 236 237 236 237 235 236 236 237 236 236 235 235 236 237 238 235 235 233 233 234 233 233 233 232 233 232 234 234 234 236 235 236 238 237 239 237 238 238 238 238 237 236 236 235 235 236 234 234 234 234 234 234 235 235 233 233 233 233 233 232 232 232 232 233 232 232 232 234 233 233 233 233 233 234 234 235 234 234 234 234 233 233 233 234 232 233 233 234 234 235 235 234 234 235 236 236 236 236 235 238 237 236 236 235 235 234 234 234 233 233 235 234 235 234 234 235 236 236 236 236 235 235 236 237 238 235 235 236 234 234 235 235 235 233 235 238 235 238 239 239 238 238 237 236 235 236 236 235 234 234 234 235 236 236 234 234 234 235 235 234 234 234 233 234 233 233 232 232 233 233 233 235 235 235 234 235 235 236 235 0 0 0 0 0
    0 0 0 0 0 0 0 0 0 0 0 0 0 0 0 0 0 0 0 0 0 0 0 0 0 0 0 0 0 0 0 0 0 0 0 0 0 0 0 0 0 0 0 0 0 0 0 0 0 0 0 0 0 0 0 0 0 0 0 0 0 0 0 0 0 0 0 0 0 233 233 232 234 237 236 238 237 237 236 237 236 236 235 236 235 235 235 235 235 236 238 238 239 238 238 238 238 239 236 236 235 234 234 235 235 236 235 236 236 236 236 235 235 234 234 234 235 234 235 237 237 237 238 237 237 236 237 236 235 236 235 235 235 235 236 235 235 237 236 236 235 235 235 237 236 236 235 235 237 238 239 235 235 233 233 233 233 233 233 232 233 231 234 234 234 236 235 237 238 238 239 237 239 238 237 238 237 236 236 235 235 235 234 234 233 234 234 234 234 234 233 233 233 233 233 233 233 233 232 233 232 232 232 235 233 233 233 234 234 235 234 235 233 234 234 233 233 233 233 233 232 232 233 233 234 234 235 234 234 235 235 236 236 236 235 237 237 236 236 235 235 235 234 235 234 233 235 234 235 234 234 234 236 236 236 236 236 235 237 237 238 235 235 235 234 234 234 234 234 233 234 237 235 237 238 237 237 237 236 236 234 235 235 235 234 235 235 235 236 235 234 232 232 233 233 232 233 232 232 232 233 233 233 233 233 234 234 235 235 234 234 234 235 236 235 0 0 0 0 0
    0 0 0 0 0 0 0 0 0 0 0 0 0 0 0 0 0 0 0 0 0 0 0 0 0 0 0 0 0 0 0 0 0 0 0 0 0 0 0 0 0 0 0 0 0 0 0 0 0 0 0 0 0 0 0 0 0 0 0 0 0 0 0 0 0 0 0 0 0 233 233 232 234 236 236 237 237 237 236 237 236 236 235 236 235 235 235 235 235 237 238 238 238 238 238 238 237 239 236 236 235 234 235 235 235 236 235 236 236 236 236 236 235 235 234 235 235 234 235 237 236 237 237 -193 236 236 237 236 235 236 235 236 235 235 236 235 236 237 236 236 235 235 235 236 236 236 235 235 236 238 238 235 235 233 233 233 233 233 233 232 232 231 234 234 234 236 235 237 238 238 239 237 238 238 237 238 237 236 236 234 235 235 234 234 233 234 234 234 234 234 233 233 233 233 232 232 232 232 232 233 232 232 232 235 233 234 234 234 234 235 234 235 233 234 234 234 233 233 233 234 232 232 233 233 233 233 234 234 233 234 234 235 235 235 235 236 237 235 236 235 235 235 235 235 234 233 235 234 235 234 234 234 236 236 236 236 236 235 236 236 237 234 234 235 233 234 234 234 234 233 234 236 235 236 237 236 236 236 236 235 234 235 235 235 235 235 235 235 236 235 234 232 232 233 233 232 232 231 232 231 232 233 232 233 233 234 234 235 235 235 234 235 235 236 235 0 0 0 0 0
    0 0 0 0 0 0 0 0 0 0 0 0 0 0 0 0 0 0 0 0 0 0 0 0 0 0 0 0 0 0 0 0 0 0 0 0 0 0 0 0 0 0 0 0 0 0 0 0 0 0 0 0 0 0 0 0 0 0 0 0 0 0 0 0 0 0 0 0 0 234 235 234 235 236 236 237 237 237 236 237 236 236 235 235 235 235 235 235 235 237 238 238 238 237 237 237 236 238 236 235 235 235 235 235 235 236 235 236 236 237 236 236 235 235 234 235 235 234 235 237 236 236 237 237 236 236 237 236 235 236 235 236 235 235 236 235 235 236 235 236 235 235 235 236 236 235 235 234 235 238 237 235 235 233 233 233 233 233 232 232 232 229 233 234 233 235 235 237 237 237 238 237 238 238 237 237 236 235 235 234 234 234 233 233 233 234 234 234 234 234 233 233 232 233 232 232 232 232 230 231 231 231 232 235 233 233 234 234 234 235 234 235 233 234 234 234 233 233 233 233 232 232 232 232 232 233 234 234 233 234 234 235 235 235 235 236 236 235 236 235 234 235 235 235 234 234 236 235 236 235 235 236 237 236 236 236 236 235 236 236 237 234 234 234 233 233 233 234 234 233 235 236 235 236 236 236 235 236 236 235 234 235 236 236 235 235 235 235 236 235 235 233 232 234 233 232 233 232 232 232 233 233 232 233 233 235 234 235 235 235 235 235 236 236 235 0 0 0 0 0
    0 0 0 0 0 0 0 0 0 0 0 0 0 0 0 0 0 0 0 0 0 0 0 0 0 0 0 0 0 0 0 0 0 0 0 0 0 0 0 0 0 0 0 0 0 0 0 0 0 0 0 0 0 0 0 0 0 0 0 0 0 0 0 0 0 0 0 0 0 235 235 234 235 236 236 237 237 237 236 237 236 236 235 235 235 235 235 235 235 236 238 237 237 237 236 237 236 237 235 235 235 235 235 236 235 236 235 237 236 237 236 236 235 235 234 235 235 234 235 236 236 236 237 237 236 236 236 236 235 236 235 235 235 235 235 235 235 236 235 235 234 234 234 235 236 235 235 235 236 240 236 235 236 233 233 233 233 233 231 232 232 229 233 234 233 235 235 237 237 237 238 237 238 238 237 237 236 235 234 233 234 233 233 233 233 234 234 234 234 234 234 234 233 233 232 232 231 232 230 230 230 230 231 235 233 233 233 234 234 234 234 235 233 234 234 234 233 233 233 233 232 232 233 233 233 233 234 234 234 234 234 235 235 235 235 235 236 235 236 235 235 235 235 235 235 234 236 234 235 235 235 236 237 236 236 237 236 235 236 236 237 234 234 234 233 233 233 233 233 232 234 235 234 235 235 235 235 236 236 236 235 235 236 236 236 236 235 235 235 235 234 233 233 234 233 233 233 232 232 232 233 233 232 234 234 235 235 236 235 235 235 235 236 237 235 0 0 0 0 0
    0 0 0 0 0 0 0 0 0 0 0 0 0 0 0 0 0 0 0 0 0 0 0 0 0 0 0 0 0 0 0 0 0 0 0 0 0 0 0 0 0 0 0 0 0 0 0 0 0 0 0 0 0 0 0 0 0 0 0 0 0 0 0 0 0 0 0 0 0 -193 -193 -193 234 235 235 236 237 237 237 237 237 236 236 236 235 236 236 235 235 236 237 237 236 236 235 236 235 237 235 235 235 235 235 236 235 236 234 236 235 236 235 235 235 234 233 234 234 234 234 235 235 235 236 -193 236 236 236 235 235 236 234 235 234 234 234 234 234 235 235 235 234 234 234 235 236 236 235 235 236 241 237 235 237 234 233 234 233 234 232 233 233 230 234 234 233 235 235 236 237 237 237 237 238 238 237 237 235 234 233 233 233 233 233 233 233 234 234 234 234 234 234 234 233 233 232 232 232 232 231 230 230 231 232 236 233 234 234 234 235 235 234 235 233 234 234 234 233 233 233 233 233 233 233 233 233 233 235 235 235 234 234 235 235 235 235 235 235 234 236 235 235 235 234 234 234 234 235 234 234 234 234 236 238 237 237 237 236 236 237 237 237 234 234 233 233 232 232 233 233 231 233 234 234 234 234 234 234 235 236 236 236 236 237 236 237 236 235 234 234 233 233 231 232 233 232 232 -193 233 233 233 234 234 233 234 234 236 235 236 236 235 235 236 237 237 236 0 0 0 0 0
    0 0 0 0 0 0 0 0 0 0 0 0 0 0 0 0 0 0 0 0 0 0 0 0 0 0 0 0 0 0 0 0 0 0 0 0 0 0 0 0 0 0 0 0 0 0 0 0 0 0 0 0 0 0 0 0 0 0 0 0 0 0 0 0 0 0 0 0 0 -193 -193 -193 233 234 235 237 237 237 238 238 237 237 237 237 236 236 236 235 235 236 237 236 235 236 234 236 234 237 235 235 235 236 236 236 235 236 234 236 234 236 235 234 234 233 232 233 233 233 233 234 234 -193 -193 -193 235 235 235 235 234 235 234 235 234 234 233 233 234 234 234 234 234 234 234 234 237 236 235 235 236 242 237 236 238 234 234 234 234 234 232 233 233 231 234 234 234 235 235 237 237 237 238 237 238 238 237 237 235 234 233 232 233 232 232 232 232 233 233 234 234 233 234 234 233 232 232 232 232 233 231 231 230 231 232 237 234 234 234 234 235 235 234 235 233 234 234 234 234 233 233 233 233 233 233 233 233 234 236 235 235 234 233 234 234 235 235 234 234 234 235 235 234 234 233 233 234 233 235 233 235 234 235 236 240 237 237 238 237 236 237 237 238 234 234 234 233 233 232 233 232 231 233 233 233 233 234 234 234 235 236 236 236 236 237 237 237 237 235 234 233 233 232 230 231 232 232 232 -193 233 233 233 234 234 233 234 234 235 234 234 235 234 234 235 236 237 236 0 0 0 0 0
    0 0 0 0 0 0 0 0 0 0 0 0 0 0 0 0 0 0 0 0 0 0 0 0 0 0 0 0 0 0 0 0 0 0 0 0 0 0 0 0 0 0 0 0 0 0 0 0 0 0 0 0 0 0 0 0 0 0 0 0 0 0 0 0 0 0 0 0 0 233 234 233 233 234 235 237 237 237 239 238 237 238 237 236 236 236 236 235 235 236 236 236 235 236 234 237 235 237 235 235 235 236 236 236 235 237 234 237 235 237 236 234 234 233 232 233 232 232 232 232 233 -209 -209 -193 233 234 234 234 234 235 234 235 233 234 233 232 233 233 233 233 233 233 233 233 237 235 235 235 236 242 237 236 238 234 235 235 235 235 232 234 234 230 233 234 233 235 235 236 237 238 238 238 239 238 237 237 235 233 232 232 233 231 231 232 232 233 233 233 233 232 233 233 232 232 231 232 232 233 232 231 230 231 232 237 -193 234 233 234 235 235 234 235 233 234 234 234 234 233 233 233 233 233 233 233 233 233 235 234 234 234 233 234 234 234 234 233 234 233 234 234 233 233 233 232 233 233 234 233 235 235 235 237 240 237 237 238 237 236 237 237 238 234 234 234 233 233 233 233 232 231 233 233 233 233 234 233 233 235 236 236 236 235 236 236 236 236 234 233 230 230 231 229 230 231 230 232 -193 233 234 233 234 234 233 235 234 234 233 234 234 234 234 235 235 236 235 0 0 0 0 0
    0 0 0 0 0 0 0 0 0 0 0 0 0 0 0 0 0 0 0 0 0 0 0 0 0 0 0 0 0 0 0 0 0 0 0 0 0 0 0 0 0 0 0 0 0 0 0 0 0 0 0 0 0 0 0 0 0 0 0 0 0 0 0 0 0 0 0 0 0 233 234 233 233 234 235 237 237 237 239 238 237 237 237 236 235 236 236 235 235 236 236 236 236 236 234 237 235 238 236 236 235 236 236 236 234 237 235 237 235 237 237 235 236 234 232 233 233 232 232 231 -193 -193 -193 -209 232 233 234 233 234 234 234 235 233 234 232 232 232 232 232 232 232 232 232 233 238 236 235 235 236 242 237 237 239 235 236 236 235 235 233 234 234 230 233 233 233 234 234 236 236 237 237 238 238 238 236 236 234 233 231 231 232 231 231 232 232 232 232 233 232 231 232 232 231 231 230 232 232 233 232 231 231 232 233 237 233 234 233 234 235 235 234 235 233 234 233 233 233 233 233 233 232 233 233 233 233 233 235 234 234 234 233 233 233 234 234 233 233 233 234 233 233 233 233 232 233 233 234 233 235 234 234 235 238 -193 236 237 237 236 236 237 237 234 234 234 233 233 233 233 233 232 234 233 234 234 234 234 234 235 236 236 236 234 235 234 234 234 232 230 228 228 229 228 230 -193 -193 231 -193 233 234 233 233 233 233 234 234 234 233 233 234 234 234 235 236 236 236 0 0 0 0 0
    0 0 0 0 0 0 0 0 0 0 0 0 0 0 0 0 0 0 0 0 0 0 0 0 0 0 0 0 0 0 0 0 0 0 0 0 0 0 0 0 0 0 0 0 0 0 0 0 0 0 0 0 0 0 0 0 0 0 0 0 0 0 0 0 0 0 0 0 0 234 234 233 233 234 235 236 237 236 238 237 236 237 237 236 235 236 236 235 235 236 237 236 236 236 234 237 235 238 236 236 236 236 236 236 234 237 234 237 235 237 237 235 236 235 231 232 232 232 232 231 -193 -193 -193 -209 232 233 233 233 234 234 234 235 233 234 232 232 232 232 232 232 231 232 232 232 239 236 235 235 237 242 237 237 240 235 236 237 236 236 233 235 234 230 232 232 232 234 234 235 236 237 237 237 238 237 236 236 234 233 231 232 232 231 232 232 232 232 232 232 232 231 232 231 230 230 229 231 231 233 232 231 232 233 234 238 234 234 233 234 234 235 234 234 232 234 233 233 233 233 233 233 232 233 233 233 233 233 234 234 234 234 232 233 233 233 233 232 232 232 233 233 233 233 233 233 233 233 234 233 234 234 234 234 236 -193 235 236 236 235 235 236 237 234 234 234 234 233 233 234 233 233 234 233 234 233 234 234 234 235 236 235 235 234 234 234 233 233 230 229 227 228 230 229 -193 -209 -193 -209 -193 233 234 233 233 233 233 234 234 234 234 234 234 235 235 236 236 236 236 0 0 0 0 0
    0 0 0 0 0 0 0 0 0 0 0 0 0 0 0 0 0 0 0 0 0 0 0 0 0 0 0 0 0 0 0 0 0 0 0 0 0 0 0 0 0 0 0 0 0 0 0 0 0 0 0 0 0 0 0 0 0 0 0 0 0 0 0 0 0 0 0 0 0 234 234 233 233 233 234 235 236 236 239 237 236 237 237 236 236 237 236 235 236 236 237 236 236 236 234 237 235 238 236 -193 235 236 236 236 234 237 234 236 234 236 235 233 235 234 230 231 231 231 232 232 233 232 -193 233 232 233 233 233 233 234 233 235 234 234 233 232 233 232 232 232 231 231 231 232 240 235 235 235 237 242 237 237 240 235 236 237 236 235 233 235 234 230 232 232 232 233 233 235 235 235 236 236 237 236 236 235 233 233 232 232 233 232 232 232 232 233 233 232 232 231 231 230 230 228 229 230 231 232 233 232 233 234 236 238 234 234 234 234 235 235 234 234 232 234 233 233 233 233 233 233 232 233 233 233 -193 233 234 234 234 234 232 233 233 233 233 232 231 231 232 233 232 233 233 232 233 233 234 233 234 234 234 234 236 233 235 235 235 235 235 236 236 234 234 234 234 233 234 234 233 233 234 233 233 233 233 233 234 234 235 234 235 234 234 233 233 232 230 229 228 229 231 231 -193 -193 -209 -193 -193 234 235 -193 234 234 234 235 235 235 234 234 235 235 235 236 236 236 236 0 0 0 0 0
    0 0 0 0 0 0 0 0 0 0 0 0 0 0 0 0 0 0 0 0 0 0 0 0 0 0 0 0 0 0 0 0 0 0 0 0 0 0 0 0 0 0 0 0 0 0 0 0 0 0 0 0 0 0 0 0 0 0 0 0 0 0 0 0 0 0 0 0 0 233 233 233 232 233 234 235 236 236 239 237 236 237 237 236 236 237 236 235 236 236 237 236 235 235 233 236 234 236 235 -193 235 236 236 236 234 237 234 236 234 234 232 231 232 232 230 230 231 231 232 232 233 -193 232 233 232 233 233 233 233 234 233 234 234 234 233 232 233 232 -193 -193 231 231 231 232 241 236 236 236 237 241 237 237 240 235 236 236 236 235 234 235 234 230 232 232 232 233 233 234 235 235 236 236 237 235 235 235 234 233 233 233 233 232 232 232 233 233 233 232 232 231 231 231 231 229 230 230 232 233 234 233 234 234 237 238 235 235 234 234 235 235 234 234 232 233 233 233 233 232 233 233 232 233 233 233 234 234 235 235 235 236 234 234 234 234 233 232 232 232 232 233 232 232 232 232 233 232 233 232 234 234 234 234 235 233 234 234 235 234 235 236 236 234 234 234 234 233 233 233 233 232 234 232 232 232 233 233 234 234 235 235 236 234 234 234 233 232 230 230 229 229 231 231 232 -193 -193 234 234 234 -193 -193 234 234 234 235 235 235 235 234 235 235 234 235 235 235 235 0 0 0 0 0
    0 0 0 0 0 0 0 0 0 0 0 0 0 0 0 0 0 0 0 0 0 0 0 0 0 0 0 0 0 0 0 0 0 0 0 0 0 0 0 0 0 0 0 0 0 0 0 0 0 0 0 0 0 0 0 0 0 0 0 0 0 0 0 0 0 0 0 0 0 233 233 232 231 232 233 234 235 235 238 236 236 237 237 236 236 237 236 235 236 236 237 235 235 235 232 235 233 235 234 233 234 235 235 236 234 237 234 237 234 233 232 231 234 233 231 231 232 232 232 232 233 232 232 233 232 233 233 233 234 234 234 235 234 234 233 233 233 233 -193 -193 232 231 231 232 241 236 236 236 237 241 237 237 240 235 236 236 236 235 234 235 234 231 233 233 233 233 234 235 235 236 236 237 237 235 236 235 234 234 233 234 234 233 233 233 234 234 233 232 232 231 231 231 231 229 230 230 232 233 234 234 235 235 237 237 235 235 234 234 235 234 233 234 232 233 233 233 233 232 233 233 233 234 233 234 234 235 235 236 236 236 234 234 234 234 233 233 232 231 232 232 232 232 232 231 232 231 232 231 233 233 233 233 235 232 234 234 235 234 235 236 236 234 234 234 234 233 233 233 233 233 233 232 232 232 232 233 233 234 235 235 236 234 234 234 234 233 230 230 229 229 231 231 231 232 231 233 232 233 -193 -193 234 234 235 236 236 235 235 234 235 235 234 235 235 235 235 0 0 0 0 0
    0 0 0 0 0 0 0 0 0 0 0 0 0 0 0 0 0 0 0 0 0 0 0 0 0 0 0 0 0 0 0 0 0 0 0 0 0 0 0 0 0 0 0 0 0 0 0 0 0 0 0 0 0 0 0 0 0 0 0 0 0 0 0 0 0 0 0 0 0 233 233 232 231 232 233 234 235 235 237 236 236 237 237 236 236 237 235 235 236 236 237 235 235 235 233 235 233 234 233 233 234 234 234 235 234 236 233 236 234 233 234 233 237 237 234 233 234 234 233 233 233 -193 232 233 232 232 233 233 233 234 234 236 235 235 234 234 234 233 233 -193 233 231 231 232 239 235 235 236 237 239 236 237 239 235 236 236 236 235 233 234 234 231 233 233 234 234 235 236 236 237 236 237 236 235 235 235 234 234 234 235 234 234 234 234 235 234 233 232 231 231 231 231 231 228 229 229 232 233 235 235 236 235 237 236 235 235 234 234 235 234 233 234 232 233 233 233 233 233 233 233 233 233 233 233 234 235 235 237 236 236 235 235 235 234 234 233 232 232 231 232 231 231 231 231 231 230 230 231 233 233 233 232 235 232 234 234 235 235 236 237 237 234 235 234 234 234 234 234 233 233 234 232 233 232 232 232 233 234 235 235 235 234 234 234 233 232 229 229 229 230 232 232 232 232 231 233 232 233 -193 -193 234 234 236 236 237 236 235 234 235 235 234 235 235 234 235 0 0 0 0 0
    0 0 0 0 0 0 0 0 0 0 0 0 0 0 0 0 0 0 0 0 0 0 0 0 0 0 0 0 0 0 0 0 0 0 0 0 0 0 0 0 0 0 0 0 0 0 0 0 0 0 0 0 0 0 0 0 0 0 0 0 0 0 0 0 0 0 0 0 0 234 233 232 231 232 233 234 235 235 237 235 235 236 237 236 236 236 235 235 236 236 237 235 235 234 233 235 233 234 233 233 234 234 234 235 234 236 234 237 235 236 237 235 239 239 236 236 235 235 235 235 235 -193 233 234 232 233 233 234 234 235 235 237 236 236 235 234 234 234 233 233 232 231 231 232 238 235 235 235 236 238 236 236 238 234 235 235 235 234 233 234 233 231 233 233 234 234 235 237 236 237 237 236 236 235 235 235 233 234 234 235 234 234 234 234 235 234 234 232 231 231 231 231 231 228 229 229 232 234 235 236 237 236 236 236 234 234 234 234 234 234 233 233 233 233 233 233 233 233 233 233 232 233 232 232 233 234 235 237 236 237 235 236 235 235 234 234 232 231 231 231 231 231 231 231 231 229 229 230 232 232 232 231 233 232 233 233 234 234 235 236 236 234 234 234 234 234 234 234 234 233 235 233 234 233 233 233 234 234 235 235 235 234 233 233 233 231 229 229 229 231 233 233 233 233 232 234 233 233 -193 -193 234 234 235 236 237 235 235 234 234 234 234 234 234 234 234 0 0 0 0 0
    0 0 0 0 0 0 0 0 0 0 0 0 0 0 0 0 0 0 0 0 0 0 0 0 0 0 0 0 0 0 0 0 0 0 0 0 0 0 0 0 0 0 0 0 0 0 0 0 0 0 0 0 0 0 0 0 0 0 0 0 0 0 0 0 0 0 0 0 0 233 233 232 231 231 232 233 234 234 235 234 234 235 236 235 236 235 234 235 235 236 236 235 235 234 233 235 232 234 233 233 233 234 233 234 233 236 234 237 236 238 238 237 240 241 238 237 236 236 235 236 236 235 234 234 233 233 234 234 234 235 235 237 236 236 235 234 234 234 233 233 233 232 232 233 237 235 235 235 236 237 235 235 236 234 235 235 234 -193 -193 233 233 230 232 232 233 234 235 237 236 237 237 236 236 235 235 235 233 234 234 235 234 234 234 234 236 235 234 233 231 231 231 231 231 230 230 230 233 235 236 236 237 236 236 236 234 234 234 234 234 233 233 233 233 233 233 233 233 233 232 233 232 232 232 232 233 235 235 238 236 237 235 236 235 235 234 234 232 231 231 231 231 231 231 231 231 229 228 229 232 231 230 231 231 231 232 233 234 234 234 235 235 233 234 234 234 233 234 234 234 233 234 233 233 233 233 233 235 235 235 235 235 234 234 234 233 232 229 230 230 232 233 233 233 233 232 234 234 -193 -193 233 234 234 235 236 236 235 235 234 234 234 234 234 -193 233 234 0 0 0 0 0
    0 0 0 0 0 0 0 0 0 0 0 0 0 0 0 0 0 0 0 0 0 0 0 0 0 0 0 0 0 0 0 0 0 0 0 0 0 0 0 0 0 0 0 0 0 0 0 0 0 0 0 0 0 0 0 0 0 0 0 0 0 0 0 0 0 0 0 0 0 232 231 231 231 231 232 233 233 233 233 233 233 235 236 235 237 235 234 235 235 235 235 234 234 233 233 235 232 233 233 232 233 233 232 233 232 234 233 235 234 236 236 237 240 241 239 238 238 238 236 237 237 235 235 234 234 234 234 234 234 235 235 237 237 236 235 234 234 233 233 233 232 231 231 233 236 234 235 234 236 236 235 235 236 234 234 234 234 -193 -193 233 232 230 232 232 233 233 234 237 236 236 236 236 235 235 235 235 233 233 234 235 234 234 234 234 236 235 234 233 231 232 232 232 232 231 231 231 234 235 237 237 238 237 237 236 235 234 234 234 234 233 233 233 233 233 234 233 233 233 233 233 231 232 232 232 233 235 235 239 237 237 235 235 235 234 233 234 232 232 231 232 232 232 232 232 231 229 227 229 231 229 229 230 230 231 232 232 233 233 234 235 234 234 234 234 234 234 234 233 233 233 233 232 232 232 232 232 234 234 235 235 235 234 235 234 234 232 231 231 232 233 234 233 233 233 233 235 234 234 234 233 234 234 236 236 236 235 235 233 234 234 -193 -193 -193 -193 234 0 0 0 0 0
    0 0 0 0 0 0 0 0 0 0 0 0 0 0 0 0 0 0 0 0 0 0 0 0 0 0 0 0 0 0 0 0 0 0 0 0 0 0 0 0 0 0 0 0 0 0 0 0 0 0 0 0 0 0 0 0 0 0 0 0 0 0 0 0 0 0 0 0 0 232 231 231 231 231 231 232 233 233 233 233 233 235 235 235 236 235 234 235 235 235 235 234 234 233 233 234 232 233 232 232 233 233 231 233 231 232 231 232 233 233 235 236 239 239 239 238 238 237 237 237 237 236 236 235 234 234 234 234 234 235 234 236 237 236 234 233 233 233 232 232 231 230 231 233 236 234 234 234 236 236 235 235 235 233 234 234 233 -193 232 232 231 230 232 232 233 233 234 237 236 236 236 236 235 235 235 234 232 233 233 234 233 233 233 233 237 235 235 233 232 232 232 233 233 232 232 232 234 235 236 237 237 236 236 235 235 235 235 234 234 233 233 234 234 234 234 234 234 233 233 233 232 233 233 232 233 236 236 239 237 237 235 235 235 235 234 234 233 233 233 233 233 233 232 232 231 229 228 230 231 229 230 231 231 232 232 232 233 234 235 236 235 234 235 234 234 234 233 233 233 233 232 230 231 230 231 231 233 232 234 234 234 233 235 234 234 232 232 232 232 233 234 233 232 233 233 236 235 234 234 233 235 235 236 237 236 235 235 234 235 234 -193 -193 -193 -193 233 0 0 0 0 0
    0 0 0 0 0 0 0 0 0 0 0 0 0 0 0 0 0 0 0 0 0 0 0 0 0 0 0 0 0 0 0 0 0 0 0 0 0 0 0 0 0 0 0 0 0 0 0 0 0 0 0 0 0 0 0 0 0 0 0 0 0 0 0 0 0 0 0 0 0 232 230 229 229 229 230 231 233 233 233 233 233 235 235 234 236 234 233 234 234 234 234 233 233 233 233 234 233 233 233 233 233 233 231 233 231 232 230 231 232 233 234 237 238 238 239 238 239 238 237 237 237 237 236 235 234 234 234 234 233 234 234 234 235 234 -193 232 232 232 231 231 231 230 231 233 234 234 234 234 235 235 234 234 234 233 233 233 233 232 231 231 231 231 232 232 233 233 235 237 237 237 237 236 236 235 235 234 232 232 231 233 230 232 232 233 237 236 235 234 233 233 233 234 234 233 233 233 234 235 235 236 236 236 235 235 234 235 235 234 235 233 234 234 234 234 234 234 234 233 234 233 232 233 233 232 233 235 235 238 237 236 235 235 235 235 234 234 233 233 233 234 234 233 232 233 232 230 229 231 230 229 230 232 231 232 232 232 233 234 235 236 235 234 235 234 234 233 233 232 232 231 231 229 230 229 230 230 232 232 234 234 235 233 236 235 235 -193 232 232 232 233 234 232 232 232 233 236 235 235 234 233 235 235 236 236 235 234 234 234 234 234 -193 -193 -193 -193 233 0 0 0 0 0
    0 0 0 0 0 0 0 0 0 0 0 0 0 0 0 0 0 0 0 0 0 0 0 0 0 0 0 0 0 0 0 0 0 0 0 0 0 0 0 0 0 0 0 0 0 0 0 0 0 0 0 0 0 0 0 0 0 0 0 0 0 0 0 0 0 0 0 0 0 230 228 226 226 228 229 231 232 232 232 233 233 234 234 234 235 233 233 234 234 234 234 233 233 233 233 234 233 233 233 233 233 233 231 233 232 231 231 231 232 233 236 238 240 239 241 239 240 239 238 238 237 237 237 235 234 234 233 233 232 234 234 233 234 233 232 232 232 231 231 230 230 230 232 233 234 233 234 234 235 235 234 234 233 233 233 233 233 232 231 231 231 231 233 232 233 234 235 238 238 238 238 237 236 236 235 234 231 231 230 233 230 232 232 233 238 236 235 235 233 234 234 234 235 234 234 234 235 235 235 236 236 235 235 234 234 235 235 234 234 233 234 234 234 234 234 234 234 233 234 233 232 233 233 232 233 235 235 237 236 236 235 235 235 235 234 235 233 234 233 234 234 234 233 233 232 231 230 232 231 231 231 232 231 232 232 232 233 235 236 236 234 234 235 234 234 233 232 231 230 230 229 227 228 227 229 229 232 233 234 234 235 234 236 235 235 233 232 231 231 232 233 231 231 230 231 234 234 234 234 233 234 234 235 236 234 234 234 233 234 234 -193 -193 -193 233 233 0 0 0 0 0
    0 0 0 0 0 0 0 0 0 0 0 0 0 0 0 0 0 0 0 0 0 0 0 0 0 0 0 0 0 0 0 0 0 0 0 0 0 0 0 0 0 0 0 0 0 0 0 0 0 0 0 0 0 0 0 0 0 0 0 0 0 0 0 0 0 0 0 0 0 -193 227 225 225 227 229 230 231 231 232 233 232 233 234 233 234 233 232 234 233 233 233 233 233 233 233 234 233 234 234 234 233 233 231 233 -193 231 231 231 233 234 237 239 240 239 241 240 241 240 238 238 238 237 237 235 234 234 233 233 232 234 234 233 233 233 -193 -193 -193 231 230 229 230 230 231 233 233 233 233 234 235 235 234 234 233 233 233 233 233 232 231 231 231 232 233 232 233 233 235 238 239 239 238 237 236 236 235 234 231 231 229 232 230 233 232 233 238 236 236 235 234 235 234 235 235 234 235 235 235 235 235 236 236 235 234 234 234 235 234 234 234 233 234 234 235 234 234 235 234 234 235 233 232 233 232 230 231 233 234 236 235 235 234 234 235 235 234 235 233 234 233 234 233 234 233 233 233 232 231 233 232 232 232 232 232 232 232 233 233 235 237 236 235 235 235 235 234 233 232 231 230 229 228 224 226 225 228 229 231 232 234 234 236 234 236 235 234 233 233 232 232 232 233 231 231 230 230 233 233 233 233 232 234 234 235 235 234 233 234 234 235 234 234 -193 -193 233 233 0 0 0 0 0
    0 0 0 0 0 0 0 0 0 0 0 0 0 0 0 0 0 0 0 0 0 0 0 0 0 0 0 0 0 0 0 0 0 0 0 0 0 0 0 0 0 0 0 0 0 0 0 0 0 0 0 0 0 0 0 0 0 0 0 0 0 0 0 0 0 0 0 0 0 -209 226 225 226 228 230 231 232 232 232 233 233 234 234 233 234 232 232 233 233 233 233 233 233 233 233 235 234 234 235 234 234 -193 -193 -193 -193 231 230 231 232 234 236 239 240 239 241 239 240 239 238 238 238 238 237 235 234 234 233 232 232 233 233 232 233 232 232 231 231 231 230 229 229 230 231 233 233 233 233 234 235 235 234 234 232 233 233 233 233 232 231 231 231 232 233 232 232 233 234 237 239 240 239 237 236 237 236 234 231 230 228 229 229 232 231 233 238 236 236 236 235 236 235 236 236 235 235 236 236 236 236 236 236 235 234 234 234 235 234 234 234 233 234 234 235 235 234 235 235 234 235 233 232 -193 -209 228 229 231 233 235 235 234 234 234 235 235 234 235 233 234 234 234 234 234 233 234 233 233 232 233 233 232 232 232 231 232 232 232 232 235 237 236 235 235 235 234 233 232 231 230 230 229 228 225 227 226 229 230 232 233 234 234 236 234 236 235 234 -193 233 232 232 232 233 231 232 231 230 232 233 233 232 231 233 233 235 236 235 234 234 234 236 235 234 233 233 233 233 0 0 0 0 0
    0 0 0 0 0 0 0 0 0 0 0 0 0 0 0 0 0 0 0 0 0 0 0 0 0 0 0 0 0 0 0 0 0 0 0 0 0 0 0 0 0 0 0 0 0 0 0 0 0 0 0 0 0 0 0 0 0 0 0 0 0 0 0 0 0 0 0 0 0 223 224 224 225 228 230 231 232 232 232 233 233 234 233 233 233 232 232 233 232 232 232 232 233 233 233 235 234 235 235 235 -193 -193 -209 -193 -193 231 231 231 232 234 236 240 240 238 241 238 240 238 238 237 238 238 238 235 234 234 233 232 231 232 232 231 232 232 231 231 231 230 229 228 229 230 231 233 233 233 233 234 236 235 234 234 232 233 233 233 233 232 231 231 231 232 233 231 232 232 234 237 240 241 240 237 237 238 237 234 230 229 225 225 227 231 230 232 -193 237 236 236 235 237 235 237 236 236 236 236 236 236 236 236 235 235 235 234 234 235 234 233 233 233 233 234 234 234 234 234 -193 234 235 233 231 -193 -209 227 228 230 232 234 234 234 233 233 234 235 234 235 233 234 234 235 234 235 234 235 234 234 233 233 233 232 232 232 231 231 231 230 231 233 236 235 234 235 235 234 233 232 232 230 230 230 230 229 230 230 -193 -193 238 239 238 235 237 235 237 235 234 233 233 232 232 232 233 230 231 230 229 -209 233 233 232 231 -193 -209 235 237 236 234 235 235 236 235 234 233 233 233 234 0 0 0 0 0
    0 0 0 0 0 0 0 0 0 0 0 0 0 0 0 0 0 0 0 0 0 0 0 0 0 0 0 0 0 0 0 0 0 0 0 0 0 0 0 0 0 0 0 0 0 0 0 0 0 0 0 0 0 0 0 0 0 0 0 0 0 0 0 0 0 0 0 0 0 224 224 224 223 227 229 231 -193 232 232 233 234 234 233 233 233 232 231 232 231 231 230 232 232 232 233 234 234 236 236 236 234 -193 -193 -193 -193 230 230 231 232 234 236 240 240 237 240 237 239 237 237 237 237 237 237 234 234 232 231 230 229 230 231 230 231 231 231 230 230 230 228 228 229 230 232 233 234 234 234 235 237 236 234 234 232 233 234 233 233 232 231 231 231 232 232 231 232 -193 233 237 -193 242 241 238 237 238 -193 -209 230 227 224 221 225 230 228 231 -193 237 237 237 237 239 236 237 237 236 237 237 236 236 235 236 235 235 234 234 234 235 234 233 233 232 233 234 234 -193 -193 -193 -193 234 235 233 231 -209 -209 228 229 230 232 233 233 233 233 233 234 235 234 235 233 235 236 236 235 236 235 235 235 234 234 234 -193 -193 233 233 232 232 232 230 231 232 237 235 234 236 236 235 234 233 232 231 231 232 231 230 229 229 -193 -209 -209 237 -193 233 237 236 240 237 236 234 234 233 232 231 232 230 231 -209 -209 -209 -209 -209 -209 -209 -209 -209 -209 -209 -209 -209 236 237 239 237 236 234 234 234 234 0 0 0 0 0
    0 0 0 0 0 0 0 0 0 0 0 0 0 0 0 0 0 0 0 0 0 0 0 0 0 0 0 0 0 0 0 0 0 0 0 0 0 0 0 0 0 0 0 0 0 0 0 0 0 0 0 0 0 0 0 0 0 0 0 0 0 0 0 0 0 0 0 0 0 228 227 225 222 227 230 -193 -193 232 233 234 234 235 -193 232 231 231 231 231 231 230 230 232 232 233 232 234 235 236 236 237 -209 -209 651 -193 -193 231 230 230 231 233 235 239 240 237 240 237 239 237 237 236 236 236 236 233 -193 231 228 228 228 230 231 230 231 230 230 229 229 229 227 226 228 230 232 232 234 234 234 235 237 236 234 234 232 233 234 233 233 232 231 230 231 -193 -209 -193 -209 -209 -209 237 -177 -209 -209 -209 -193 -193 -209 -177 -209 227 224 220 225 -193 229 232 -193 238 238 238 238 241 237 238 237 236 237 237 236 235 234 235 234 234 234 233 233 235 234 234 234 233 234 234 234 234 -193 -193 -193 234 235 233 232 -193 -193 -193 228 229 231 231 233 232 232 233 234 236 235 236 235 237 238 238 237 238 235 236 235 235 234 234 -193 -193 -193 234 232 232 232 230 230 232 237 235 235 237 237 237 235 233 233 232 232 236 -193 -193 -209 -209 264 264 264 263 -209 -209 245 246 248 241 238 237 236 235 233 231 233 230 231 -209 -209 -209 -209 -209 -177 -209 -209 -209 -209 -209 -209 -209 -209 -193 -193 239 238 236 236 235 235 0 0 0 0 0
    0 0 0 0 0 0 0 0 0 0 0 0 0 0 0 0 0 0 0 0 0 0 0 0 0 0 0 0 0 0 0 0 0 0 0 0 0 0 0 0 0 0 0 0 0 0 0 0 0 0 0 0 0 0 0 0 0 0 0 0 0 0 0 0 0 0 0 0 0 -225 -209 -209 215 224 231 234 -177 235 234 235 236 236 -209 -193 230 231 231 231 230 230 230 233 234 234 233 234 235 237 238 239 652 653 653 654 -193 -209 -193 -193 -193 -193 236 240 242 237 240 -193 240 237 -225 -225 -225 -225 -225 -225 -225 -225 -225 229 230 232 233 231 231 230 230 229 228 227 223 223 227 230 232 232 233 234 234 236 237 236 234 234 232 -193 234 234 234 -193 231 230 230 -209 -177 -193 -209 -209 33 -209 -225 -209 -193 34 -193 -209 -209 953 949 -193 -193 -225 -225 -225 -225 -209 -193 238 -193 239 239 242 238 240 238 237 237 237 236 235 234 234 233 232 232 231 232 235 234 234 234 233 234 234 234 234 -193 -193 -177 -209 235 -209 -209 958 955 -193 225 225 228 229 232 232 232 233 236 239 239 239 238 241 242 240 239 -193 236 237 236 236 235 -193 -193 -177 -193 234 233 232 232 231 230 232 -193 235 235 237 237 237 235 233 233 232 234 241 -193 -209 -209 -209 264 265 264 264 265 257 251 252 253 250 246 -193 -209 -209 238 232 233 231 231 -209 -209 -209 -209 -177 -177 0 -209 -209 -193 -193 -209 -209 -209 -209 -193 -193 238 236 236 234 235 0 0 0 0 0
    0 0 0 0 0 0 0 0 0 0 0 0 0 0 0 0 0 0 0 0 0 0 0 0 0 0 0 0 0 0 0 0 0 0 0 0 0 0 0 0 0 0 0 0 0 0 0 0 0 0 0 0 0 0 0 0 0 0 0 0 0 0 0 0 0 0 0 0 0 -225 -225 -225 -225 -225 -225 -209 233 -177 233 -193 -193 -193 -225 -193 229 230 231 232 231 232 232 234 235 235 235 236 236 240 242 -225 -225 -225 -225 659 661 -193 -225 -225 -225 -225 -225 -225 -225 -225 -225 -225 -225 -225 -225 -225 -225 -225 -225 -225 -225 -225 -225 -225 -225 -225 -225 -225 -225 -225 -225 -225 -225 222 219 221 226 232 232 230 232 233 -193 -193 -193 -193 -209 -209 -209 -209 -209 235 236 -193 -209 -209 -209 -225 -225 -225 -225 -225 -225 -225 -225 -225 -225 -225 -225 -225 -225 -225 -225 -225 -225 -225 -225 -225 -225 -225 -225 -225 -225 -225 -225 -225 239 241 239 238 -225 -225 -225 -193 -193 235 233 232 -193 231 -193 235 234 234 233 232 -193 -193 233 -193 -193 -209 -193 -209 -209 -209 -209 -193 -193 -209 221 221 224 226 229 230 231 233 237 242 243 243 242 245 -193 -193 -193 -193 -209 -193 236 237 235 -193 -177 563 564 -193 -193 -193 232 -209 -193 -193 -193 -193 235 236 236 236 235 233 232 231 233 242 -193 -193 -209 262 263 264 263 262 262 257 254 255 258 256 255 -193 278 -209 -209 -209 233 232 -193 -209 -209 -209 -209 -177 -177 0 -193 -209 -209 -209 -209 -209 -209 -209 -193 -209 237 236 235 233 234 0 0 0 0 0
    0 0 0 0 0 0 0 0 0 0 0 0 0 0 0 0 0 0 0 0 0 0 0 0 0 0 0 0 0 0 0 0 0 0 0 0 0 0 0 0 0 0 0 0 0 0 0 0 0 0 0 0 0 0 0 0 0 0 0 0 0 0 0 0 0 0 0 0 0 -225 -225 -225 -225 -225 -225 -225 -225 -225 -225 -225 -225 -225 -225 -225 -225 -225 -225 -225 -225 -225 -225 -225 -225 -225 -225 -225 -225 -225 -225 -225 -225 -225 -225 -225 -225 -225 -225 -225 -225 -225 -225 -225 -225 -225 -225 -225 -225 -225 -225 -225 -225 -225 -225 -225 -225 -225 -225 -225 -225 -225 -225 -225 -225 -225 -225 -225 -225 -225 -225 -225 228 234 233 232 234 234 -209 37 40 -225 -225 -225 -225 -225 -225 -225 -225 -225 -225 -225 -225 -225 -225 -225 -225 -225 -225 -225 -225 -225 -225 -225 -225 -225 -225 -225 -225 -225 -225 -225 -225 -225 -225 -225 -225 -225 -225 -225 -225 -225 -225 -225 -225 -225 -225 -225 -225 -225 -225 -225 -225 -225 -225 -225 -225 -225 -225 -225 -225 -225 -225 -225 233 -225 -193 -209 -209 743 743 -193 -193 -225 -225 -225 -193 -193 219 -177 -177 228 230 233 238 244 245 -225 -225 -225 251 -193 320 -225 -225 -225 -193 237 235 -193 561 562 564 -193 -193 -193 -209 -225 -193 -209 -209 -193 -193 235 235 235 235 233 231 231 235 246 255 262 265 264 264 264 264 263 263 260 257 257 260 260 261 267 276 279 271 -209 -209 -209 -209 -209 -209 -193 0 0 0 -177 0 0 0 0 -209 -209 -209 -209 -209 -209 -209 -209 -209 231 -209 0 0 0 0 0
    0 0 0 0 0 0 0 0 0 0 0 0 0 0 0 0 0 0 0 0 0 0 0 0 0 0 0 0 0 0 0 0 0 0 0 0 0 0 0 0 0 0 0 0 0 0 0 0 0 0 0 0 0 0 0 0 0 0 0 0 0 0 0 0 0 0 0 0 0 -225 -225 -225 -225 -225 -225 -225 -225 -225 -225 -225 -225 -225 -225 -225 -225 -225 -225 -225 -225 -225 -225 -225 -225 -225 -225 -225 -225 -225 -225 -225 -225 -225 -225 -225 -225 -225 -225 -225 -225 -225 -225 -225 -225 -225 -225 -225 -225 -225 -225 -225 -225 -225 -225 -225 -225 -225 -225 -225 -225 -225 -225 -225 -225 -225 -225 -225 -225 -225 -225 -225 -225 -225 -225 -225 -225 -225 -225 -225 -225 -225 -225 -225 -225 -225 -225 -225 -225 -225 -225 -225 -225 -225 -225 -225 -225 -225 -225 -225 -225 -225 -225 -225 -225 -225 -225 -225 -225 -225 -225 -225 -225 -225 -225 -225 -225 -225 -225 -225 -225 -225 -225 -225 -225 -225 -225 -225 -225 -225 -225 -225 -225 -225 -225 -225 -225 -225 -225 -225 -225 -225 -225 -225 -225 -225 -225 -225 -225 -225 -225 -225 -225 -225 -225 -225 -225 -225 -225 -225 -225 -225 -225 -225 -225 -225 -225 -225 -225 -225 -225 -225 -225 -225 -225 -225 -225 -225 -225 -225 -225 -225 -225 -225 -225 -225 -225 -225 -225 -225 -225 -225 -225 -225 -225 -225 -225 232 232 233 241 249 261 264 266 265 265 265 264 264 264 261 259 259 261 261 262 267 275 -193 276 270 -209 -209 -209 -209 -193 0 0 0 0 0 0 0 0 0 -209 -209 -209 -209 -209 -209 -209 -209 -209 -209 -209 0 0 0 0 0
    0 0 0 0 0 0 0 0 0 0 0 0 0 0 0 0 0 0 0 0 0 0 0 0 0 0 0 0 0 0 0 0 0 0 0 0 0 0 0 0 0 0 0 0 0 0 0 0 0 0 0 0 0 0 0 0 0 0 0 0 0 0 0 0 0 0 0 0 0 -225 -225 -225 -225 -225 -225 -225 -225 -225 -225 -225 -225 -225 -225 -225 -225 -225 -225 -225 -225 -225 -225 -225 -225 -225 -225 -225 -225 -225 -225 -225 -225 -225 -225 -225 -225 -225 -225 -225 -225 -225 -225 -225 -225 -225 -225 -225 -225 -225 -225 -225 -225 -225 -225 -225 -225 -225 -225 -225 -225 -225 -225 -225 -225 -225 -225 -225 -225 -225 -225 -225 -225 -225 -225 -225 -225 -225 -225 -225 -225 -225 -225 -225 -225 -225 -225 -225 -225 -225 -225 -225 -225 -225 -225 -225 -225 -225 -225 -225 -225 -225 -225 -225 -225 -225 -225 -225 -225 -225 -225 -225 -225 -225 -225 -225 -225 -225 -225 -225 -225 -225 -225 -225 -225 -225 -225 -225 -225 -225 -225 -225 -225 -225 -225 -225 -225 -225 -225 -225 -225 -225 -225 -225 -225 -225 -225 -225 -225 -225 -225 -225 -225 -225 -225 -225 -225 -225 -225 -225 -225 -225 -225 -225 -225 -225 -225 -225 -225 -225 -225 -225 -225 -225 -225 -225 -225 -225 -225 -225 -225 -225 -225 -225 -225 -225 -225 -225 -225 -225 -225 -225 -225 -225 -225 -225 -225 -225 233 234 243 250 262 264 266 265 265 265 264 264 264 261 260 259 261 261 263 267 276 280 279 278 -209 -209 -209 0 0 0 0 0 0 0 0 0 -193 0 -209 -209 -209 -209 -209 -209 -209 -209 -209 -209 -193 0 0 0 0 0
    0 0 0 0 0 0 0 0 0 0 0 0 0 0 0 0 0 0 0 0 0 0 0 0 0 0 0 0 0 0 0 0 0 0 0 0 0 0 0 0 0 0 0 0 0 0 0 0 0 0 0 0 0 0 0 0 0 0 0 0 0 0 0 0 0 0 0 0 0 -225 -225 -225 -225 -225 -225 -225 -225 -225 -225 -225 -225 -225 -225 -225 -225 -225 -225 -225 -225 -225 -225 -225 -225 -225 -225 -225 -225 -225 -225 -225 -225 -225 -225 -225 -225 -225 -225 -225 -225 -225 -225 -225 -225 -225 -225 -225 -225 -225 -225 -225 -225 -225 -225 -225 -225 -225 -225 -225 -225 -225 -225 -225 -225 -225 -225 -225 -225 -225 -225 -225 -225 -225 -225 -225 -225 -225 -225 -225 -225 -225 -225 -225 -225 -225 -225 -225 -225 -225 -225 -225 -225 -225 -225 -225 -225 -225 -225 -225 -225 -225 -225 -225 -225 -225 -225 -225 -225 -225 -225 -225 -225 -225 -225 -225 -225 -225 -225 -225 -225 -225 -225 -225 -225 -225 -225 -225 -225 -225 -225 -225 -225 -225 -225 -225 -225 -225 -225 -225 -225 -225 -225 -225 -225 -225 -225 -225 -225 -225 -225 -225 -225 -225 -225 -225 -225 -225 -225 -225 -225 -225 -225 -225 -225 -225 -225 -225 -225 -225 -225 -225 -225 -225 -225 -225 -225 -225 -225 -225 -225 -225 -225 -225 -225 -225 -225 -225 -225 -225 -225 -225 -225 -225 -225 -225 -225 -225 232 232 241 249 263 264 266 265 265 265 264 263 263 260 259 259 261 261 263 268 277 281 280 279 -209 -209 -209 0 -209 0 0 0 0 0 0 -193 -209 -193 -209 -209 -209 32 -209 -209 -209 -209 -209 -209 162 0 0 0 0 0
    0 0 0 0 0 0 0 0 0 0 0 0 0 0 0 0 0 0 0 0 0 0 0 0 0 0 0 0 0 0 0 0 0 0 0 0 0 0 0 0 0 0 0 0 0 0 0 0 0 0 0 0 0 0 0 0 0 0 0 0 0 0 0 0 0 0 0 0 0 -225 -225 -225 -225 -225 -225 -225 -225 -225 -225 -225 -225 -225 -225 -225 -225 -225 -225 -225 -225 -225 -225 -225 -225 -225 -225 -225 -225 -225 -225 -225 -225 -225 -225 -225 -225 -225 -225 -225 -225 -225 -225 -225 -225 -225 -225 -225 -225 -225 -225 -225 -225 -225 -225 -225 -225 -225 -225 -225 -225 -225 -225 -225 -225 -225 -225 -225 -225 -225 -225 -225 -225 -225 -225 -225 -225 -225 -225 -225 -225 -225 -225 -225 -225 -225 -225 -225 -225 -225 -225 -225 -225 -225 -225 -225 -225 -225 -225 -225 -225 -225 -225 -225 -225 -225 -225 -225 -225 -225 -225 -225 -225 -225 -225 -225 -225 -225 -225 -225 -225 -225 -225 -225 -225 -225 -225 -225 -225 -225 -225 -225 -225 -225 -225 -225 -225 -225 -225 -225 -225 -225 -225 -225 -225 -225 -225 -225 -225 -225 -225 -225 -225 -225 -225 -225 -225 -225 -225 -225 -225 -225 -225 -225 -225 -225 -225 -225 -225 -225 -225 -225 -225 -225 -225 -225 -225 -225 -225 -225 -225 -225 -225 -225 -225 -225 -225 -225 -225 -225 -225 -225 -225 -225 -225 -225 -225 -225 230 231 238 248 261 263 266 265 265 265 264 263 262 260 260 259 261 262 264 269 278 281 281 280 -209 -209 -209 -209 -209 -193 -193 0 0 -209 -209 -209 -209 -209 -209 -209 -209 -209 -193 -209 -209 -209 -209 -209 161 0 0 0 0 0</data></disparity>
</opencv_storage>
