<?xml version="1.0"?>
<opencv_storage>
<gps_time_stamp>19742</gps_time_stamp>
<gps_x>-9.3275338411331177e-001</gps_x>
<gps_y>7.9827107489109039e-002</gps_y>
<gps_z>2.3927939764689654e-004</gps_z>
<image_time_stamp>7667</image_time_stamp>
<disparity type_id="opencv-matrix">
  <rows>89</rows>
  <cols>320</cols>
  <dt>s</dt>
  <data>
    0 0 0 0 0 0 0 0 0 0 0 0 0 0 0 0 0 0 0 0 0 0 0 0 0 0 0 0 0 0 0 0 0 0 0 0 0 0 0 0 0 0 0 0 0 0 0 0 0 0 0 0 0 0 0 0 0 0 0 0 0 0 0 0 0 0 0 0 0 0 0 0 0 0 0 0 0 0 0 0 0 0 0 0 0 0 0 0 0 0 0 0 0 0 0 0 0 0 0 0 0 0 0 0 0 0 0 0 0 9 10 0 0 0 0 0 0 0 0 0 0 0 0 0 0 0 0 0 0 0 0 0 9 9 11 12 11 -193 -193 -209 -209 -209 -209 -209 -209 -209 -209 -209 -209 -193 -209 246 -209 -177 -209 -193 -177 33 32 36 14 10 15 15 13 11 10 11 10 9 0 9 0 9 11 12 11 11 12 12 10 11 0 0 0 10 11 11 13 13 13 14 20 22 24 -209 -209 -177 -193 -193 -209 -209 13 14 15 18 18 17 20 20 22 23 23 23 23 24 24 23 23 22 23 24 24 25 24 23 25 25 24 24 24 24 23 25 28 27 31 38 40 42 43 45 46 44 44 46 45 48 47 50 47 48 49 50 48 51 48 50 47 50 48 50 50 51 49 52 53 52 53 54 53 55 54 55 55 54 58 59 61 60 60 59 58 58 58 58 58 58 58 -193 -193 -193 227 -193 -193 -193 -193 -193 57 60 61 60 59 59 59 59 59 58 57 55 57 55 -193 54 55 0 0 0 0 0
    0 0 0 0 0 0 0 0 0 0 0 0 0 0 0 0 0 0 0 0 0 0 0 0 0 0 0 0 0 0 0 0 0 0 0 0 0 0 0 0 0 0 0 0 0 0 0 0 0 0 0 0 0 0 0 0 0 0 0 0 0 0 0 0 0 0 0 0 0 0 0 0 0 0 0 0 0 0 0 0 0 0 0 0 0 0 0 0 0 0 0 0 0 0 0 0 0 0 0 0 0 0 0 0 0 0 0 0 0 0 9 0 0 0 0 0 0 0 0 0 0 0 0 0 0 0 0 0 0 0 0 0 10 10 12 14 13 -193 -193 -209 -209 -209 -209 -209 -209 -209 -209 -209 -209 158 -209 -193 -209 -209 -209 -209 -177 41 41 41 42 14 17 15 13 12 10 11 10 11 10 11 12 14 18 20 15 16 16 16 12 13 11 9 9 11 13 13 14 14 14 15 21 23 -209 -193 -193 -193 701 -193 -209 -193 13 14 16 18 18 17 20 20 22 23 23 24 24 24 24 22 23 22 23 23 23 24 23 23 24 24 24 24 24 24 23 25 28 26 30 38 42 43 44 47 48 45 44 47 46 47 47 50 47 48 49 50 48 51 49 50 47 50 48 50 50 51 49 52 52 52 52 53 53 54 54 54 54 53 57 58 60 60 60 58 58 59 58 58 58 58 58 -193 -193 -193 226 -193 -193 -193 -193 -193 57 60 61 60 59 59 59 59 59 58 57 55 56 56 -193 55 -193 0 0 0 0 0
    0 0 0 0 0 0 0 0 0 0 0 0 0 0 0 0 0 0 0 0 0 0 0 0 0 0 0 0 0 0 0 0 0 0 0 0 0 0 0 0 0 0 0 0 0 0 0 0 0 0 0 0 0 0 0 0 0 0 0 0 0 0 0 0 0 0 0 0 0 0 0 0 0 0 0 0 0 0 0 0 0 0 0 0 0 0 0 0 0 0 0 0 0 0 0 0 0 0 0 0 0 0 0 0 0 0 0 0 0 0 0 0 0 0 0 0 0 0 0 0 0 0 0 0 0 0 0 0 0 0 9 9 11 11 13 16 -193 -193 -193 -209 -209 -209 -209 43 -193 -193 -193 -209 -209 -193 -209 -209 -209 -193 44 44 43 43 43 44 44 25 19 16 13 12 10 11 11 12 11 12 16 21 23 23 21 22 22 22 20 19 19 11 9 12 14 15 15 15 15 16 23 27 -209 43 45 -177 -177 -177 -209 -209 14 15 17 19 19 17 19 19 22 22 21 23 23 23 23 21 22 22 22 22 22 23 22 22 24 24 23 24 24 24 23 25 28 26 30 42 45 45 46 50 50 46 46 48 46 47 47 50 46 48 49 49 48 51 49 50 48 50 48 50 50 51 49 52 52 51 52 53 53 54 54 54 53 52 56 57 60 59 59 58 58 59 59 58 58 58 59 -193 -193 -193 -193 -193 -193 -193 -193 -193 57 60 62 60 59 59 59 59 59 58 57 55 57 -193 -193 -193 -193 0 0 0 0 0
    0 0 0 0 0 0 0 0 0 0 0 0 0 0 0 0 0 0 0 0 0 0 0 0 0 0 0 0 0 0 0 0 0 0 0 0 0 0 0 0 0 0 0 0 0 0 0 0 0 0 0 0 0 0 0 0 0 0 0 0 0 0 0 0 0 0 0 0 0 0 0 0 0 0 0 0 0 0 0 0 0 0 0 0 0 0 0 0 0 0 0 0 0 0 0 0 0 0 0 0 0 0 0 0 0 0 0 0 0 0 0 0 0 0 0 0 0 0 0 0 0 0 0 0 9 10 9 9 9 0 10 10 12 12 14 18 -193 -177 -209 -209 -193 44 44 44 44 45 44 45 -193 -209 -209 45 49 45 46 46 45 45 45 46 47 41 -193 15 12 11 9 10 10 12 11 14 20 25 27 27 24 26 26 26 25 25 24 14 11 14 15 16 16 16 17 17 24 35 42 44 46 -193 -193 -193 -209 -193 17 17 19 20 21 18 19 18 22 21 20 21 21 21 22 21 22 21 22 22 22 23 22 22 24 24 23 24 24 25 25 27 30 30 33 40 43 44 44 50 50 45 46 48 46 47 47 50 46 47 49 49 48 51 49 50 48 51 49 51 51 51 49 52 53 51 52 53 53 54 54 54 53 52 56 57 59 59 59 58 58 58 59 58 58 58 59 61 -193 -193 -193 -193 -193 -193 -193 -193 57 59 62 61 60 59 59 -193 -193 -193 57 55 57 58 58 57 -193 0 0 0 0 0
    0 0 0 0 0 0 0 0 0 0 0 0 0 0 0 0 0 0 0 0 0 0 0 0 0 0 0 0 0 0 0 0 0 0 0 0 0 0 0 0 0 0 0 0 0 0 0 0 0 0 0 0 0 0 0 0 0 0 0 0 0 0 0 0 0 0 0 0 0 0 0 0 0 0 0 0 0 0 0 0 0 0 0 0 0 0 0 0 0 0 0 0 0 0 0 0 0 0 0 0 0 0 0 0 0 0 0 0 0 0 0 0 0 0 0 0 0 0 0 0 0 0 0 0 10 12 10 10 10 9 10 10 12 13 16 19 -209 -193 -209 -193 46 45 44 45 45 46 46 47 47 45 45 46 49 46 46 46 46 46 46 47 48 43 44 14 12 10 0 0 9 11 11 15 24 26 28 31 28 29 31 32 31 28 30 19 14 19 18 18 17 19 20 -193 28 40 43 44 46 44 44 -193 -209 -209 -193 17 20 22 21 18 20 18 21 20 21 21 21 21 22 21 23 22 23 23 23 24 22 22 24 24 23 25 25 26 26 29 33 33 35 40 43 43 43 49 49 45 46 48 46 46 46 49 46 47 49 49 49 51 50 51 49 51 50 52 51 51 50 52 53 52 52 53 53 54 53 54 52 52 56 56 59 58 59 -177 -177 58 58 58 58 58 59 -193 -193 223 222 222 -193 -193 -193 -193 57 59 63 61 60 60 -193 -193 -193 -193 57 55 57 58 58 58 58 0 0 0 0 0
    0 0 0 0 0 0 0 0 0 0 0 0 0 0 0 0 0 0 0 0 0 0 0 0 0 0 0 0 0 0 0 0 0 0 0 0 0 0 0 0 0 0 0 0 0 0 0 0 0 0 0 0 0 0 0 0 0 0 0 0 0 0 0 0 0 0 0 0 0 0 0 0 0 0 0 0 0 0 0 0 0 0 0 0 0 0 0 0 0 0 0 0 0 0 0 0 0 0 0 0 0 0 0 0 0 0 0 0 0 0 0 0 0 0 0 0 0 0 9 9 9 0 0 0 9 11 9 10 9 0 10 9 12 13 17 21 -209 -209 43 42 47 46 46 46 47 48 47 47 49 46 46 46 49 46 45 46 46 45 46 47 48 44 45 13 11 9 0 0 9 11 11 17 25 28 30 33 33 31 34 35 34 32 35 22 19 21 21 20 19 21 23 -209 32 41 43 44 46 44 45 44 -193 -209 -193 21 23 24 22 18 20 18 19 20 21 21 20 21 22 21 23 23 23 23 24 25 24 23 24 24 24 26 26 28 27 30 34 35 37 40 42 43 43 48 48 45 46 48 46 46 47 49 45 47 49 49 49 51 50 50 49 51 51 52 52 51 51 52 53 52 52 53 52 54 54 54 52 52 56 56 58 58 58 -177 -177 -177 58 58 58 59 60 -193 -193 223 222 222 222 -193 -193 -193 57 59 64 61 -193 -193 -193 -193 -193 -193 -193 55 57 59 59 59 59 0 0 0 0 0
    0 0 0 0 0 0 0 0 0 0 0 0 0 0 0 0 0 0 0 0 0 0 0 0 0 0 0 0 0 0 0 0 0 0 0 0 0 0 0 0 0 0 0 0 0 0 0 0 0 0 0 0 0 0 0 0 0 0 0 0 0 0 0 0 0 0 0 0 0 0 0 0 0 0 0 0 0 0 0 0 0 0 0 0 0 0 0 0 0 0 0 0 0 0 0 0 0 0 0 0 0 0 0 0 0 0 0 0 0 0 0 0 0 0 0 0 0 0 10 9 10 0 0 0 9 11 9 9 10 0 9 9 13 14 19 -209 -209 -209 44 44 47 46 46 47 47 48 47 48 49 47 47 47 48 46 45 46 46 45 45 47 47 44 46 -193 10 0 0 0 9 11 11 18 27 29 32 35 36 33 35 36 35 31 34 22 20 21 21 20 19 22 -193 -193 36 42 44 45 46 45 46 44 41 36 25 25 25 25 23 17 19 18 18 20 20 21 20 21 22 21 22 23 23 24 24 26 26 24 26 26 26 28 27 30 30 32 36 36 38 40 42 43 44 47 47 45 46 48 46 45 46 48 44 46 49 49 48 50 50 50 49 51 51 52 52 52 51 53 53 53 52 53 52 54 54 54 52 53 55 55 58 57 58 -177 -177 -177 58 58 59 59 60 -193 -193 223 222 222 222 -193 -193 -193 58 59 63 61 -193 -193 -193 -193 -193 -193 -193 55 58 59 59 59 59 0 0 0 0 0
    0 0 0 0 0 0 0 0 0 0 0 0 0 0 0 0 0 0 0 0 0 0 0 0 0 0 0 0 0 0 0 0 0 0 0 0 0 0 0 0 0 0 0 0 0 0 0 0 0 0 0 0 0 0 0 0 0 0 0 0 0 0 0 0 0 0 0 0 0 0 0 0 0 0 0 0 0 0 0 0 0 0 0 0 0 0 0 0 0 0 0 0 0 0 0 0 0 0 0 0 0 0 0 0 0 0 0 0 0 0 0 0 0 0 0 0 0 9 10 10 12 9 9 0 -193 12 9 10 10 9 10 11 15 17 -209 -209 47 46 46 46 48 47 46 48 48 48 47 48 49 47 47 47 47 46 45 47 46 45 45 47 47 45 46 -193 10 0 0 0 10 11 11 19 28 30 33 36 37 35 37 38 38 33 38 22 20 20 20 21 -193 -193 -177 -177 -193 43 47 46 48 47 48 45 41 29 24 25 25 25 22 17 18 18 17 19 19 20 19 20 21 20 21 22 23 24 23 26 28 25 26 27 29 31 28 33 35 36 38 39 39 41 43 44 44 47 47 45 46 48 46 45 46 48 44 46 48 48 47 50 50 50 49 51 51 52 52 51 51 52 52 52 52 53 51 54 53 53 51 53 55 55 57 57 58 -177 -177 59 59 58 59 59 60 -193 -193 222 222 222 -193 -193 -193 -193 59 59 63 -193 -193 -193 -193 -193 -193 -193 -193 56 -193 59 59 59 59 0 0 0 0 0
    0 0 0 0 0 0 0 0 0 0 0 0 0 0 0 0 0 0 0 0 0 0 0 0 0 0 0 0 0 0 0 0 0 0 0 0 0 0 0 0 0 0 0 0 0 0 0 0 0 0 0 0 0 0 0 0 0 0 0 0 0 0 0 0 0 0 0 0 0 0 0 0 0 0 0 0 0 0 0 0 0 0 0 0 0 0 0 0 0 0 0 0 0 0 0 0 0 0 0 0 0 0 0 0 0 0 0 0 0 0 0 0 0 0 0 0 0 9 10 11 13 10 9 0 0 10 9 9 9 0 10 11 17 -209 -209 43 49 48 47 47 49 47 46 48 48 48 48 48 49 47 48 49 48 48 46 48 48 46 46 47 47 46 46 -193 11 0 0 0 10 12 13 20 29 31 33 36 37 36 38 39 39 37 41 22 19 19 18 18 -177 -193 -177 -177 -209 44 -193 47 49 47 48 45 39 26 24 24 25 25 21 15 18 17 17 18 19 19 18 19 20 19 20 22 23 24 24 28 33 32 29 31 35 36 30 36 38 38 39 40 40 41 43 44 44 47 46 45 46 48 46 45 45 47 44 46 47 46 47 49 49 50 49 51 50 52 51 51 50 51 51 51 51 52 50 53 52 52 51 53 55 54 57 57 58 58 58 59 59 -177 59 59 60 -193 -193 -193 -193 -193 -193 59 59 58 59 60 63 61 -193 -193 -193 -193 400 398 -193 56 57 58 58 58 58 0 0 0 0 0
    0 0 0 0 0 0 0 0 0 0 0 0 0 0 0 0 0 0 0 0 0 0 0 0 0 0 0 0 0 0 0 0 0 0 0 0 0 0 0 0 0 0 0 0 0 0 0 0 0 0 0 0 0 0 0 0 0 0 0 0 0 0 0 0 0 0 0 0 0 0 0 0 0 0 0 0 0 0 0 0 0 0 0 0 0 0 0 0 0 0 0 0 0 0 0 0 0 0 0 0 0 0 0 0 0 0 0 0 0 0 0 0 0 0 0 0 0 0 9 9 10 0 0 0 0 0 0 0 0 0 -193 11 -193 -209 -209 -193 50 49 48 48 50 48 47 50 49 49 49 50 51 49 50 50 49 49 48 49 48 47 46 48 48 46 47 10 11 9 0 9 10 12 13 19 28 29 32 35 37 36 38 40 40 40 42 -193 19 18 17 19 -177 -193 -177 -209 -177 -193 -193 47 49 48 50 47 41 29 26 26 26 25 19 13 16 15 15 17 18 18 16 19 20 18 19 21 23 -193 508 30 38 42 -193 38 -193 41 33 38 40 40 40 41 41 42 44 45 45 48 47 45 47 48 46 45 45 46 43 45 47 46 47 49 49 49 49 51 50 51 51 51 50 51 51 51 51 53 49 53 51 52 51 53 55 54 57 57 58 58 58 59 58 58 59 58 60 -193 -193 -193 -193 60 59 59 59 58 60 61 64 61 60 61 -193 -193 -193 399 -193 56 56 -209 57 58 57 0 0 0 0 0
    0 0 0 0 0 0 0 0 0 0 0 0 0 0 0 0 0 0 0 0 0 0 0 0 0 0 0 0 0 0 0 0 0 0 0 0 0 0 0 0 0 0 0 0 0 0 0 0 0 0 0 0 0 0 0 0 0 0 0 0 0 0 0 0 0 0 0 0 0 0 0 0 0 0 0 0 0 0 9 9 0 0 0 0 0 0 0 0 0 0 0 0 0 0 0 0 0 0 0 0 0 0 0 0 0 0 0 0 0 0 0 0 0 0 0 0 0 0 0 0 0 0 0 0 0 0 0 0 0 -193 -177 -193 -193 -193 -209 -209 -193 -193 49 49 51 49 47 51 50 50 50 51 51 50 51 51 50 50 48 50 49 47 47 48 48 46 48 10 10 8 0 9 10 11 11 17 27 29 33 35 38 38 40 41 41 41 42 -209 -193 18 17 17 -193 -193 -209 -209 -177 -193 -193 -193 48 49 51 47 41 29 27 26 26 25 18 12 15 15 15 17 17 18 15 18 19 18 19 21 24 -209 508 -193 -209 -193 -177 -177 -177 -193 -193 -209 40 40 40 41 42 42 44 46 47 49 48 46 49 49 47 45 45 47 43 45 47 45 46 48 48 49 48 50 50 51 51 51 50 51 51 51 51 53 48 52 50 51 50 53 55 54 56 57 58 58 58 58 58 58 58 57 60 -193 -193 59 58 59 60 60 59 59 60 62 64 62 61 60 61 61 60 -193 59 56 56 55 56 57 57 0 0 0 0 0
    0 0 0 0 0 0 0 0 0 0 0 0 0 0 0 0 0 0 0 0 0 0 0 0 0 0 0 0 0 0 0 0 0 0 0 0 0 0 0 0 0 0 0 0 0 0 0 0 0 0 0 0 0 0 0 0 0 0 0 0 0 0 0 0 0 0 0 0 0 0 0 0 0 0 0 0 0 0 9 9 0 0 0 0 0 0 0 0 0 0 0 0 0 0 0 0 0 0 0 0 0 0 0 0 0 0 0 0 0 0 0 0 0 0 0 0 0 0 0 0 0 0 0 0 0 0 0 0 0 -193 -177 -177 -193 -193 -209 -209 -209 -193 49 49 52 49 48 51 50 51 50 51 51 50 52 51 50 50 47 50 49 47 47 48 48 46 48 9 10 0 0 9 10 11 10 17 27 30 35 37 38 39 40 42 41 41 42 -209 -193 -193 20 20 -209 20 -193 -193 -177 -193 -209 -193 48 48 50 -177 42 31 29 28 28 27 18 13 15 15 15 16 16 17 14 18 19 18 19 21 24 -193 509 -193 -193 -193 -193 -177 519 520 517 519 -177 39 -193 -193 -193 41 45 48 -193 51 50 48 50 51 48 46 45 47 44 46 47 45 46 48 48 49 48 49 49 51 51 50 50 51 50 51 52 53 48 51 49 51 50 54 55 54 56 57 58 58 58 58 58 58 58 57 60 59 59 59 58 59 60 60 60 59 60 61 63 61 60 60 60 60 61 60 59 57 57 56 56 58 57 0 0 0 0 0
    0 0 0 0 0 0 0 0 0 0 0 0 0 0 0 0 0 0 0 0 0 0 0 0 0 0 0 0 0 0 0 0 0 0 0 0 0 0 0 0 0 0 0 0 0 0 0 0 0 0 0 0 0 0 0 0 0 0 0 0 0 0 0 0 0 0 0 0 0 0 0 0 0 0 0 0 0 0 9 9 0 0 0 0 0 0 0 0 0 0 0 0 0 0 0 0 0 0 0 0 0 0 0 0 0 0 0 0 0 0 0 0 0 0 0 0 0 0 -193 0 0 0 0 0 0 0 -193 0 0 -177 -177 -177 -177 -193 -209 -209 -209 -177 50 50 52 50 48 52 51 51 51 51 52 50 52 52 50 50 47 50 49 47 47 47 47 45 47 9 10 8 8 10 10 11 11 17 27 30 35 36 38 39 -193 41 40 -193 41 -209 -193 -193 21 -193 -209 -193 -193 -177 -177 -193 -193 -193 50 49 51 50 45 40 35 29 32 28 17 13 15 16 15 16 16 17 14 19 19 18 19 22 25 -193 -193 -177 -177 -177 -177 -177 519 520 -177 519 519 -209 -209 -209 -193 47 49 53 -193 -193 53 51 52 52 50 47 46 47 44 45 46 45 46 48 48 49 47 49 49 51 51 51 50 50 50 51 52 53 48 51 49 51 51 54 55 54 56 57 58 57 58 57 57 57 58 57 60 59 59 58 58 59 60 60 60 59 60 62 63 61 60 60 60 61 61 60 59 57 57 56 56 58 57 0 0 0 0 0
    0 0 0 0 0 0 0 0 0 0 0 0 0 0 0 0 0 0 0 0 0 0 0 0 0 0 0 0 0 0 0 0 0 0 0 0 0 0 0 0 0 0 0 0 0 0 0 0 0 0 0 0 0 0 0 0 0 0 0 0 0 0 0 0 0 0 0 0 0 0 0 0 0 0 0 0 9 0 10 10 0 0 0 9 9 0 9 0 -193 0 0 0 0 0 0 0 0 0 0 0 0 0 0 0 0 0 0 0 0 0 0 0 0 0 0 0 0 -193 -193 0 0 0 0 -193 -193 -193 -193 -193 -193 -177 116 117 115 -193 -209 -209 -193 -193 51 51 53 50 49 52 51 51 51 51 52 50 53 52 50 50 46 49 49 47 46 47 46 44 46 11 13 11 10 13 12 11 11 18 28 32 37 38 39 39 -177 -193 -193 -193 -193 -193 -193 -209 -193 -193 -209 -193 -193 -193 -177 -193 -193 -193 51 50 52 51 47 42 43 41 41 36 20 15 17 18 17 16 17 18 14 18 18 18 19 21 25 -193 508 -193 -177 -177 -177 -193 519 519 -177 -177 -177 -193 -209 -193 -193 52 52 -209 -209 -209 -209 -209 54 54 52 49 47 48 44 46 46 44 45 48 48 49 47 49 49 51 51 51 50 51 50 52 53 54 48 51 49 52 52 54 55 54 56 57 57 57 57 57 57 57 58 56 59 59 59 59 59 60 60 60 60 59 60 62 62 61 61 61 61 61 62 61 60 59 59 56 56 58 57 0 0 0 0 0
    0 0 0 0 0 0 0 0 0 0 0 0 0 0 0 0 0 0 0 0 0 0 0 0 0 0 0 0 0 0 0 0 0 0 0 0 0 0 0 0 0 0 0 0 0 0 0 0 0 0 0 0 0 0 0 0 0 0 0 0 0 0 0 0 0 0 0 0 0 0 0 0 0 0 0 0 9 9 11 13 10 10 13 21 20 9 -193 -193 356 -193 -193 -193 -193 0 0 0 0 0 0 0 0 0 0 0 0 0 0 9 0 0 0 0 0 0 0 0 0 -193 -193 0 0 9 -193 -193 -193 116 117 -177 118 117 117 117 117 116 -209 -209 51 -193 51 51 53 50 49 53 51 51 51 52 51 50 53 52 50 51 47 49 49 48 47 47 46 43 43 17 21 21 19 22 18 15 16 21 30 36 39 39 40 -209 -177 -193 41 -193 -193 -209 -193 -193 -177 -177 -209 -193 -209 -209 -177 44 -193 -193 52 50 52 52 49 44 48 46 44 41 -193 20 21 21 19 17 17 17 14 18 17 18 18 21 25 -209 507 -193 -177 278 281 -193 -177 -177 -177 -177 -209 -193 -193 -193 51 53 52 61 -209 -193 -193 -209 -209 -209 -209 52 48 49 45 47 47 44 45 49 49 49 47 49 49 51 51 51 49 51 50 52 53 54 48 51 48 51 51 54 54 54 55 56 56 56 56 56 56 56 56 54 58 59 59 60 60 61 61 61 61 60 60 62 61 61 61 60 60 61 62 62 60 60 60 57 57 59 57 0 0 0 0 0
    0 0 0 0 0 0 0 0 0 0 0 0 0 0 0 0 0 0 0 0 0 0 0 0 0 0 0 0 0 0 0 0 0 0 0 0 0 0 0 0 0 0 0 0 0 0 0 0 0 0 0 0 0 0 0 0 0 0 0 0 0 0 0 0 0 0 0 0 0 0 0 0 0 0 0 9 10 9 12 15 15 15 -193 28 28 29 32 -193 356 -193 -193 -193 -193 -193 0 0 0 0 0 0 0 0 0 0 0 0 0 -193 -193 -193 -193 -193 -193 -193 -193 -193 -193 -209 -193 0 -209 -209 -193 -193 116 115 117 118 118 117 117 118 118 117 -209 -193 51 53 51 51 53 50 49 53 52 52 51 52 52 50 53 52 50 51 47 48 49 49 47 46 45 42 40 22 25 26 25 28 24 24 26 26 33 37 40 40 -193 -193 -177 -193 42 -193 41 -193 33 34 -177 -193 -209 -193 -209 -193 -177 45 -193 49 53 52 53 53 52 46 53 52 50 44 -209 -193 24 23 -177 18 17 17 14 18 17 17 19 21 25 -209 507 512 -209 276 279 -209 -177 -177 -193 -177 -177 -209 49 52 53 54 54 71 78 -193 90 91 -193 -193 89 92 -193 -193 -193 -209 -193 -193 45 49 49 49 47 48 49 51 51 52 50 51 50 53 53 54 48 51 48 51 51 54 54 54 55 56 56 55 55 55 54 54 55 52 57 59 59 60 60 61 61 61 61 60 60 62 61 60 60 60 60 61 62 61 61 61 61 59 59 60 58 0 0 0 0 0
    0 0 0 0 0 0 0 0 0 0 0 0 0 0 0 0 0 0 0 0 0 0 0 0 0 0 0 0 0 0 0 0 0 0 0 0 0 0 0 0 0 0 0 0 0 0 0 0 0 0 0 0 0 0 0 0 0 0 0 0 0 0 0 0 0 0 0 0 0 -193 9 10 0 0 9 9 10 9 14 19 24 -193 29 34 34 36 37 36 -193 -209 -209 -209 -193 -209 -209 -209 -209 -193 0 -193 0 -177 0 0 0 0 -193 -193 -209 -193 -193 -209 -193 -193 -193 -209 244 -193 -193 -193 -209 -209 -209 -193 -193 -193 -193 -193 -193 -193 -193 -193 118 118 -209 -193 50 -193 51 51 53 50 50 53 52 52 52 52 52 50 53 52 51 51 48 47 49 49 48 47 46 41 39 29 30 32 31 33 31 31 31 29 35 38 40 41 -193 42 -193 41 41 40 40 39 36 37 -209 -209 -209 -209 41 42 -193 46 49 49 53 53 54 55 54 50 55 55 54 51 56 -209 30 29 23 20 19 18 15 20 18 18 20 22 27 -177 -193 -193 -193 -209 -193 -177 -209 -209 -209 -209 -193 -209 49 53 53 55 54 -193 78 87 89 89 90 91 91 95 100 101 106 112 117 115 117 119 -193 49 46 47 48 51 52 52 51 53 51 54 54 55 49 51 49 51 51 54 54 54 54 55 55 54 54 54 54 54 54 52 56 59 59 60 61 61 62 61 61 61 60 62 61 60 60 59 60 61 61 61 61 61 61 60 60 61 59 0 0 0 0 0
    0 0 0 0 0 0 0 0 0 0 0 0 0 0 0 0 0 0 0 0 0 0 0 0 0 0 0 0 0 0 0 0 0 0 0 0 0 0 0 0 0 0 0 0 0 0 0 0 0 0 0 0 0 0 0 0 0 0 0 0 0 0 0 0 0 0 0 0 0 -209 15 17 11 10 11 10 11 11 18 24 28 33 35 38 38 39 39 38 -193 -209 -209 -209 -209 -209 -193 33 33 32 -193 -193 -209 -177 -177 -177 -209 -209 -209 -209 -209 -193 -193 -193 -193 -209 -193 -209 244 242 -177 -193 -177 -193 -209 357 356 353 351 350 350 349 347 349 -193 -193 -209 -193 48 53 51 51 54 51 51 53 52 52 52 51 52 49 53 52 52 50 47 46 48 49 49 48 46 41 39 37 36 36 35 36 35 36 35 33 36 39 40 42 41 42 40 41 40 39 39 38 37 37 -209 38 -193 41 43 44 48 47 50 50 54 54 55 55 55 53 57 57 55 55 57 60 39 42 -209 22 21 20 17 21 19 19 21 23 29 -193 -177 69 -193 -193 -193 -193 -193 -209 -193 -209 -177 -193 49 52 52 54 53 64 74 79 85 89 91 92 92 96 99 100 102 105 110 108 110 116 116 -193 -193 46 48 51 52 53 52 55 53 55 56 56 52 53 50 52 51 54 54 54 54 55 54 54 54 54 54 54 54 52 56 60 60 61 61 61 62 61 62 61 60 62 61 60 60 59 59 60 60 60 61 61 62 61 62 63 61 0 0 0 0 0
    0 0 0 0 0 0 0 0 0 0 0 0 0 0 0 0 0 0 0 0 0 0 0 0 0 0 0 0 0 0 0 0 0 0 0 0 0 0 0 0 0 0 0 0 0 0 0 0 0 0 0 0 0 0 0 0 0 0 0 0 0 0 0 0 0 0 0 0 0 34 27 28 -209 -193 17 -193 16 -209 -209 29 36 39 39 41 40 41 40 39 39 -209 -209 -209 -193 -193 35 37 37 37 35 33 34 -209 -209 -193 -193 -209 -193 -193 -193 -177 -193 -193 -209 -209 -193 -209 244 241 -177 -177 -193 -209 -209 360 358 356 353 352 352 351 349 351 350 348 -193 -193 46 53 51 51 54 50 51 52 52 53 51 51 51 48 52 50 51 50 47 46 48 49 49 48 46 41 40 39 38 37 37 37 37 38 37 35 37 39 40 42 41 42 40 40 40 39 39 38 37 38 -193 40 41 43 45 47 51 49 51 52 54 54 55 56 55 54 57 57 56 56 58 61 55 57 58 -209 24 23 19 22 20 20 21 24 32 -177 -177 72 73 83 82 -193 -193 -193 -209 -209 -177 -177 48 51 51 52 51 56 66 73 82 89 91 92 92 94 96 98 100 103 106 106 107 111 111 114 115 -193 49 52 53 55 54 56 55 57 57 58 54 55 51 53 52 55 54 55 54 54 54 53 54 54 53 54 53 52 55 60 60 61 62 61 62 61 62 61 60 62 60 58 60 58 58 59 59 59 60 61 62 62 63 64 62 0 0 0 0 0
    0 0 0 0 0 0 0 0 0 0 0 0 0 0 0 0 0 0 0 0 0 0 0 0 0 0 0 0 0 0 0 0 0 0 0 0 0 0 0 0 0 0 0 0 0 0 0 0 0 0 0 0 0 0 0 0 0 0 0 0 0 0 0 0 0 0 0 0 0 36 34 35 35 32 27 30 28 -209 -193 39 40 41 41 42 42 42 42 41 40 40 39 -193 -193 36 37 38 38 38 38 38 38 36 -193 -193 -193 -193 -193 -193 -209 -209 34 36 37 35 31 37 -193 -193 -209 -209 -209 -209 -209 -193 360 358 355 355 354 353 -177 -177 -177 -177 -193 43 45 51 51 50 53 50 51 52 52 52 51 50 50 48 51 48 51 49 46 46 47 50 49 49 46 41 39 39 38 37 37 37 37 38 37 37 37 39 41 42 42 42 39 40 40 39 38 38 37 38 -193 42 43 46 48 51 53 51 53 54 55 55 55 56 56 55 57 58 57 57 58 64 59 59 60 62 -209 -209 21 22 20 20 21 24 -177 61 70 74 75 84 82 -193 -193 -193 -209 -209 -177 -177 -193 51 50 50 48 54 56 60 72 84 90 91 91 94 93 94 96 102 104 105 105 109 108 111 113 116 51 54 55 57 -209 -209 -209 -209 59 60 56 57 53 54 53 55 54 55 55 55 54 54 54 54 54 54 53 52 55 60 60 62 62 61 62 61 62 62 60 61 59 57 58 57 57 58 58 59 59 61 63 63 64 64 62 0 0 0 0 0
    0 0 0 0 0 0 0 0 0 0 0 0 0 0 0 0 0 0 0 0 0 0 0 0 0 0 0 0 0 0 0 0 0 0 0 0 0 0 0 0 0 0 0 0 0 0 0 0 0 0 0 0 0 0 0 0 0 0 0 0 0 0 0 0 0 0 0 0 0 37 37 38 38 38 38 40 39 41 41 42 42 43 42 44 43 42 42 41 41 40 40 40 38 38 39 39 39 39 39 39 39 39 39 37 38 40 40 41 39 38 39 40 40 40 38 40 40 41 41 -209 -193 -209 -209 -209 -193 -209 -209 -193 -193 -193 -177 -193 -193 -193 42 43 44 49 51 49 52 49 51 51 51 52 50 49 49 47 50 46 51 48 46 46 47 50 49 49 45 41 39 38 38 38 38 38 38 39 38 38 39 40 41 43 42 42 39 40 40 39 39 38 38 39 -177 44 47 50 50 53 54 53 54 55 55 55 55 56 57 56 57 58 57 58 59 66 63 61 63 67 65 61 -209 -209 20 21 22 25 -177 62 70 73 74 84 80 80 -193 -193 -193 -193 -177 -177 53 53 50 50 46 50 53 55 60 -177 87 90 90 93 90 91 95 101 103 104 105 107 107 109 111 114 -193 -193 -209 -193 -193 -209 -209 -193 -193 66 -193 61 56 56 55 55 54 55 55 55 55 54 54 54 54 54 54 51 54 61 60 63 63 62 62 61 62 62 60 62 59 57 58 57 57 58 58 58 59 60 62 63 64 64 63 0 0 0 0 0
    0 0 0 0 0 0 0 0 0 0 0 0 0 0 0 0 0 0 0 0 0 0 0 0 0 0 0 0 0 0 0 0 0 0 0 0 0 0 0 0 0 0 0 0 0 0 0 0 0 0 0 0 0 0 0 0 0 0 0 0 0 0 0 0 0 0 0 0 0 38 38 38 39 39 39 41 41 41 42 43 42 43 43 44 43 42 42 42 41 41 40 40 39 39 40 40 40 40 40 40 40 40 40 40 41 42 42 43 42 42 42 42 41 40 40 41 42 42 42 42 42 43 43 43 43 42 42 43 42 42 41 42 41 41 41 43 44 47 50 48 51 49 51 50 50 51 50 48 49 46 48 45 50 48 46 46 46 50 49 48 45 41 39 38 38 38 38 38 38 39 38 39 40 40 41 42 42 42 39 40 40 39 39 39 38 39 -193 45 49 51 51 53 54 54 55 55 55 56 55 57 57 57 58 58 58 60 59 67 67 65 67 69 69 68 64 64 -209 -209 23 28 43 62 70 73 74 84 79 79 79 77 -193 -193 -193 -177 54 53 47 47 45 46 50 52 54 57 -209 -193 89 92 88 89 93 101 104 105 105 107 107 109 110 113 112 -193 -193 -193 598 -209 -209 -209 -209 -209 -209 -209 -209 -209 -209 58 56 56 56 56 55 54 54 54 54 55 54 51 54 62 60 64 63 62 62 61 62 63 60 61 59 57 57 56 57 57 57 58 59 60 62 62 64 64 63 0 0 0 0 0
    0 0 0 0 0 0 0 0 0 0 0 0 0 0 0 0 0 0 0 0 0 0 0 0 0 0 0 0 0 0 0 0 0 0 0 0 0 0 0 0 0 0 0 0 0 0 0 0 0 0 0 0 0 0 0 0 0 0 0 0 0 0 0 0 0 0 0 0 0 38 38 39 39 39 40 41 41 42 42 43 42 43 43 44 43 43 43 42 42 42 41 41 40 40 41 41 41 41 41 40 40 40 40 40 41 42 42 43 42 42 42 42 42 40 40 42 42 43 43 42 43 43 43 44 44 44 43 44 43 43 42 42 42 41 41 43 43 46 50 48 51 48 50 49 49 50 49 47 48 45 47 45 50 47 46 45 46 49 49 48 45 41 40 38 38 38 38 38 38 39 39 39 40 41 41 43 42 42 40 40 40 39 39 39 39 40 43 46 51 52 51 53 54 54 56 55 55 56 55 57 58 57 57 58 58 61 59 67 69 67 69 71 70 71 69 70 68 63 -209 34 47 66 74 74 75 85 79 79 79 78 77 -193 -193 -193 -193 -193 46 45 45 45 48 50 53 55 56 -193 86 -193 84 87 92 101 104 106 106 108 107 109 110 112 111 111 -193 -193 -193 -209 -209 -209 99 107 109 109 107 -209 -209 -209 -209 -209 -209 58 56 55 55 55 55 56 55 51 54 63 60 64 63 62 62 61 62 63 60 61 59 57 57 56 56 57 57 58 58 60 61 62 63 63 62 0 0 0 0 0
    0 0 0 0 0 0 0 0 0 0 0 0 0 0 0 0 0 0 0 0 0 0 0 0 0 0 0 0 0 0 0 0 0 0 0 0 0 0 0 0 0 0 0 0 0 0 0 0 0 0 0 0 0 0 0 0 0 0 0 0 0 0 0 0 0 0 0 0 0 39 39 39 40 40 41 42 42 42 42 43 43 44 44 45 44 43 43 43 43 43 42 42 42 42 43 43 42 42 42 41 40 40 40 41 42 43 42 43 43 43 43 42 42 40 40 42 43 43 43 43 43 43 44 45 45 45 44 45 44 44 43 43 42 41 41 44 43 45 50 47 50 48 50 49 48 50 50 47 48 46 47 45 50 47 46 46 46 49 48 48 45 42 40 39 39 38 39 38 38 39 38 39 41 41 41 43 42 42 40 40 40 40 40 40 40 40 44 47 53 54 52 53 54 55 56 56 55 -193 -193 58 59 58 58 58 58 62 58 67 69 68 70 72 71 72 71 72 73 71 72 -209 52 70 86 78 79 86 80 80 81 80 79 -193 79 79 -209 -177 47 46 46 44 46 47 50 53 54 62 -209 -193 79 87 93 102 104 106 106 108 107 109 110 112 110 111 110 -193 -193 -209 -209 -209 109 112 112 111 110 109 107 110 120 120 123 125 -209 -209 -209 56 56 57 57 52 55 65 61 65 63 62 62 62 62 63 60 62 59 57 56 55 56 55 55 56 57 58 60 61 62 61 62 0 0 0 0 0
    0 0 0 0 0 0 0 0 0 0 0 0 0 0 0 0 0 0 0 0 0 0 0 0 0 0 0 0 0 0 0 0 0 0 0 0 0 0 0 0 0 0 0 0 0 0 0 0 0 0 0 0 0 0 0 0 0 0 0 0 0 0 0 0 0 0 0 0 0 40 40 41 41 41 42 42 42 43 43 43 43 44 44 45 45 44 44 43 43 43 43 43 43 43 44 43 43 42 42 41 41 41 41 41 42 43 43 43 43 43 43 43 42 41 41 43 43 44 44 44 44 44 44 45 45 45 44 45 44 44 43 43 42 42 40 45 43 45 50 47 50 48 50 49 48 50 50 47 48 46 48 45 50 47 46 46 46 49 48 48 46 42 42 40 40 39 40 39 39 39 39 40 41 41 41 42 42 42 40 40 40 40 40 40 41 41 45 49 54 -193 -193 54 54 55 56 56 54 -193 55 57 58 58 57 57 57 58 56 64 68 67 69 71 71 71 -193 73 73 70 71 70 56 75 89 82 82 86 80 81 82 81 80 78 79 79 -193 -209 45 45 45 44 45 45 46 47 52 55 56 67 76 86 93 102 104 106 106 108 107 109 109 111 109 112 110 114 111 119 -193 115 115 116 115 115 113 113 110 111 119 119 121 122 124 129 132 -193 60 62 61 53 55 67 61 66 63 62 62 62 63 63 60 61 58 57 56 55 55 54 54 56 52 57 57 58 60 59 60 0 0 0 0 0
    0 0 0 0 0 0 0 0 0 0 0 0 0 0 0 0 0 0 0 0 0 0 0 0 0 0 0 0 0 0 0 0 0 0 0 0 0 0 0 0 0 0 0 0 0 0 0 0 0 0 0 0 0 0 0 0 0 0 0 0 0 0 0 0 0 0 0 0 0 41 41 41 42 42 42 43 42 43 43 44 43 44 44 45 45 44 44 44 44 43 43 43 43 43 44 44 43 43 42 42 41 41 41 42 43 44 44 44 44 44 43 43 42 42 43 44 45 45 45 45 45 45 45 46 46 46 45 45 44 44 44 44 43 42 41 46 44 45 51 47 50 48 50 49 47 50 50 47 48 46 48 45 50 47 46 46 46 49 47 47 46 43 43 42 41 40 40 40 39 40 39 40 41 42 42 42 42 42 41 40 40 40 40 40 42 41 46 51 -193 -177 -177 -177 -193 55 57 57 53 55 54 56 -193 57 56 55 55 57 55 62 69 68 70 72 71 72 -193 73 74 69 70 67 57 74 88 81 81 86 80 81 82 81 80 78 79 79 -209 -209 45 43 45 44 44 44 45 45 49 54 55 63 74 84 93 -193 -193 -193 -193 108 107 109 110 111 109 112 110 115 113 119 117 116 116 117 116 115 113 112 111 112 118 118 120 121 123 125 128 131 133 126 126 -209 -193 69 63 67 63 63 62 62 63 63 60 61 58 56 55 54 55 54 53 55 51 56 56 56 57 57 58 0 0 0 0 0
    0 0 0 0 0 0 0 0 0 0 0 0 0 0 0 0 0 0 0 0 0 0 0 0 0 0 0 0 0 0 0 0 0 0 0 0 0 0 0 0 0 0 0 0 0 0 0 0 0 0 0 0 0 0 0 0 0 0 0 0 0 0 0 0 0 0 0 0 0 43 42 42 43 42 43 43 43 43 43 44 43 44 44 45 45 44 45 44 44 44 44 44 44 44 45 44 44 43 43 42 42 42 42 43 44 45 45 45 45 45 45 44 43 44 44 45 46 46 46 46 45 46 46 47 46 47 45 45 45 45 44 44 43 43 41 47 44 45 51 47 49 48 50 49 47 50 49 47 48 46 49 45 50 48 47 47 46 48 47 47 46 44 43 43 41 41 41 41 40 40 40 41 42 42 43 43 44 43 41 41 41 41 40 40 42 42 46 -193 -177 -177 -177 -177 -193 56 58 57 53 -193 54 56 57 56 55 53 55 56 54 61 71 69 71 73 -209 73 73 74 75 68 69 63 56 71 -177 79 79 86 80 80 82 81 80 78 79 -193 -209 -209 44 43 44 43 43 42 43 42 45 52 54 58 68 78 -193 52 -177 -177 -193 -193 108 110 110 111 110 113 111 116 115 119 118 118 118 118 117 116 113 112 112 111 116 118 120 121 121 123 124 127 126 124 125 127 129 130 -193 69 64 63 63 63 64 64 60 61 58 57 55 55 55 54 52 55 49 54 55 55 56 56 57 0 0 0 0 0
    0 0 0 0 0 0 0 0 0 0 0 0 0 0 0 0 0 0 0 0 0 0 0 0 0 0 0 0 0 0 0 0 0 0 0 0 0 0 0 0 0 0 0 0 0 0 0 0 0 0 0 0 0 0 0 0 0 0 0 0 0 0 0 0 0 0 0 0 0 44 43 43 43 43 43 43 43 43 43 44 44 44 44 45 45 44 45 45 44 44 45 45 45 45 46 45 44 44 44 42 43 42 43 44 45 45 45 45 45 45 45 45 44 46 46 47 47 47 47 47 46 47 46 47 46 48 46 46 45 45 45 45 44 44 42 48 45 45 51 47 49 48 50 48 47 49 49 47 49 46 49 45 50 48 47 47 47 48 47 46 46 44 44 44 42 42 41 41 41 41 41 42 43 43 43 44 45 43 43 42 41 41 41 41 43 42 47 -193 -177 -177 -177 -177 -193 56 58 57 53 -193 -193 55 56 56 55 53 55 56 54 61 74 71 72 -193 397 -193 74 75 75 64 65 56 55 64 87 76 77 86 80 80 83 81 81 79 80 80 74 -209 44 44 45 44 44 43 44 43 44 50 53 57 -193 79 -193 50 -177 -193 -193 109 108 110 110 111 110 113 111 -193 -193 119 118 119 119 119 117 116 112 109 110 109 115 117 120 120 120 122 123 125 125 124 125 127 130 131 131 -193 -193 64 64 63 64 64 60 61 58 57 56 56 56 55 54 56 51 54 54 54 55 55 56 0 0 0 0 0
    0 0 0 0 0 0 0 0 0 0 0 0 0 0 0 0 0 0 0 0 0 0 0 0 0 0 0 0 0 0 0 0 0 0 0 0 0 0 0 0 0 0 0 0 0 0 0 0 0 0 0 0 0 0 0 0 0 0 0 0 0 0 0 0 0 0 0 0 0 45 43 43 43 43 43 43 43 43 43 44 44 45 45 45 45 45 45 45 44 44 45 45 45 45 46 45 45 44 44 43 43 43 44 44 45 44 45 45 45 45 45 45 45 47 47 47 48 48 47 47 47 47 47 47 47 49 46 46 46 46 45 45 45 45 42 49 45 45 51 47 48 48 50 48 47 49 49 47 49 47 50 45 50 48 47 48 47 48 47 46 46 45 46 45 44 43 42 42 42 42 42 42 43 43 43 44 47 44 45 43 43 42 42 42 45 43 48 -193 -177 -177 -177 -177 -193 56 58 57 53 55 -193 55 56 55 54 52 55 57 54 60 74 -193 -193 397 398 -193 74 75 75 60 61 54 54 60 -177 75 75 86 80 80 83 81 81 79 80 80 74 79 44 44 46 44 45 44 45 44 45 48 54 59 -193 83 -193 -193 -193 110 108 110 108 109 109 109 109 112 110 -193 -193 119 119 120 120 120 118 117 111 107 108 108 111 115 118 119 119 121 123 125 126 125 126 129 131 132 132 134 131 133 -193 65 66 66 60 61 58 59 58 58 58 57 57 58 55 56 55 55 56 56 56 0 0 0 0 0
    0 0 0 0 0 0 0 0 0 0 0 0 0 0 0 0 0 0 0 0 0 0 0 0 0 0 0 0 0 0 0 0 0 0 0 0 0 0 0 0 0 0 0 0 0 0 0 0 0 0 0 0 0 0 0 0 0 0 0 0 0 0 0 0 0 0 0 0 0 45 44 43 43 43 43 43 43 43 43 44 44 45 45 45 45 45 45 45 45 45 45 46 46 46 46 46 46 46 46 44 45 44 45 45 45 45 45 45 45 45 45 45 45 48 48 48 48 48 48 48 47 48 47 48 48 49 47 47 47 46 46 46 46 46 43 49 45 45 51 47 48 47 49 48 47 49 49 46 49 48 50 46 50 48 48 48 47 47 47 46 46 45 46 46 45 44 43 42 43 43 43 43 44 44 44 45 48 46 48 46 45 45 44 44 48 45 50 -193 -193 -177 -177 -177 -193 56 58 57 53 55 -193 56 56 55 55 53 56 58 55 61 -193 -193 -193 398 398 -193 74 75 75 58 58 54 54 61 -177 74 75 86 80 80 83 81 81 79 80 80 74 81 45 45 47 46 46 46 46 46 47 48 55 63 -193 87 -193 -193 105 111 108 110 109 109 109 109 109 -193 111 -193 -193 -193 120 121 121 121 118 117 111 106 106 105 108 113 119 119 119 122 123 124 126 127 128 130 131 132 132 133 131 133 136 137 -193 -193 -193 -193 -193 -209 -193 59 59 59 59 60 -209 56 56 56 -193 -193 56 0 0 0 0 0
    0 0 0 0 0 0 0 0 0 0 0 0 0 0 0 0 0 0 0 0 0 0 0 0 0 0 0 0 0 0 0 0 0 0 0 0 0 0 0 0 0 0 0 0 0 0 0 0 0 0 0 0 0 0 0 0 0 0 0 0 0 0 0 0 0 0 0 0 0 46 45 44 44 44 44 44 44 44 44 45 45 46 45 46 46 46 46 46 45 46 47 47 48 48 47 48 48 48 49 47 48 47 47 47 45 45 45 45 45 46 46 46 45 49 48 48 49 49 49 48 48 49 48 49 50 51 49 48 48 48 47 47 48 47 45 50 46 46 51 47 48 47 49 48 47 49 49 46 50 48 51 46 50 49 48 49 47 48 47 46 47 45 46 46 46 45 44 43 44 44 44 44 45 44 45 45 50 48 51 49 48 48 47 48 51 47 51 55 -193 -193 -193 -193 -193 57 59 57 54 55 -193 56 56 56 55 53 56 58 56 63 -209 -193 -193 399 -193 75 75 75 75 58 57 54 55 61 78 74 75 86 80 80 83 82 81 79 81 81 75 82 -193 45 48 47 47 46 48 48 49 49 55 62 -193 -209 -193 106 106 112 109 110 109 110 109 109 110 113 112 -177 -177 -193 120 121 -193 -193 -193 -209 111 106 106 101 106 111 120 120 120 122 123 123 125 127 130 131 132 132 132 132 131 133 136 137 136 139 139 142 145 147 148 146 149 145 140 142 -193 -209 -209 -209 -209 -209 -209 0 0 0 0 0
    0 0 0 0 0 0 0 0 0 0 0 0 0 0 0 0 0 0 0 0 0 0 0 0 0 0 0 0 0 0 0 0 0 0 0 0 0 0 0 0 0 0 0 0 0 0 0 0 0 0 0 0 0 0 0 0 0 0 0 0 0 0 0 0 0 0 0 0 0 48 47 45 45 45 46 46 46 46 47 49 48 48 48 48 49 48 48 48 47 48 48 48 49 49 48 50 50 50 51 51 52 51 50 50 47 47 47 46 46 47 47 48 47 51 50 49 50 50 50 49 49 50 49 50 52 52 50 49 50 49 49 48 50 49 47 52 48 47 52 48 48 48 50 48 47 49 50 47 51 50 51 47 51 50 49 50 48 48 48 46 47 46 46 47 47 47 47 45 46 46 46 46 46 46 46 46 51 50 52 51 50 52 51 51 53 50 52 56 56 57 57 57 57 57 59 57 55 56 -193 56 57 56 56 53 56 59 56 64 -193 -193 -193 -193 -193 75 75 75 75 58 57 55 55 61 73 74 75 86 80 80 83 82 82 79 81 81 75 82 -193 47 49 49 50 49 50 51 51 52 55 61 -209 -209 -193 107 106 113 109 111 110 110 110 109 110 113 113 -177 -177 -193 121 121 -193 -209 -193 -193 111 -209 -193 89 100 108 119 119 119 122 122 123 126 126 129 131 131 131 131 132 130 133 137 137 136 139 139 141 144 144 145 145 148 145 142 145 142 139 149 149 -209 -193 -209 0 0 0 0 0
    0 0 0 0 0 0 0 0 0 0 0 0 0 0 0 0 0 0 0 0 0 0 0 0 0 0 0 0 0 0 0 0 0 0 0 0 0 0 0 0 0 0 0 0 0 0 0 0 0 0 0 0 0 0 0 0 0 0 0 0 0 0 0 0 0 0 0 0 0 50 50 46 47 46 47 47 50 51 52 54 53 53 53 53 53 53 53 52 50 51 51 51 50 52 50 51 52 52 53 54 54 55 53 52 49 49 50 49 48 51 50 51 51 54 52 51 51 51 50 50 49 51 49 51 53 53 52 51 51 51 51 51 52 51 51 53 51 50 53 50 50 49 51 49 48 50 50 47 51 50 52 48 51 51 50 51 49 49 49 47 49 48 47 48 48 49 49 47 49 48 49 48 49 48 48 48 52 52 54 53 53 55 54 55 56 53 54 57 57 58 57 57 57 57 59 57 55 56 56 56 56 56 55 53 56 60 57 66 76 74 74 75 75 75 75 75 75 57 57 55 55 61 72 73 74 85 79 80 82 81 81 79 80 81 75 81 -193 48 50 50 51 49 51 52 52 53 56 61 67 -209 -209 109 -193 -193 110 112 110 110 110 109 111 113 113 -209 -209 -209 121 121 -209 -209 -209 -177 111 -209 -209 85 -209 -193 117 117 116 121 122 123 126 126 129 132 131 129 130 130 130 132 137 137 136 139 139 140 142 142 142 142 143 142 142 147 145 145 151 152 -193 133 -193 0 0 0 0 0
    0 0 0 0 0 0 0 0 0 0 0 0 0 0 0 0 0 0 0 0 0 0 0 0 0 0 0 0 0 0 0 0 0 0 0 0 0 0 0 0 0 0 0 0 0 0 0 0 0 0 0 0 0 0 0 0 0 0 0 0 0 0 0 0 0 0 0 0 0 51 51 47 47 47 49 50 53 55 55 57 56 55 56 56 56 55 55 54 53 54 53 52 52 53 51 53 54 54 55 56 57 57 55 54 53 52 53 51 51 53 53 54 55 56 53 53 53 52 51 51 50 51 50 52 54 54 54 53 53 53 53 53 53 52 53 54 53 53 54 52 52 51 52 50 49 51 51 48 51 51 52 49 51 52 51 52 51 50 51 48 50 50 48 50 50 51 51 50 52 51 51 50 51 51 51 51 53 54 55 56 56 58 57 57 57 56 56 58 57 58 57 58 58 58 60 58 56 56 57 57 56 56 56 54 57 61 59 67 76 74 74 75 75 75 75 75 75 57 56 55 55 61 70 71 73 84 78 79 82 81 81 79 80 80 74 79 78 52 53 53 54 53 54 54 54 55 57 62 69 -209 -209 110 -193 -193 111 112 111 110 110 108 111 113 112 -209 -209 -209 121 122 122 122 -209 -209 110 -209 -209 73 70 71 -209 -209 -209 -209 -209 -209 128 128 132 133 132 131 132 131 130 132 136 136 136 139 139 139 141 140 141 141 141 141 140 144 144 149 154 155 157 -193 151 0 0 0 0 0
    0 0 0 0 0 0 0 0 0 0 0 0 0 0 0 0 0 0 0 0 0 0 0 0 0 0 0 0 0 0 0 0 0 0 0 0 0 0 0 0 0 0 0 0 0 0 0 0 0 0 0 0 0 0 0 0 0 0 0 0 0 0 0 0 0 0 0 0 0 53 53 49 49 49 51 52 55 57 57 60 58 58 58 58 58 57 -193 -193 54 54 54 53 53 54 52 54 55 55 56 58 58 58 57 56 56 55 55 54 53 56 55 57 57 57 55 54 54 54 53 52 51 52 52 54 56 55 55 54 54 54 54 53 54 53 54 55 54 54 55 53 53 53 53 51 51 52 52 50 52 51 53 50 52 53 52 53 52 52 52 50 51 51 50 51 51 52 53 52 53 53 53 52 53 53 52 52 54 55 57 57 57 59 58 58 58 57 57 58 57 58 57 58 57 57 59 58 56 56 57 57 56 56 56 54 58 63 60 68 76 74 74 74 75 75 75 75 75 57 57 55 56 62 69 70 72 83 78 78 81 80 80 79 80 80 74 78 77 57 57 57 57 56 56 56 56 56 56 62 69 -209 -209 109 -193 -193 -193 112 111 110 110 108 110 112 112 -209 -209 -209 121 -193 122 122 -209 -193 111 71 72 69 67 68 68 69 69 71 -209 -209 -177 131 135 135 135 133 135 133 132 133 135 134 135 138 138 138 139 139 139 140 141 141 140 143 143 148 154 154 157 159 156 0 0 0 0 0
    0 0 0 0 0 0 0 0 0 0 0 0 0 0 0 0 0 0 0 0 0 0 0 0 0 0 0 0 0 0 0 0 0 0 0 0 0 0 0 0 0 0 0 0 0 0 0 0 0 0 0 0 0 0 0 0 0 0 0 0 0 0 0 0 0 0 0 0 0 54 55 52 52 53 54 55 57 58 60 62 59 60 60 60 59 59 -193 57 56 56 54 54 54 55 54 55 57 57 58 59 59 59 58 58 58 57 58 58 56 59 58 59 59 58 57 56 55 55 53 52 51 53 53 55 57 56 56 55 55 55 55 54 54 53 54 55 54 55 56 55 55 54 54 52 53 53 53 52 53 52 53 51 53 53 53 54 53 53 53 52 52 52 52 52 52 53 54 53 54 54 55 54 55 55 54 54 55 56 58 58 58 60 58 59 59 58 58 58 58 59 57 58 57 57 59 57 56 56 56 57 56 57 57 55 59 64 61 68 75 74 73 74 74 75 74 75 75 59 60 56 57 65 71 72 73 83 78 78 80 80 80 78 80 79 74 75 75 62 60 60 59 58 59 58 58 57 57 64 72 -209 -209 109 -193 -193 111 111 111 109 110 108 110 110 110 -209 -209 -193 121 -193 122 122 -193 -209 114 69 69 65 64 65 65 66 67 67 67 68 -209 -209 -177 -193 138 -193 137 134 133 134 137 135 137 138 138 137 139 138 139 139 141 141 140 142 143 147 153 153 156 157 155 0 0 0 0 0
    0 0 0 0 0 0 0 0 0 0 0 0 0 0 0 0 0 0 0 0 0 0 0 0 0 0 0 0 0 0 0 0 0 0 0 0 0 0 0 0 0 0 0 0 0 0 0 0 0 0 0 0 0 0 0 0 0 0 0 0 0 0 0 0 0 0 0 0 0 55 56 54 54 56 57 57 59 60 61 62 60 61 61 61 61 60 60 59 58 58 57 57 56 58 57 57 59 58 59 60 60 60 59 59 60 59 61 62 60 64 62 62 61 60 59 57 57 56 54 53 52 54 55 56 59 58 58 57 57 57 56 56 56 55 56 56 57 57 57 57 57 57 56 55 55 55 55 54 55 53 54 53 55 55 55 56 56 56 56 55 55 55 54 55 55 55 55 55 56 57 57 56 57 57 57 57 57 58 60 59 59 61 60 60 60 60 59 59 59 59 58 58 57 57 58 56 56 56 56 57 56 57 57 55 59 64 62 68 76 74 74 74 75 75 75 75 75 62 65 58 60 67 72 73 73 83 78 78 80 80 80 78 79 79 73 74 73 63 62 62 60 59 60 60 59 57 57 65 74 -193 -193 108 -193 116 111 111 112 110 110 108 110 110 110 -209 -209 -177 122 -193 122 123 122 123 116 67 68 64 63 63 63 63 64 64 62 63 64 -209 -209 -193 -209 -209 -209 136 -193 136 139 138 139 140 140 138 139 138 138 139 140 141 141 143 144 146 151 152 154 153 153 0 0 0 0 0
    0 0 0 0 0 0 0 0 0 0 0 0 0 0 0 0 0 0 0 0 0 0 0 0 0 0 0 0 0 0 0 0 0 0 0 0 0 0 0 0 0 0 0 0 0 0 0 0 0 0 0 0 0 0 0 0 0 0 0 0 0 0 0 0 0 0 0 0 0 -193 57 56 56 57 58 59 60 61 61 62 60 61 61 62 62 61 62 61 59 61 59 60 59 61 59 59 61 60 60 61 60 61 60 60 61 60 63 65 63 67 64 64 63 62 61 60 59 58 56 55 54 56 57 58 61 59 59 59 58 59 58 58 58 57 58 58 59 59 59 60 59 59 58 58 58 58 58 58 57 56 56 56 57 58 57 59 58 58 58 57 57 58 57 58 56 57 57 58 58 58 59 58 58 58 58 58 57 59 61 60 61 63 61 62 61 62 61 60 60 60 59 59 58 58 58 57 57 57 57 58 57 58 59 58 62 68 69 71 78 75 75 75 75 75 75 75 75 65 68 61 62 68 73 73 74 83 78 78 81 80 80 78 80 79 74 75 74 68 67 68 67 67 67 68 63 59 58 67 76 -177 -193 -193 -193 115 110 111 112 110 111 109 112 111 111 -209 -209 -177 -193 -193 -193 122 123 123 118 64 66 64 63 63 63 63 62 61 60 60 61 -193 -209 -177 -209 -209 -209 -209 -209 -193 -209 128 138 139 138 137 137 137 137 140 140 141 143 145 146 147 151 151 152 151 152 0 0 0 0 0
    0 0 0 0 0 0 0 0 0 0 0 0 0 0 0 0 0 0 0 0 0 0 0 0 0 0 0 0 0 0 0 0 0 0 0 0 0 0 0 0 0 0 0 0 0 0 0 0 0 0 0 0 0 0 0 0 0 0 0 0 0 0 0 0 0 0 0 0 0 58 58 57 57 58 60 60 61 61 62 63 61 62 62 61 62 61 62 61 60 62 61 64 62 64 61 61 63 61 61 62 60 61 60 60 61 61 63 66 64 68 65 65 64 63 63 62 61 61 58 58 57 58 60 60 63 60 61 61 60 60 60 59 59 58 59 59 60 61 60 62 61 61 61 61 61 61 61 61 59 60 58 59 59 60 59 61 60 60 60 59 59 59 59 60 58 59 58 60 59 60 60 59 59 59 59 59 58 59 61 60 61 63 62 62 62 64 62 61 62 62 60 61 61 61 59 60 59 59 59 59 59 60 62 64 68 71 -193 72 81 76 76 75 74 74 74 74 75 67 70 64 66 70 74 74 75 83 79 79 81 81 81 79 81 79 74 76 75 71 71 72 72 74 72 73 72 65 62 69 81 -177 111 107 -193 115 110 111 113 111 111 110 113 112 112 121 -209 -177 -193 -177 -193 -193 123 124 118 -193 65 64 64 63 63 63 63 62 60 60 61 61 62 -209 -209 -209 -177 -209 -209 -209 -209 -193 140 131 136 133 133 134 136 139 140 142 145 146 146 147 150 150 151 151 151 0 0 0 0 0
    0 0 0 0 0 0 0 0 0 0 0 0 0 0 0 0 0 0 0 0 0 0 0 0 0 0 0 0 0 0 0 0 0 0 0 0 0 0 0 0 0 0 0 0 0 0 0 0 0 0 0 0 0 0 0 0 0 0 0 0 0 0 0 0 0 0 0 0 0 -193 59 58 57 58 61 61 62 61 62 63 62 63 62 62 62 61 62 61 60 62 61 66 64 -193 63 63 66 63 62 63 61 62 61 62 63 62 64 67 65 69 66 66 65 64 64 64 62 62 59 59 59 60 62 61 64 61 62 62 61 61 60 60 59 58 59 60 60 61 61 64 62 63 62 64 63 63 63 63 60 62 60 61 60 62 60 63 62 62 61 61 61 61 60 62 59 60 58 61 60 61 60 60 59 60 59 59 58 59 61 60 62 63 63 63 62 64 63 62 63 63 61 61 62 62 59 61 60 59 59 60 60 62 66 70 72 79 87 76 84 77 77 75 75 74 74 75 75 69 72 70 71 71 77 75 77 83 79 80 82 82 81 79 81 80 74 76 75 72 72 72 74 77 78 77 77 75 76 75 86 99 107 106 106 115 110 111 113 111 111 111 113 112 112 121 -209 -177 -193 -193 -193 -193 123 -193 115 -193 67 65 66 65 64 65 64 64 62 62 63 63 64 62 63 69 -209 -209 -209 -209 -209 -209 -209 126 134 126 122 124 131 137 138 141 146 148 147 149 151 150 151 152 153 0 0 0 0 0
    0 0 0 0 0 0 0 0 0 0 0 0 0 0 0 0 0 0 0 0 0 0 0 0 0 0 0 0 0 0 0 0 0 0 0 0 0 0 0 0 0 0 0 0 0 0 0 0 0 0 0 0 0 0 0 0 0 0 0 0 0 0 0 0 0 0 0 0 0 -193 60 60 58 59 62 62 63 62 65 65 63 65 64 63 62 62 63 61 60 63 60 69 67 -193 66 65 68 65 64 66 62 65 63 65 67 65 68 70 67 70 67 67 66 65 64 64 62 63 60 61 61 64 66 64 67 63 64 63 62 61 60 60 60 58 60 60 61 62 62 65 63 64 64 66 66 65 65 66 62 65 61 63 60 63 61 65 63 63 63 63 63 63 62 65 61 64 62 67 64 64 63 61 61 61 60 60 59 59 62 61 63 64 64 63 63 65 63 62 63 63 62 62 63 63 60 63 61 60 61 61 63 67 71 77 80 83 86 80 84 79 78 76 75 75 74 75 76 71 74 73 74 74 79 77 78 84 80 80 82 82 81 80 82 80 75 77 75 73 74 75 -193 -193 -193 84 83 83 83 83 87 97 104 105 105 114 110 110 113 111 111 111 113 112 112 121 -193 -177 -193 -193 -193 -193 123 -193 111 -193 70 68 69 68 67 67 66 67 66 64 66 67 67 67 71 74 73 75 80 88 -209 -209 -209 115 124 -193 121 123 127 132 135 139 143 145 144 148 150 149 151 153 153 0 0 0 0 0
    0 0 0 0 0 0 0 0 0 0 0 0 0 0 0 0 0 0 0 0 0 0 0 0 0 0 0 0 0 0 0 0 0 0 0 0 0 0 0 0 0 0 0 0 0 0 0 0 0 0 0 0 0 0 0 0 0 0 0 0 0 0 0 0 0 0 0 0 0 -193 65 64 63 62 66 65 64 65 68 68 65 68 66 64 64 65 66 62 62 -209 60 74 71 -193 71 70 70 69 68 70 66 70 69 70 72 -193 73 74 70 72 69 69 68 66 66 66 64 65 62 64 65 70 71 -193 -193 67 68 67 65 64 61 61 61 59 61 63 63 65 64 68 66 67 67 69 69 69 69 70 68 71 69 70 62 65 63 68 66 65 65 66 66 67 66 69 65 69 -193 -193 71 70 68 66 66 -193 63 62 60 60 62 62 63 63 64 63 63 66 64 64 65 64 64 64 66 66 61 67 64 62 64 66 67 71 75 84 85 86 87 85 86 82 82 79 77 76 76 76 77 73 77 75 76 77 81 78 80 84 81 81 82 82 82 80 82 80 75 79 77 76 80 -193 -193 -193 -193 87 86 87 87 86 88 95 102 102 104 113 109 110 112 111 111 111 113 112 112 120 -193 -177 -193 -193 -193 -177 -193 -193 108 108 -193 -193 71 71 69 68 68 69 68 67 67 68 67 68 71 74 72 74 78 83 82 83 89 105 113 109 116 119 127 -193 137 141 143 143 143 147 148 148 151 153 154 0 0 0 0 0
    0 0 0 0 0 0 0 0 0 0 0 0 0 0 0 0 0 0 0 0 0 0 0 0 0 0 0 0 0 0 0 0 0 0 0 0 0 0 0 0 0 0 0 0 0 0 0 0 0 0 0 0 0 0 0 0 0 0 0 0 0 0 0 0 0 0 0 0 0 -193 74 72 -193 68 71 69 68 70 71 71 69 72 70 69 70 -209 -209 -209 -209 -209 -209 82 77 78 75 74 73 72 71 -193 71 74 74 75 76 76 76 78 -193 73 71 71 70 68 67 68 66 67 67 -193 69 75 -193 82 -209 -209 -209 -193 70 -209 64 66 66 62 67 67 69 69 68 71 69 70 70 -209 -209 -209 71 72 71 74 75 75 66 68 66 70 68 68 68 69 69 70 70 71 69 -209 -193 -193 77 -209 -209 -193 -209 -193 68 67 62 62 62 63 64 63 66 63 64 67 66 66 67 67 67 67 70 70 65 72 70 67 68 71 70 73 79 87 88 87 89 88 88 85 85 84 79 79 78 77 77 73 79 76 78 79 83 81 82 85 83 82 83 83 82 81 83 81 76 82 80 82 86 88 89 89 90 89 88 89 89 88 89 95 101 102 104 113 109 110 112 111 111 111 113 113 113 121 -193 -193 -193 -193 -193 -177 -209 -193 108 107 91 -193 79 76 71 70 70 71 70 70 69 70 69 69 72 74 72 74 76 78 74 78 85 98 -209 -209 106 -209 -209 -209 -193 145 147 147 144 145 142 143 148 152 153 0 0 0 0 0
    0 0 0 0 0 0 0 0 0 0 0 0 0 0 0 0 0 0 0 0 0 0 0 0 0 0 0 0 0 0 0 0 0 0 0 0 0 0 0 0 0 0 0 0 0 0 0 0 0 0 0 0 0 0 0 0 0 0 0 0 0 0 0 0 0 0 0 0 0 76 81 83 87 75 80 -209 -193 74 75 76 75 81 -209 -193 77 87 -193 89 -193 -209 -209 84 80 80 77 76 74 74 73 77 -193 78 81 81 83 83 81 83 76 76 73 72 72 70 69 70 69 70 -209 -209 -209 86 85 87 -209 -193 -193 78 75 -193 71 72 70 70 71 71 -193 -193 71 75 -209 72 72 -193 -193 -209 75 78 77 79 83 80 71 71 69 72 -193 70 69 70 71 72 72 -193 -209 -193 -193 -193 83 -193 -209 -209 -209 -209 -193 -209 64 63 62 64 66 65 68 65 66 69 68 68 69 70 70 70 73 73 72 74 75 73 72 74 72 78 84 89 89 89 90 90 90 88 88 88 83 84 82 79 77 74 80 76 80 82 84 83 84 86 84 84 84 84 84 82 83 81 77 83 82 84 87 89 89 90 90 90 89 90 90 89 90 96 -193 102 104 112 109 109 112 111 111 111 114 113 113 121 -193 -193 -193 -193 -193 -193 -193 -209 108 107 93 91 89 90 88 -193 79 81 73 72 70 72 71 71 74 77 73 75 78 79 77 78 83 -193 -209 -209 104 -209 -209 -193 143 148 148 148 145 146 145 -193 -209 -209 153 0 0 0 0 0
    0 0 0 0 0 0 0 0 0 0 0 0 0 0 0 0 0 0 0 0 0 0 0 0 0 0 0 0 0 0 0 0 0 0 0 0 0 0 0 0 0 0 0 0 0 0 0 0 0 0 0 0 0 0 0 0 0 0 0 0 0 0 0 0 0 0 0 0 0 81 84 86 89 87 87 -209 -209 79 82 82 84 86 -193 85 84 89 90 89 90 -209 -209 86 81 81 78 78 77 78 77 83 80 84 86 86 86 86 85 86 81 79 77 75 75 72 70 72 71 72 -209 -209 88 88 87 88 89 -209 86 85 83 82 75 76 73 74 73 74 77 -193 74 80 -193 -193 75 80 -193 -193 81 84 84 84 86 84 -209 73 71 73 -209 71 71 71 -209 -193 -193 -193 -209 -193 -193 83 85 87 -193 83 -193 -193 -209 -209 -209 -209 64 69 70 69 71 68 68 70 70 70 71 71 72 72 74 76 75 77 81 77 76 79 78 84 86 91 90 90 91 92 91 90 90 90 86 87 86 83 79 76 82 78 82 83 85 85 85 86 86 85 86 86 85 84 85 83 81 86 86 87 89 90 90 91 91 90 90 90 91 89 91 96 -193 101 103 110 108 109 111 111 111 111 114 114 114 120 -193 -193 120 -193 -193 -193 -193 -209 107 107 94 92 90 91 90 90 90 90 90 -193 -193 80 76 75 79 83 80 80 83 84 85 82 85 87 90 92 98 96 99 -209 -209 -177 149 151 144 145 -209 -193 -209 -209 -209 0 0 0 0 0
    0 0 0 0 0 0 0 0 0 0 0 0 0 0 0 0 0 0 0 0 0 0 0 0 0 0 0 0 0 0 0 0 0 0 0 0 0 0 0 0 0 0 0 0 0 0 0 0 0 0 0 0 0 0 0 0 0 0 0 0 0 0 0 0 0 0 0 0 0 85 86 87 89 89 89 92 -209 86 87 86 87 87 88 88 87 89 90 90 91 -193 -209 88 85 84 82 81 81 83 81 86 84 86 87 87 87 87 86 87 83 82 82 77 77 73 71 -209 -209 -193 -193 -209 89 89 88 89 90 89 88 88 87 86 81 82 78 78 76 80 81 82 80 84 -193 -193 79 83 -193 85 85 86 87 86 87 86 -193 76 73 76 -193 73 -209 -193 -193 -193 -193 -193 77 81 83 85 86 -193 86 85 85 84 82 -193 -209 -209 70 75 75 75 74 70 70 72 72 72 73 74 74 75 77 79 78 79 84 80 79 82 81 85 86 92 90 90 91 93 92 91 91 91 88 89 89 89 85 82 86 81 85 85 85 86 86 87 88 87 87 87 87 87 87 86 85 87 88 88 91 91 91 92 92 92 91 92 92 90 92 97 -193 100 103 109 107 109 110 110 111 111 114 114 114 120 120 120 119 119 118 -193 -193 -193 108 107 95 93 91 92 90 91 92 92 92 91 91 90 89 89 86 87 86 85 87 88 89 87 87 87 88 89 91 88 89 91 -209 -209 -209 -209 -209 146 -209 -177 -209 -209 -209 0 0 0 0 0
    0 0 0 0 0 0 0 0 0 0 0 0 0 0 0 0 0 0 0 0 0 0 0 0 0 0 0 0 0 0 0 0 0 0 0 0 0 0 0 0 0 0 0 0 0 0 0 0 0 0 0 0 0 0 0 0 0 0 0 0 0 0 0 0 0 0 0 0 0 87 87 87 89 89 88 90 89 88 89 87 88 88 88 89 88 89 90 90 91 -193 -209 88 86 85 85 84 84 85 84 87 86 87 88 87 87 87 87 88 84 85 85 81 80 81 74 -209 -209 85 -193 -193 89 89 90 90 90 90 89 89 88 88 87 86 86 -193 81 86 85 86 85 86 -193 -193 84 86 87 87 87 88 88 87 88 88 89 83 80 82 82 77 -193 76 -193 -193 -193 -193 82 84 85 86 -193 -193 87 86 87 86 85 88 -193 -193 77 82 81 78 77 74 72 73 78 75 77 78 79 80 80 83 82 81 86 82 81 83 82 85 87 93 90 90 91 94 93 93 93 93 90 92 92 92 89 89 90 87 88 88 86 87 87 88 89 88 89 89 89 89 89 88 88 90 91 91 95 94 93 94 94 93 93 93 92 91 94 98 -193 100 103 109 108 109 110 110 111 111 114 114 114 119 119 120 119 119 118 118 -193 113 107 107 96 93 91 92 91 91 93 93 93 93 92 92 92 91 90 90 89 89 90 90 91 89 90 88 88 88 89 87 86 85 86 87 92 -209 -209 -209 -209 -177 -209 -209 -209 0 0 0 0 0
    0 0 0 0 0 0 0 0 0 0 0 0 0 0 0 0 0 0 0 0 0 0 0 0 0 0 0 0 0 0 0 0 0 0 0 0 0 0 0 0 0 0 0 0 0 0 0 0 0 0 0 0 0 0 0 0 0 0 0 0 0 0 0 0 0 0 0 0 0 88 88 88 88 89 88 90 90 89 90 89 89 89 89 89 89 89 89 89 90 -193 -193 87 86 87 86 87 87 88 87 89 88 88 88 88 88 88 87 88 85 87 87 86 86 88 86 -193 -193 90 -193 -193 89 89 91 90 91 90 89 89 89 89 89 89 88 -193 85 88 87 87 87 87 -193 86 86 87 88 88 89 89 89 89 89 89 89 85 84 85 85 81 82 81 82 -193 -193 85 85 86 87 -193 -193 -209 88 -193 87 87 86 89 88 88 85 86 85 83 81 82 76 78 85 80 83 84 84 84 84 85 85 84 87 85 84 85 85 87 87 94 91 91 91 95 94 93 94 94 91 94 94 94 91 91 92 90 90 90 88 88 89 89 90 90 90 90 90 91 91 91 96 98 98 97 99 96 95 96 94 94 93 93 92 91 94 99 -193 101 103 109 108 109 110 111 111 111 114 114 114 119 119 120 118 119 118 117 119 112 107 107 95 93 92 93 92 92 94 94 94 93 93 93 93 93 91 91 90 90 91 91 91 89 90 88 88 88 90 87 86 86 87 87 93 97 97 -209 -209 -209 -209 -209 -209 0 0 0 0 0
    0 0 0 0 0 0 0 0 0 0 0 0 0 0 0 0 0 0 0 0 0 0 0 0 0 0 0 0 0 0 0 0 0 0 0 0 0 0 0 0 0 0 0 0 0 0 0 0 0 0 0 0 0 0 0 0 0 0 0 0 0 0 0 0 0 0 0 0 0 89 88 87 88 89 89 90 90 90 91 89 90 90 90 90 89 89 90 89 90 -193 -193 88 87 89 89 90 91 91 90 92 90 90 90 89 89 88 88 89 87 89 89 89 89 90 89 90 91 91 92 -193 89 90 92 90 91 91 90 90 90 90 90 89 90 88 87 89 88 88 88 88 88 87 87 88 89 89 89 90 90 90 90 89 89 87 87 86 87 84 85 84 85 86 86 86 87 87 87 -193 -193 -209 87 -193 88 87 87 89 89 89 88 88 85 84 83 85 83 84 88 85 86 87 87 87 86 86 87 86 88 88 86 87 87 88 88 95 91 91 92 96 94 94 94 94 91 94 94 94 91 92 94 92 93 93 90 90 90 90 91 91 91 92 92 94 93 95 100 99 99 98 99 97 95 96 95 94 94 93 93 91 95 99 -193 101 103 109 108 110 110 111 111 111 114 114 114 119 119 120 118 118 118 117 119 112 108 107 94 92 92 93 92 92 94 94 96 94 95 95 95 95 93 93 92 91 93 92 92 90 90 88 88 88 90 88 88 88 89 90 93 95 96 100 104 -209 -209 -209 -209 0 0 0 0 0
    0 0 0 0 0 0 0 0 0 0 0 0 0 0 0 0 0 0 0 0 0 0 0 0 0 0 0 0 0 0 0 0 0 0 0 0 0 0 0 0 0 0 0 0 0 0 0 0 0 0 0 0 0 0 0 0 0 0 0 0 0 0 0 0 0 0 0 0 0 89 89 88 89 90 90 91 91 91 91 90 91 90 90 90 89 -193 -193 90 91 -193 -193 89 89 90 90 90 92 92 91 93 91 91 91 91 90 90 90 90 90 91 92 91 91 91 90 91 92 91 92 94 90 92 94 92 93 92 91 91 91 91 90 90 90 89 87 89 88 88 88 88 87 87 87 88 90 89 90 90 90 91 91 91 90 89 90 89 89 86 87 87 87 88 88 88 88 88 88 -193 -193 -193 88 -193 -193 89 88 90 90 90 90 89 86 85 84 87 86 87 89 87 87 88 88 88 87 87 89 88 89 89 89 89 89 90 90 96 92 92 93 98 95 94 95 95 92 95 95 95 92 94 95 93 94 95 91 92 92 91 92 92 92 93 93 95 94 96 99 99 98 98 98 98 96 98 97 96 96 95 94 92 96 99 104 101 103 108 107 110 110 111 111 111 115 115 115 118 118 119 118 118 118 117 119 114 110 109 92 91 91 93 92 92 94 94 96 95 96 97 97 97 96 95 95 93 95 94 94 92 91 88 89 88 91 89 90 90 92 94 95 97 98 99 103 -209 -209 -209 -209 0 0 0 0 0
    0 0 0 0 0 0 0 0 0 0 0 0 0 0 0 0 0 0 0 0 0 0 0 0 0 0 0 0 0 0 0 0 0 0 0 0 0 0 0 0 0 0 0 0 0 0 0 0 0 0 0 0 0 0 0 0 0 0 0 0 0 0 0 0 0 0 0 0 0 90 90 89 91 91 91 92 91 91 92 90 91 91 90 91 90 91 91 -193 -193 -193 -193 -209 87 89 89 91 93 93 92 94 93 92 93 92 92 92 92 92 92 92 94 93 93 92 90 92 92 92 94 95 92 96 97 93 95 94 93 92 92 92 91 91 91 89 87 89 89 88 88 88 88 88 87 88 90 89 91 91 91 92 92 92 92 91 93 91 92 89 90 90 89 90 89 89 89 89 89 -193 -193 -193 90 90 91 91 91 92 93 94 94 93 92 89 88 90 88 88 90 87 87 88 88 -193 88 88 90 89 91 91 90 91 91 92 92 96 93 93 94 98 95 95 95 95 92 95 95 95 92 95 96 95 96 96 94 94 94 92 94 94 93 95 94 95 94 96 99 98 98 98 97 98 97 99 98 98 99 97 96 94 99 101 -209 102 103 108 107 110 110 110 111 111 114 114 115 118 117 119 118 118 118 117 119 116 113 112 -193 90 91 92 93 92 94 94 98 97 97 99 98 98 97 96 95 94 94 95 93 91 91 87 89 88 92 91 91 92 96 98 98 101 101 100 103 -193 -209 -177 -209 0 0 0 0 0
    0 0 0 0 0 0 0 0 0 0 0 0 0 0 0 0 0 0 0 0 0 0 0 0 0 0 0 0 0 0 0 0 0 0 0 0 0 0 0 0 0 0 0 0 0 0 0 0 0 0 0 0 0 0 0 0 0 0 0 0 0 0 0 0 0 0 0 0 0 92 91 91 93 92 93 93 92 91 92 91 92 91 92 92 92 93 -193 -193 -193 -193 -177 -209 86 88 90 92 96 94 93 95 94 93 95 93 93 93 93 94 93 94 97 94 95 93 91 93 94 93 98 100 94 101 99 96 97 95 95 94 93 94 92 92 93 90 88 89 89 89 88 89 88 88 88 89 91 90 92 92 92 93 93 94 93 93 95 94 96 92 92 92 91 92 90 90 89 89 90 -193 -193 92 92 92 94 94 93 95 96 97 97 95 97 92 93 93 90 90 91 88 88 88 88 89 89 89 92 91 92 92 92 93 92 93 94 97 94 94 95 98 95 95 95 95 93 95 95 96 93 96 97 97 98 97 98 99 99 95 98 96 95 97 95 96 95 95 99 97 98 98 97 98 98 101 100 99 100 98 98 96 100 101 -209 102 104 108 107 110 109 110 110 110 114 114 114 117 116 119 117 118 117 117 119 115 114 113 -193 91 93 94 94 93 95 96 100 98 99 100 99 98 98 97 96 94 94 94 93 91 90 87 88 89 93 93 92 95 99 101 101 102 102 101 104 110 -209 -193 -209 0 0 0 0 0
    0 0 0 0 0 0 0 0 0 0 0 0 0 0 0 0 0 0 0 0 0 0 0 0 0 0 0 0 0 0 0 0 0 0 0 0 0 0 0 0 0 0 0 0 0 0 0 0 0 0 0 0 0 0 0 0 0 0 0 0 0 0 0 0 0 0 0 0 0 93 92 91 94 93 94 93 93 92 93 92 93 93 94 94 94 96 -193 -193 -193 -193 -177 -209 -193 90 91 93 97 94 94 95 94 94 96 94 94 94 94 95 94 95 97 95 96 94 91 95 96 95 100 102 98 103 101 99 99 97 97 96 95 96 93 94 95 92 89 91 90 90 89 89 88 88 88 90 92 90 94 93 93 94 94 95 95 95 97 95 98 95 94 95 94 94 92 91 91 91 -193 -193 -193 94 95 95 97 96 95 97 97 99 98 96 98 93 96 95 92 91 91 89 88 89 89 90 90 90 94 92 93 93 93 94 93 95 95 97 95 94 95 98 95 95 95 95 93 95 96 96 94 97 98 98 99 98 100 101 101 98 100 97 96 98 96 97 96 97 100 98 100 100 98 99 100 102 101 100 101 98 98 98 101 102 106 103 104 109 107 110 109 110 110 110 114 114 114 117 116 118 117 118 117 116 118 113 114 113 -193 91 93 94 96 95 97 97 101 99 100 100 100 99 99 98 98 95 95 96 94 92 92 90 92 93 97 97 96 98 101 103 101 103 103 102 104 112 -209 -209 -209 0 0 0 0 0
    0 0 0 0 0 0 0 0 0 0 0 0 0 0 0 0 0 0 0 0 0 0 0 0 0 0 0 0 0 0 0 0 0 0 0 0 0 0 0 0 0 0 0 0 0 0 0 0 0 0 0 0 0 0 0 0 0 0 0 0 0 0 0 0 0 0 0 0 0 93 92 91 94 93 93 93 93 93 94 93 94 93 96 96 96 -193 -193 -209 -193 -193 -193 -193 -193 91 92 94 98 94 95 96 95 95 97 95 96 95 96 96 96 97 98 97 97 94 91 96 98 97 102 103 100 104 102 100 100 99 99 98 97 98 94 97 97 94 92 92 90 90 90 90 88 89 -193 91 -193 92 97 94 95 96 96 97 96 97 98 96 98 96 95 96 95 95 93 92 92 93 94 -193 94 96 98 96 99 98 97 98 97 99 98 96 98 94 97 96 93 92 93 91 89 91 90 91 90 90 95 93 94 94 94 95 95 97 96 97 96 95 95 98 96 95 95 95 94 96 96 96 94 98 99 99 100 99 102 102 102 101 102 99 97 99 97 98 97 98 100 99 101 101 99 100 100 102 101 100 101 98 99 99 102 103 108 104 105 109 108 110 109 110 110 110 113 113 114 116 115 118 116 117 116 116 117 112 114 114 -193 90 92 94 97 95 98 99 103 100 101 102 101 100 101 100 100 98 99 99 97 96 97 96 100 99 100 100 100 101 102 104 103 103 103 102 105 115 -209 -209 -209 0 0 0 0 0
    0 0 0 0 0 0 0 0 0 0 0 0 0 0 0 0 0 0 0 0 0 0 0 0 0 0 0 0 0 0 0 0 0 0 0 0 0 0 0 0 0 0 0 0 0 0 0 0 0 0 0 0 0 0 0 0 0 0 0 0 0 0 0 0 0 0 0 0 0 94 94 92 95 93 94 93 93 93 94 94 95 94 98 98 -193 -193 -209 -209 -193 -209 -193 95 92 93 94 95 99 95 96 97 96 96 98 96 98 96 98 98 98 98 99 98 98 94 92 99 100 99 102 103 101 105 102 102 101 100 100 99 99 99 95 99 98 96 97 93 91 93 92 93 91 -193 -193 -193 -193 95 101 96 97 98 97 98 98 98 99 96 99 97 96 97 96 96 94 93 94 96 99 101 96 98 100 98 100 98 98 99 98 100 98 97 98 94 99 98 96 95 95 96 93 96 93 93 92 92 97 94 95 95 95 95 96 98 97 97 96 95 96 98 96 95 95 94 95 96 96 96 95 98 99 99 100 98 102 103 102 102 102 100 99 101 98 99 98 99 101 100 101 101 99 100 100 102 101 100 100 97 99 100 103 104 109 105 107 111 108 110 110 110 110 110 113 112 114 116 115 117 116 117 116 115 117 111 114 114 -193 89 91 92 96 94 98 99 104 101 102 103 103 102 102 101 101 99 100 100 97 98 100 99 102 101 102 102 101 102 102 104 103 104 104 103 106 115 -209 -209 -209 0 0 0 0 0
    0 0 0 0 0 0 0 0 0 0 0 0 0 0 0 0 0 0 0 0 0 0 0 0 0 0 0 0 0 0 0 0 0 0 0 0 0 0 0 0 0 0 0 0 0 0 0 0 0 0 0 0 0 0 0 0 0 0 0 0 0 0 0 0 0 0 0 0 0 97 98 94 98 95 95 95 94 94 95 94 97 94 99 99 -193 -193 -193 -177 -193 -209 -193 -193 96 96 98 97 100 96 97 98 97 98 99 97 99 98 99 99 99 99 99 99 98 94 93 99 102 100 103 103 102 105 102 102 101 100 101 100 99 99 95 100 98 98 102 96 94 96 96 98 100 -193 -193 -193 102 101 103 98 99 99 98 99 98 99 99 96 99 97 96 97 97 96 94 93 95 98 101 -193 97 100 101 99 101 99 99 99 98 100 98 97 99 95 -193 100 99 99 98 101 99 101 98 97 94 94 99 96 97 96 96 96 96 98 98 97 97 96 96 97 95 94 94 94 95 95 96 96 95 99 99 100 100 98 102 102 102 102 103 102 101 103 101 100 99 100 101 100 101 101 100 100 100 102 101 100 101 98 100 101 103 105 109 106 107 110 108 110 110 110 110 111 113 112 114 115 114 117 116 116 115 115 116 111 116 115 108 -193 -193 -209 101 98 101 101 105 102 102 104 104 103 103 102 102 101 101 101 98 99 101 101 103 102 103 103 103 103 103 105 104 105 104 103 106 116 -209 -209 -209 0 0 0 0 0
    0 0 0 0 0 0 0 0 0 0 0 0 0 0 0 0 0 0 0 0 0 0 0 0 0 0 0 0 0 0 0 0 0 0 0 0 0 0 0 0 0 0 0 0 0 0 0 0 0 0 0 0 0 0 0 0 0 0 0 0 0 0 0 0 0 0 0 0 0 99 99 96 99 96 96 96 95 95 95 95 97 95 100 99 -193 -193 -193 -193 -193 -193 -209 -193 -193 99 100 99 100 97 98 98 97 98 100 98 100 98 100 99 100 100 99 99 98 94 93 100 102 100 103 103 102 105 102 103 102 101 101 100 100 100 95 100 98 100 105 100 96 99 101 102 104 103 102 102 103 103 104 99 99 100 99 99 99 99 99 96 99 97 96 97 97 96 94 92 95 98 102 103 98 100 102 99 -193 99 99 99 98 100 99 97 99 95 -193 100 100 100 100 102 101 103 101 100 96 97 100 97 97 97 97 97 97 99 98 97 97 96 96 96 95 93 93 93 96 95 95 95 95 99 99 100 99 98 102 102 103 103 104 104 103 104 103 102 102 102 103 101 102 102 101 101 101 102 102 101 102 101 102 102 104 105 108 105 108 109 108 110 110 110 110 111 113 112 115 115 114 117 116 116 115 115 116 111 117 116 110 -209 -193 122 -209 -209 -209 109 109 104 103 105 105 104 103 102 103 101 101 101 98 100 101 101 103 103 103 103 103 104 103 105 105 105 105 -193 107 118 -193 -209 -209 0 0 0 0 0
    0 0 0 0 0 0 0 0 0 0 0 0 0 0 0 0 0 0 0 0 0 0 0 0 0 0 0 0 0 0 0 0 0 0 0 0 0 0 0 0 0 0 0 0 0 0 0 0 0 0 0 0 0 0 0 0 0 0 0 0 0 0 0 0 0 0 0 0 0 100 100 98 100 97 97 97 96 96 96 95 97 95 100 99 100 101 -193 -193 -193 -193 -209 -193 -193 101 101 100 101 97 99 99 98 99 100 98 100 98 100 99 100 100 100 99 99 94 94 101 103 102 104 104 103 105 102 102 101 100 101 100 100 99 94 100 97 101 106 102 99 102 105 105 105 104 103 103 103 103 104 99 99 100 99 99 99 100 100 96 99 98 97 98 97 96 94 92 94 97 -193 103 99 101 102 99 -193 99 99 99 98 100 98 97 99 95 101 100 100 101 101 103 102 103 102 101 97 99 100 98 98 97 97 97 97 99 98 97 97 96 97 96 95 93 93 93 99 95 95 95 96 100 99 99 99 97 103 103 103 103 104 105 105 106 105 105 105 105 106 103 104 104 102 103 103 104 104 103 104 103 104 104 106 107 108 106 108 108 108 109 109 109 110 111 112 111 115 115 114 117 116 116 115 115 116 111 117 117 111 119 119 125 -209 -209 -209 -209 108 103 102 104 104 104 103 103 103 102 102 102 100 102 102 102 103 102 103 103 103 104 103 105 106 105 107 -193 110 -193 593 -209 -209 0 0 0 0 0
    0 0 0 0 0 0 0 0 0 0 0 0 0 0 0 0 0 0 0 0 0 0 0 0 0 0 0 0 0 0 0 0 0 0 0 0 0 0 0 0 0 0 0 0 0 0 0 0 0 0 0 0 0 0 0 0 0 0 0 0 0 0 0 0 0 0 0 0 0 101 101 98 100 97 98 97 97 96 96 96 97 95 100 99 100 100 101 101 102 -193 -209 -209 -193 -193 103 102 103 99 100 99 98 99 100 99 100 98 100 99 100 100 100 100 99 95 96 103 105 102 104 104 103 105 102 102 101 100 100 99 99 99 94 100 97 102 107 105 105 106 108 107 108 106 -193 104 104 103 104 99 99 100 99 99 99 100 100 96 99 98 97 98 98 96 95 93 95 98 -193 104 99 101 102 99 101 99 99 99 98 99 98 96 99 95 101 100 100 101 102 103 103 103 103 102 99 100 100 98 98 97 97 97 97 99 98 97 97 96 96 96 95 94 94 93 99 95 95 95 96 100 99 99 99 98 103 103 103 104 104 106 107 107 107 107 109 109 109 106 106 105 104 104 103 104 104 104 105 105 105 106 108 108 109 107 110 109 108 110 110 109 110 111 112 111 116 114 114 116 116 116 114 115 116 111 117 117 112 117 117 122 -209 -209 -209 -209 -193 101 101 104 105 106 106 105 106 105 106 106 103 105 104 103 104 103 103 103 104 104 103 105 107 106 109 111 114 -193 -209 -209 -177 0 0 0 0 0
    0 0 0 0 0 0 0 0 0 0 0 0 0 0 0 0 0 0 0 0 0 0 0 0 0 0 0 0 0 0 0 0 0 0 0 0 0 0 0 0 0 0 0 0 0 0 0 0 0 0 0 0 0 0 0 0 0 0 0 0 0 0 0 0 0 0 0 0 0 101 -193 98 100 98 98 97 97 97 96 96 98 95 101 100 100 101 101 102 103 -193 -209 105 -193 -193 -193 -193 104 101 102 101 100 100 101 100 101 99 101 100 101 101 100 100 100 96 100 105 106 103 104 104 103 105 102 102 101 100 101 99 100 100 94 101 98 104 108 106 106 108 109 108 110 108 108 107 105 105 105 99 99 100 99 99 99 100 100 96 100 99 97 98 98 97 96 94 97 101 105 104 100 101 102 99 101 99 99 99 98 100 99 97 99 96 101 101 101 102 103 103 103 103 103 102 99 100 101 99 99 98 98 97 98 99 98 98 97 97 97 96 95 94 94 94 100 95 95 95 97 100 99 99 100 98 103 103 104 104 105 106 108 108 108 109 111 110 111 108 108 106 104 104 104 105 105 104 106 106 106 107 108 109 109 108 111 109 109 110 110 110 110 113 113 111 116 114 114 116 115 115 114 115 115 111 116 116 113 116 116 118 116 114 -193 109 108 102 103 106 108 111 110 110 110 108 109 109 106 107 104 103 103 103 103 104 104 104 104 105 108 107 111 113 116 122 -209 -177 -193 0 0 0 0 0
    0 0 0 0 0 0 0 0 0 0 0 0 0 0 0 0 0 0 0 0 0 0 0 0 0 0 0 0 0 0 0 0 0 0 0 0 0 0 0 0 0 0 0 0 0 0 0 0 0 0 0 0 0 0 0 0 0 0 0 0 0 0 0 0 0 0 0 0 0 102 101 99 101 97 98 98 98 97 96 96 98 95 101 100 100 101 102 102 103 104 106 106 106 106 106 105 105 103 103 102 101 102 102 101 102 100 102 101 102 101 101 101 101 99 104 107 107 104 105 104 104 106 103 103 102 101 101 100 100 100 94 100 97 103 107 106 105 107 108 108 110 109 109 108 106 105 105 99 99 100 99 100 100 100 100 97 101 99 98 99 99 98 96 94 98 101 107 107 100 102 102 100 101 100 100 100 100 101 100 99 101 99 104 103 104 103 103 103 103 103 103 102 99 101 101 99 99 99 98 98 99 99 98 98 98 99 99 99 98 96 99 97 101 96 95 95 96 100 99 99 99 97 102 102 104 104 105 107 109 109 109 109 112 110 113 109 109 107 105 105 105 106 106 105 107 106 107 107 109 109 109 108 111 109 110 110 111 110 111 114 113 112 117 115 115 116 116 115 114 115 115 111 116 116 113 115 116 116 115 115 -193 112 110 -209 105 110 109 112 112 113 110 109 109 109 106 106 104 103 103 103 103 104 105 105 104 106 109 108 113 115 117 122 -209 -177 -209 0 0 0 0 0
    0 0 0 0 0 0 0 0 0 0 0 0 0 0 0 0 0 0 0 0 0 0 0 0 0 0 0 0 0 0 0 0 0 0 0 0 0 0 0 0 0 0 0 0 0 0 0 0 0 0 0 0 0 0 0 0 0 0 0 0 0 0 0 0 0 0 0 0 0 105 103 100 101 98 98 98 98 98 96 97 98 95 -193 -193 102 103 103 104 105 106 108 108 108 108 108 107 107 104 105 103 102 102 103 101 102 101 102 102 103 102 102 102 103 104 106 109 109 106 107 106 106 107 103 104 102 102 102 101 101 100 94 100 97 103 107 106 105 107 107 107 109 108 108 107 106 105 105 99 100 101 100 101 101 102 102 100 103 101 100 101 100 99 97 95 98 100 106 106 102 103 103 102 103 101 101 101 101 102 102 101 103 101 105 105 106 104 104 103 104 103 103 102 100 102 101 100 100 99 99 99 99 100 98 99 100 102 102 102 101 100 103 102 103 97 95 96 97 100 99 98 99 97 103 103 104 105 105 108 109 109 109 110 112 110 113 111 110 111 109 107 107 107 107 106 109 108 108 107 109 109 109 109 111 108 110 110 112 111 112 114 114 113 118 115 115 116 116 115 114 115 114 111 116 115 112 114 115 114 112 113 111 112 112 107 107 111 111 114 114 115 112 109 109 111 105 106 104 102 103 103 103 104 105 105 104 106 110 109 115 115 118 123 -209 -209 -209 0 0 0 0 0
    0 0 0 0 0 0 0 0 0 0 0 0 0 0 0 0 0 0 0 0 0 0 0 0 0 0 0 0 0 0 0 0 0 0 0 0 0 0 0 0 0 0 0 0 0 0 0 0 0 0 0 0 0 0 0 0 0 0 0 0 0 0 0 0 0 0 0 0 0 108 106 103 103 100 100 100 100 100 99 100 101 100 -193 -193 105 105 106 107 107 108 110 110 111 110 110 109 109 107 106 105 103 103 103 102 102 102 103 103 104 103 104 104 104 106 107 111 110 109 110 108 108 109 105 105 103 103 103 102 102 100 95 100 97 103 107 106 106 107 107 107 108 108 107 107 106 105 104 99 101 102 102 103 103 103 103 102 105 104 103 103 102 101 99 96 100 100 106 108 103 106 104 103 -193 102 103 102 104 104 104 104 105 104 106 106 107 105 105 104 104 104 104 103 101 102 102 101 100 100 100 100 101 101 99 100 101 104 104 105 104 103 106 105 105 99 96 97 98 101 99 98 99 98 103 103 105 106 106 109 110 110 110 110 113 112 114 114 113 117 117 110 110 109 107 107 110 108 108 108 110 110 110 109 112 109 110 111 112 112 113 115 115 114 118 115 115 116 116 116 115 115 114 112 116 116 113 115 115 114 112 113 111 113 113 108 107 111 112 115 115 116 113 110 110 116 -209 104 103 101 103 103 104 104 107 106 104 107 112 110 116 116 118 124 -209 -209 -209 0 0 0 0 0
    0 0 0 0 0 0 0 0 0 0 0 0 0 0 0 0 0 0 0 0 0 0 0 0 0 0 0 0 0 0 0 0 0 0 0 0 0 0 0 0 0 0 0 0 0 0 0 0 0 0 0 0 0 0 0 0 0 0 0 0 0 0 0 0 0 0 0 0 0 110 108 105 106 102 103 103 104 105 103 104 106 -209 109 109 108 108 109 109 109 110 112 113 113 113 112 111 111 109 108 107 105 105 105 104 103 104 105 105 106 105 106 106 106 108 108 112 111 110 113 109 110 110 106 106 105 104 104 103 104 101 97 101 98 103 107 107 107 109 108 108 109 109 108 108 107 106 104 100 102 103 103 105 104 105 105 105 107 106 105 105 104 104 101 99 102 102 106 110 106 111 105 105 106 104 105 104 105 106 105 106 106 106 107 107 108 106 106 105 105 105 104 103 102 103 102 102 101 101 102 102 103 102 101 103 105 107 106 106 106 106 107 107 106 101 98 99 100 102 100 99 100 100 105 104 106 107 107 109 111 111 111 111 114 113 114 116 116 119 120 114 115 111 109 109 111 110 110 109 111 110 110 110 112 109 112 112 113 114 114 115 116 116 118 116 116 117 116 116 116 116 115 113 117 117 115 115 115 114 113 113 112 113 113 109 109 112 114 117 116 117 113 110 111 118 -209 109 108 -193 104 115 115 115 115 108 106 107 113 111 116 116 119 125 -209 -209 -193 0 0 0 0 0
    0 0 0 0 0 0 0 0 0 0 0 0 0 0 0 0 0 0 0 0 0 0 0 0 0 0 0 0 0 0 0 0 0 0 0 0 0 0 0 0 0 0 0 0 0 0 0 0 0 0 0 0 0 0 0 0 0 0 0 0 0 0 0 0 0 0 0 0 0 112 109 108 108 104 106 107 107 109 108 109 111 109 113 113 111 113 113 112 112 113 114 115 114 114 113 113 113 112 110 110 107 107 107 106 105 106 106 106 107 107 107 107 108 111 110 114 111 112 115 111 113 112 108 108 107 106 106 105 106 103 100 103 100 104 108 108 108 109 108 109 109 110 109 109 109 107 106 101 103 105 106 107 106 107 108 107 109 108 107 107 106 106 105 104 105 105 109 114 115 117 109 110 109 107 107 106 108 108 107 108 107 107 108 108 108 106 106 105 106 105 105 104 103 104 103 103 103 103 103 104 105 105 104 106 107 109 108 108 107 107 109 108 107 102 101 102 102 103 101 101 102 102 106 106 107 109 108 110 111 111 111 111 114 113 114 117 118 120 121 117 118 114 112 112 113 111 111 111 112 111 111 111 113 110 113 114 114 115 115 116 116 117 118 116 116 117 116 116 116 116 115 114 117 117 115 116 115 114 113 112 112 113 114 110 111 113 115 117 117 117 115 112 114 118 -193 117 119 -193 -193 121 121 121 118 107 105 107 112 110 116 115 119 125 -209 -209 -193 0 0 0 0 0
    0 0 0 0 0 0 0 0 0 0 0 0 0 0 0 0 0 0 0 0 0 0 0 0 0 0 0 0 0 0 0 0 0 0 0 0 0 0 0 0 0 0 0 0 0 0 0 0 0 0 0 0 0 0 0 0 0 0 0 0 0 0 0 0 0 0 0 0 0 113 110 110 110 107 108 110 110 111 111 113 115 113 116 115 115 116 115 114 114 114 114 115 114 115 113 113 114 114 112 112 109 109 109 108 107 108 107 108 108 107 108 108 110 113 112 115 112 114 116 112 115 113 109 110 109 108 108 107 108 105 104 106 104 106 109 108 108 109 108 108 109 110 109 111 111 110 108 104 106 107 108 109 108 109 110 109 110 110 109 108 107 109 107 107 108 110 115 117 119 119 115 116 113 111 110 109 112 110 109 109 108 108 108 108 108 106 106 106 107 107 106 106 105 107 105 105 104 104 104 106 106 107 106 108 109 110 109 109 108 109 110 109 108 104 103 104 104 104 103 103 104 104 107 107 109 111 109 111 111 111 111 111 115 114 114 119 120 121 122 119 120 117 115 115 115 112 113 112 113 112 112 112 114 111 115 115 115 117 115 116 117 117 118 116 116 117 116 117 117 117 115 114 117 117 116 116 115 114 113 113 113 115 115 112 114 116 118 120 120 121 119 118 120 122 122 118 119 121 120 120 121 120 119 111 110 113 115 112 117 115 119 125 -177 -177 -193 0 0 0 0 0
    0 0 0 0 0 0 0 0 0 0 0 0 0 0 0 0 0 0 0 0 0 0 0 0 0 0 0 0 0 0 0 0 0 0 0 0 0 0 0 0 0 0 0 0 0 0 0 0 0 0 0 0 0 0 0 0 0 0 0 0 0 0 0 0 0 0 0 0 0 114 111 112 111 109 110 112 112 113 114 116 117 116 118 117 117 117 117 114 115 114 115 116 114 115 113 114 114 115 114 114 111 111 110 109 108 109 107 109 108 108 109 109 112 115 113 115 112 114 116 112 116 114 111 112 111 111 111 110 111 107 107 109 106 107 109 108 108 108 107 107 109 109 109 111 112 112 111 108 111 110 111 112 110 111 111 111 111 111 111 109 108 110 108 109 111 114 116 117 118 119 116 117 115 114 113 112 114 112 110 110 109 109 109 109 108 106 106 106 108 108 108 108 106 109 108 109 106 106 106 108 108 110 108 110 111 111 111 111 110 111 111 110 109 106 105 106 105 106 104 104 105 106 109 108 110 112 110 111 112 111 112 112 115 114 113 119 120 121 122 120 120 119 117 117 117 113 114 114 114 114 114 113 115 115 117 117 117 118 117 117 117 118 118 117 116 117 116 117 118 117 115 115 117 117 116 116 115 114 115 116 116 117 118 116 117 117 119 120 121 121 120 120 121 122 122 118 118 118 119 119 119 119 118 115 114 115 116 113 116 115 119 126 -177 -177 -209 0 0 0 0 0
    0 0 0 0 0 0 0 0 0 0 0 0 0 0 0 0 0 0 0 0 0 0 0 0 0 0 0 0 0 0 0 0 0 0 0 0 0 0 0 0 0 0 0 0 0 0 0 0 0 0 0 0 0 0 0 0 0 0 0 0 0 0 0 0 0 0 0 0 0 114 112 114 112 111 111 114 114 115 116 117 118 118 119 119 119 119 118 115 116 114 115 116 115 115 113 114 114 115 114 114 111 111 110 110 108 110 108 110 109 110 111 111 114 116 114 115 113 114 116 113 117 114 112 114 113 113 113 112 114 109 110 112 109 109 110 108 108 108 107 107 108 108 108 109 111 111 111 111 114 112 113 114 112 113 112 112 112 111 111 110 109 111 109 111 113 115 115 117 117 118 116 116 115 114 113 113 115 113 112 111 110 110 110 109 109 106 106 106 107 108 108 109 108 112 112 113 109 109 108 111 110 112 110 111 112 112 111 112 110 112 112 111 110 108 107 108 107 108 106 106 107 108 110 109 111 114 110 112 111 111 112 113 115 114 113 119 120 121 121 120 120 120 119 119 118 115 115 115 115 115 115 114 116 117 119 119 119 120 118 118 118 119 118 117 117 117 116 118 119 118 115 116 117 117 116 116 116 115 116 117 118 118 119 118 118 118 119 119 120 118 118 117 119 122 120 118 118 117 118 118 118 118 117 115 114 116 116 113 115 114 119 -193 -177 -177 -193 0 0 0 0 0
    0 0 0 0 0 0 0 0 0 0 0 0 0 0 0 0 0 0 0 0 0 0 0 0 0 0 0 0 0 0 0 0 0 0 0 0 0 0 0 0 0 0 0 0 0 0 0 0 0 0 0 0 0 0 0 0 0 0 0 0 0 0 0 0 0 0 0 0 0 115 112 114 113 113 112 115 114 115 117 117 119 119 119 119 120 120 119 116 116 115 115 117 114 115 113 114 114 115 114 115 111 112 111 111 108 110 108 111 110 111 112 113 115 117 115 116 113 114 116 113 117 114 113 115 114 115 114 113 115 109 114 115 110 110 111 109 109 108 108 107 108 108 108 109 110 110 111 112 115 114 114 115 113 114 113 113 113 111 111 111 110 112 110 112 114 115 115 116 116 117 115 115 114 113 112 112 115 113 112 112 111 110 110 110 110 106 107 106 107 108 109 110 109 112 113 114 111 110 110 113 111 113 110 112 112 112 111 111 110 112 111 111 110 108 110 110 109 109 108 108 110 110 111 109 111 115 111 111 111 111 112 113 116 115 113 120 120 121 121 120 121 121 122 122 120 117 118 117 117 116 117 116 118 119 120 120 120 121 119 119 119 119 118 118 117 118 117 119 120 119 116 119 119 118 118 118 117 116 118 118 119 119 120 119 120 119 120 121 122 121 122 121 124 126 128 121 120 118 118 118 118 118 117 116 115 116 116 113 114 114 119 -193 -177 -177 -177 0 0 0 0 0
    0 0 0 0 0 0 0 0 0 0 0 0 0 0 0 0 0 0 0 0 0 0 0 0 0 0 0 0 0 0 0 0 0 0 0 0 0 0 0 0 0 0 0 0 0 0 0 0 0 0 0 0 0 0 0 0 0 0 0 0 0 0 0 0 0 0 0 0 0 115 112 114 113 114 113 115 115 115 117 118 119 119 119 119 120 121 119 116 116 115 115 116 114 115 113 113 114 115 114 115 111 113 112 111 109 111 109 111 110 112 112 114 116 117 115 116 114 115 116 113 117 114 112 114 114 114 114 113 114 109 113 115 111 111 111 110 110 109 109 108 109 -193 108 110 110 110 111 113 115 114 114 115 113 114 114 113 113 112 112 111 110 112 111 113 114 115 114 115 115 116 114 114 114 113 111 113 115 113 112 111 111 110 110 110 109 106 107 106 108 109 109 110 109 112 112 114 111 111 110 114 111 113 111 112 112 112 111 112 110 112 111 111 110 109 111 111 111 111 109 109 112 111 112 110 111 115 111 111 111 111 112 113 116 116 113 120 121 120 121 120 121 121 123 124 122 121 122 121 121 119 120 118 119 121 121 120 121 121 119 119 119 119 117 117 117 117 116 119 120 119 116 122 123 121 121 121 120 119 119 118 120 120 121 120 121 121 122 122 125 124 125 125 126 127 129 123 122 120 121 120 120 120 120 118 116 117 116 113 112 112 119 -209 -209 -177 -193 0 0 0 0 0
    0 0 0 0 0 0 0 0 0 0 0 0 0 0 0 0 0 0 0 0 0 0 0 0 0 0 0 0 0 0 0 0 0 0 0 0 0 0 0 0 0 0 0 0 0 0 0 0 0 0 0 0 0 0 0 0 0 0 0 0 0 0 0 0 0 0 0 0 0 115 112 114 112 113 112 115 114 115 116 117 119 119 119 119 121 121 120 117 117 115 114 116 114 115 113 113 114 115 114 115 112 113 112 112 110 112 110 113 111 113 113 114 116 117 115 116 113 114 115 111 116 113 112 114 113 113 114 113 114 109 112 115 110 110 111 109 109 109 110 109 110 -193 -193 111 111 111 111 113 114 115 114 115 113 115 114 113 114 113 112 112 111 114 112 114 115 115 114 115 115 116 115 114 115 114 112 114 116 113 112 111 111 110 110 109 109 106 107 106 107 108 109 111 110 113 113 114 112 112 111 115 111 114 111 113 112 112 112 112 110 112 111 111 110 108 111 111 110 110 109 109 112 111 112 110 111 116 111 112 112 111 112 115 117 116 113 120 120 120 120 121 121 121 125 126 125 124 126 126 124 123 123 119 121 123 122 121 121 122 121 121 121 121 119 120 120 121 120 123 123 124 123 126 127 125 126 124 124 122 123 120 121 121 122 122 123 123 124 124 127 126 126 127 127 128 130 124 123 121 122 121 122 121 121 121 117 118 117 114 113 112 120 -209 -209 -177 -209 0 0 0 0 0
    0 0 0 0 0 0 0 0 0 0 0 0 0 0 0 0 0 0 0 0 0 0 0 0 0 0 0 0 0 0 0 0 0 0 0 0 0 0 0 0 0 0 0 0 0 0 0 0 0 0 0 0 0 0 0 0 0 0 0 0 0 0 0 0 0 0 0 0 0 115 112 114 112 114 112 116 115 116 117 118 119 119 120 120 121 122 120 117 116 115 114 116 114 114 113 113 114 115 114 115 112 114 113 113 111 113 111 114 113 115 114 115 116 117 115 115 113 113 113 110 115 112 111 113 112 112 113 112 114 109 111 115 110 110 111 107 107 106 109 -193 109 -193 -193 111 112 112 111 112 113 114 114 114 113 114 113 113 114 113 112 112 112 114 113 114 115 115 114 115 115 116 115 115 115 114 112 114 116 113 111 110 110 109 110 109 109 106 106 105 106 108 109 110 110 113 113 114 112 112 111 115 112 114 111 112 112 111 111 112 110 112 110 111 109 108 111 110 110 110 109 110 113 112 113 110 112 116 112 112 112 112 113 116 117 116 113 120 120 120 120 121 121 122 127 127 126 126 129 129 127 127 127 122 126 127 124 123 123 123 122 122 122 122 121 122 123 123 124 126 126 128 126 128 129 127 127 126 126 124 125 121 122 123 124 123 124 124 125 125 127 127 127 129 128 128 130 125 125 123 123 122 122 121 -209 -193 119 119 119 118 119 119 123 -209 -193 -177 -193 0 0 0 0 0
    0 0 0 0 0 0 0 0 0 0 0 0 0 0 0 0 0 0 0 0 0 0 0 0 0 0 0 0 0 0 0 0 0 0 0 0 0 0 0 0 0 0 0 0 0 0 0 0 0 0 0 0 0 0 0 0 0 0 0 0 0 0 0 0 0 0 0 0 0 115 113 115 112 114 112 116 115 117 118 118 120 120 120 121 121 122 121 116 115 114 113 115 113 114 113 113 114 115 114 115 112 115 114 114 112 114 112 115 114 116 115 115 116 118 114 115 113 113 113 110 115 112 111 113 112 112 113 113 114 110 112 116 113 112 112 106 106 105 108 -193 -209 -209 -193 112 113 113 111 112 112 114 114 114 112 113 113 113 114 113 112 113 112 115 114 115 115 115 115 115 115 116 115 115 115 114 111 114 116 112 111 110 110 109 110 109 109 106 106 105 106 109 110 112 111 114 115 115 113 112 110 115 112 113 110 112 111 111 111 111 109 111 110 110 109 109 111 110 111 110 109 111 114 113 114 112 114 117 113 113 113 113 115 116 117 116 114 121 121 120 120 121 121 122 128 127 126 127 129 130 128 129 128 123 130 129 126 124 124 124 123 125 124 124 124 127 127 127 129 131 130 131 130 130 130 130 131 129 130 127 129 123 125 125 125 125 126 125 127 125 129 129 128 130 129 128 130 126 126 124 124 123 123 122 122 122 121 120 120 120 120 121 124 -209 -193 -177 -193 0 0 0 0 0
    0 0 0 0 0 0 0 0 0 0 0 0 0 0 0 0 0 0 0 0 0 0 0 0 0 0 0 0 0 0 0 0 0 0 0 0 0 0 0 0 0 0 0 0 0 0 0 0 0 0 0 0 0 0 0 0 0 0 0 0 0 0 0 0 0 0 0 0 0 115 113 115 113 115 114 117 115 117 118 119 -193 -193 120 121 121 123 122 115 114 112 112 115 114 114 113 113 114 115 114 115 113 115 114 115 113 115 112 116 114 117 115 116 116 118 114 115 113 114 113 110 115 113 111 113 112 112 113 113 115 110 111 116 113 113 114 106 -193 104 -193 -193 -209 -209 -209 -193 -193 -193 112 -193 112 114 114 115 113 114 114 114 115 114 113 114 113 116 115 116 116 116 116 116 115 117 115 115 114 113 111 113 116 113 111 110 110 110 111 110 110 107 108 108 113 115 115 116 116 117 117 116 114 113 110 116 112 114 111 112 111 111 111 112 110 112 110 111 109 109 111 112 113 111 111 113 117 116 116 115 117 118 114 114 114 115 115 117 117 117 115 121 121 121 120 121 121 123 129 128 127 128 129 130 129 130 128 125 130 130 128 125 125 125 124 127 126 127 127 130 129 129 130 132 131 131 131 130 130 132 133 131 132 130 130 125 126 126 126 126 128 126 128 127 130 130 129 131 130 129 131 128 128 126 125 125 124 123 123 123 122 121 121 121 122 122 125 -193 -193 -177 -177 0 0 0 0 0
    0 0 0 0 0 0 0 0 0 0 0 0 0 0 0 0 0 0 0 0 0 0 0 0 0 0 0 0 0 0 0 0 0 0 0 0 0 0 0 0 0 0 0 0 0 0 0 0 0 0 0 0 0 0 0 0 0 0 0 0 0 0 0 0 0 0 0 0 0 116 115 118 117 120 119 122 119 119 120 121 -193 -193 123 124 124 127 130 -193 117 114 114 116 115 114 114 114 114 116 114 116 113 115 115 115 114 116 113 116 116 118 116 117 116 118 115 115 114 114 113 112 116 114 111 113 113 112 113 113 114 109 109 115 112 113 115 -193 -193 -193 -209 -209 -209 -209 -209 -209 -209 -209 -209 -193 113 116 115 116 115 115 115 116 116 116 115 116 115 117 116 116 116 116 116 116 115 117 115 115 114 113 112 115 118 115 113 111 113 114 115 113 112 108 113 115 120 120 118 119 119 119 120 118 116 115 113 117 113 115 112 113 112 112 112 113 110 112 111 112 110 111 112 114 115 114 115 117 120 120 119 119 120 119 116 115 116 116 117 118 118 117 117 122 123 122 122 122 123 125 130 129 128 128 130 130 130 131 128 126 132 132 131 128 127 127 125 129 129 128 130 132 130 130 131 132 132 132 132 131 129 131 132 131 131 129 129 124 127 127 128 128 130 127 129 129 131 131 130 131 131 130 132 130 130 129 128 128 125 124 124 124 123 121 121 122 122 124 126 -193 -193 -177 -177 0 0 0 0 0
    0 0 0 0 0 0 0 0 0 0 0 0 0 0 0 0 0 0 0 0 0 0 0 0 0 0 0 0 0 0 0 0 0 0 0 0 0 0 0 0 0 0 0 0 0 0 0 0 0 0 0 0 0 0 0 0 0 0 0 0 0 0 0 0 0 0 0 0 0 117 117 120 -193 122 123 128 -209 123 123 123 125 128 126 126 128 130 -193 -193 122 119 117 118 117 115 115 114 115 117 115 117 116 117 117 117 116 118 116 118 118 118 117 117 117 118 115 115 115 115 115 117 118 116 113 116 115 114 115 115 115 110 111 117 -193 117 122 -193 -177 -177 -209 -209 -209 -209 -209 -209 -209 -209 -209 -209 115 117 117 118 117 117 117 118 118 118 118 118 117 118 118 118 117 117 116 116 115 117 115 115 114 114 114 118 120 117 116 114 116 118 118 118 116 111 119 121 123 124 122 122 124 123 123 121 118 117 116 119 116 116 115 116 114 114 114 115 112 114 112 113 112 115 115 117 119 119 120 122 123 124 122 123 124 121 118 118 118 118 119 120 120 119 120 123 126 125 124 125 125 127 130 129 129 129 130 130 130 131 129 128 132 133 133 130 129 129 127 131 131 131 131 133 131 132 132 133 132 132 132 131 129 131 130 129 129 128 127 124 128 129 130 130 131 129 131 131 132 132 131 132 132 131 133 132 132 131 130 130 128 125 126 125 123 122 122 123 123 125 127 134 -193 -177 -177 0 0 0 0 0
    0 0 0 0 0 0 0 0 0 0 0 0 0 0 0 0 0 0 0 0 0 0 0 0 0 0 0 0 0 0 0 0 0 0 0 0 0 0 0 0 0 0 0 0 0 0 0 0 0 0 0 0 0 0 0 0 0 0 0 0 0 0 0 0 0 0 0 0 0 120 121 123 128 127 130 133 -209 -193 128 -193 -209 132 131 131 132 131 -193 -193 127 124 121 -193 -193 118 117 116 117 118 117 119 119 120 -193 120 120 120 120 120 120 120 118 118 118 119 116 117 117 117 118 121 -193 118 117 118 118 117 118 117 117 113 116 -193 -193 -193 126 -193 -193 -193 -193 -209 -209 -209 -209 -209 -209 -209 -209 -209 -209 -193 -209 -193 -209 -209 -193 122 122 123 -193 122 122 121 120 120 120 119 119 118 118 119 118 118 118 117 118 121 124 119 118 117 118 -193 121 121 120 119 122 124 125 127 125 126 130 128 128 131 120 119 119 121 -193 119 119 118 117 118 118 117 115 116 115 115 115 118 118 120 122 122 122 124 125 126 125 126 127 123 121 120 120 120 120 121 122 121 123 126 130 128 128 127 127 129 131 129 129 129 130 130 130 131 129 129 133 133 135 132 131 132 128 132 132 132 132 133 132 132 133 133 132 133 133 132 130 130 129 129 127 129 126 124 128 130 131 132 133 131 133 133 133 133 132 133 133 131 133 132 132 132 132 132 131 128 130 128 125 124 122 124 124 126 129 134 -209 -209 -209 0 0 0 0 0
    0 0 0 0 0 0 0 0 0 0 0 0 0 0 0 0 0 0 0 0 0 0 0 0 0 0 0 0 0 0 0 0 0 0 0 0 0 0 0 0 0 0 0 0 0 0 0 0 0 0 0 0 0 0 0 0 0 0 0 0 0 0 0 0 0 0 0 0 0 -209 -193 127 134 -193 134 -209 -209 -209 -209 -193 -209 136 135 137 135 132 -193 -193 132 129 126 124 -193 -193 121 118 120 119 119 121 122 123 125 123 123 123 122 122 123 122 120 120 119 120 117 118 119 119 -209 137 138 -209 -209 124 -209 -193 -193 -193 120 -193 122 -193 -193 124 130 -193 -209 -193 -193 -193 -193 -209 -209 -209 130 129 -193 -209 -193 125 125 125 127 125 125 128 128 128 126 126 126 124 124 124 123 122 122 121 122 123 122 123 123 123 122 124 128 123 121 120 120 124 123 123 122 122 123 126 127 129 127 130 132 132 131 134 124 122 122 123 123 121 122 121 121 121 121 120 119 119 118 118 119 122 122 122 125 124 125 126 127 129 127 129 130 125 123 122 122 122 123 123 123 122 125 128 131 130 130 129 129 130 131 129 129 129 130 130 130 131 128 129 133 135 137 136 134 135 133 135 134 134 133 134 132 132 132 133 132 133 133 132 131 132 131 131 130 132 129 127 129 130 129 132 133 132 133 133 133 133 133 134 134 132 133 133 133 134 135 134 134 132 135 133 130 128 124 125 125 127 130 134 -193 -209 -209 0 0 0 0 0
    0 0 0 0 0 0 0 0 0 0 0 0 0 0 0 0 0 0 0 0 0 0 0 0 0 0 0 0 0 0 0 0 0 0 0 0 0 0 0 0 0 0 0 0 0 0 0 0 0 0 0 0 0 0 0 0 0 0 0 0 0 0 0 0 0 0 0 0 0 -209 -209 132 137 -193 -193 -193 -209 -209 -209 -193 -209 137 137 137 135 132 134 -193 133 131 130 128 129 125 129 121 125 122 123 124 126 126 129 126 127 125 124 124 125 124 122 122 121 122 119 120 125 -209 135 139 139 138 138 134 -193 134 -193 -193 125 126 126 126 -193 128 130 131 -193 130 131 132 132 -193 -209 -193 132 131 -193 -193 130 131 130 128 131 128 128 131 131 130 129 128 130 127 128 128 126 126 127 127 128 129 129 128 128 128 127 128 131 128 124 123 122 126 124 124 123 124 124 127 127 129 127 131 133 133 131 135 128 125 125 126 127 123 125 123 123 124 124 124 123 122 122 122 123 125 125 124 127 126 127 129 129 130 129 130 131 126 126 124 123 125 125 125 124 124 127 129 132 131 131 130 130 132 131 130 130 129 130 130 130 131 126 130 133 136 138 138 137 138 137 138 137 136 134 134 132 132 132 132 132 132 133 133 132 134 133 133 133 135 134 132 132 132 128 131 133 133 134 132 133 134 133 135 135 133 134 134 134 135 136 135 135 134 137 135 133 133 127 128 129 131 133 135 137 -209 -209 0 0 0 0 0
    0 0 0 0 0 0 0 0 0 0 0 0 0 0 0 0 0 0 0 0 0 0 0 0 0 0 0 0 0 0 0 0 0 0 0 0 0 0 0 0 0 0 0 0 0 0 0 0 0 0 0 0 0 0 0 0 0 0 0 0 0 0 0 0 0 0 0 0 0 -209 -193 134 137 136 -193 138 139 139 138 137 137 137 137 136 135 131 133 133 134 132 132 131 132 128 133 126 130 124 128 128 130 130 132 131 131 128 127 125 127 126 124 123 123 125 -209 124 132 135 136 140 139 138 138 136 137 136 -193 -193 131 -193 130 129 131 131 131 132 131 131 131 132 133 -193 -209 -193 133 133 130 -193 131 132 132 130 133 131 131 133 132 131 131 130 132 129 131 132 130 131 133 132 133 133 132 132 131 132 131 131 133 132 129 128 126 130 126 126 125 126 126 128 128 129 128 132 133 133 132 135 130 128 127 128 130 126 128 126 126 127 127 127 126 124 125 124 125 128 127 126 129 128 129 130 130 131 130 131 131 127 127 125 125 127 127 126 126 127 131 131 133 132 132 131 131 133 130 130 130 129 130 129 130 130 125 132 134 138 139 139 138 139 139 139 138 137 133 134 132 132 131 132 131 132 132 133 132 134 134 134 134 136 136 134 133 132 129 130 132 132 132 131 132 133 132 134 134 132 134 134 134 135 136 136 136 134 137 135 134 134 130 130 131 133 134 136 139 -209 -209 0 0 0 0 0
    0 0 0 0 0 0 0 0 0 0 0 0 0 0 0 0 0 0 0 0 0 0 0 0 0 0 0 0 0 0 0 0 0 0 0 0 0 0 0 0 0 0 0 0 0 0 0 0 0 0 0 0 0 0 0 0 0 0 0 0 0 0 0 0 0 0 0 0 0 -209 -193 135 137 136 136 138 140 139 138 137 -193 -209 -209 135 135 131 133 133 134 133 133 133 133 132 135 131 133 126 131 130 132 132 132 132 132 130 130 127 129 128 127 127 127 131 127 130 134 136 136 140 138 137 138 136 137 137 136 136 133 134 132 131 132 132 132 132 132 132 132 133 133 134 134 133 134 133 131 132 132 133 133 131 133 131 131 133 132 132 131 130 132 131 132 133 132 132 134 133 134 133 133 133 132 132 132 132 133 132 132 131 129 131 128 127 127 129 128 129 129 130 128 132 134 134 132 135 131 131 130 131 132 129 130 128 128 129 129 128 128 126 127 126 127 129 128 128 130 129 129 130 130 131 130 131 132 128 129 127 127 129 130 129 131 131 133 133 134 133 133 131 132 133 130 130 130 129 130 129 130 129 124 133 135 139 140 141 140 140 140 140 139 137 134 134 132 132 132 132 131 132 132 133 132 135 135 135 135 137 137 135 135 135 132 132 132 132 133 132 132 133 132 133 134 132 134 134 134 135 136 136 136 135 137 136 135 136 135 133 134 135 135 138 143 -193 -193 0 0 0 0 0
    0 0 0 0 0 0 0 0 0 0 0 0 0 0 0 0 0 0 0 0 0 0 0 0 0 0 0 0 0 0 0 0 0 0 0 0 0 0 0 0 0 0 0 0 0 0 0 0 0 0 0 0 0 0 0 0 0 0 0 0 0 0 0 0 0 0 0 0 0 -209 -193 135 137 136 137 138 140 140 138 137 -193 -209 -209 135 135 131 133 134 135 134 134 133 134 133 136 134 134 125 132 129 131 132 132 132 133 131 -193 130 132 132 132 134 -209 134 -209 131 135 136 136 141 138 137 138 136 137 137 136 136 133 134 132 131 132 132 131 132 132 133 132 133 133 134 134 134 134 133 131 133 133 133 133 131 133 131 131 133 132 131 131 130 132 131 132 133 132 132 133 133 134 133 133 133 131 132 132 131 132 132 132 132 130 132 129 128 128 130 129 130 130 131 129 133 134 134 133 135 131 131 131 131 133 130 130 129 129 130 129 129 129 126 127 126 127 129 128 128 130 128 129 130 129 130 130 131 131 128 130 129 129 131 132 131 133 134 135 133 134 133 133 131 132 133 130 129 130 129 129 128 129 129 124 134 136 141 141 142 141 141 141 141 140 139 135 136 133 133 133 132 131 133 133 134 133 136 136 136 137 138 138 137 138 138 135 134 134 134 135 134 134 134 134 135 136 134 135 135 135 136 137 136 137 135 138 137 137 138 137 136 137 137 136 140 147 -193 -193 0 0 0 0 0
    0 0 0 0 0 0 0 0 0 0 0 0 0 0 0 0 0 0 0 0 0 0 0 0 0 0 0 0 0 0 0 0 0 0 0 0 0 0 0 0 0 0 0 0 0 0 0 0 0 0 0 0 0 0 0 0 0 0 0 0 0 0 0 0 0 0 0 0 0 -193 -193 135 137 135 137 138 139 139 138 137 -193 -193 -193 135 135 131 133 134 135 134 134 134 134 133 136 135 134 126 133 129 131 132 132 133 133 132 134 131 132 133 133 134 -209 134 -193 132 135 137 137 142 138 137 137 136 136 136 136 135 132 133 132 131 131 131 131 132 131 133 132 132 133 133 134 133 134 134 132 133 134 134 134 131 133 131 131 132 131 131 131 130 132 130 131 133 132 132 134 133 133 132 132 132 131 131 131 131 132 132 132 132 131 132 129 128 128 131 129 130 130 131 128 133 133 133 132 134 130 130 131 131 133 130 131 129 129 130 130 129 129 127 128 127 128 130 128 128 129 128 129 129 129 130 130 130 131 128 130 128 129 129 131 131 133 133 134 133 134 133 133 131 131 133 129 129 129 128 129 128 129 128 124 137 139 142 141 142 141 141 141 142 140 140 137 138 135 136 135 134 132 134 134 135 134 137 137 137 138 139 139 138 139 139 137 136 135 136 137 136 135 136 135 136 137 136 137 137 136 137 138 138 138 137 139 138 138 140 139 138 140 140 139 142 147 -193 -193 0 0 0 0 0
    0 0 0 0 0 0 0 0 0 0 0 0 0 0 0 0 0 0 0 0 0 0 0 0 0 0 0 0 0 0 0 0 0 0 0 0 0 0 0 0 0 0 0 0 0 0 0 0 0 0 0 0 0 0 0 0 0 0 0 0 0 0 0 0 0 0 0 0 0 136 -193 135 137 135 136 138 139 138 138 137 -193 -193 136 134 135 131 133 134 135 134 134 134 134 -193 137 -209 135 127 134 130 132 133 132 133 133 133 134 132 133 133 133 135 134 135 -193 134 136 139 138 144 138 137 137 136 136 136 135 134 131 133 132 131 131 131 131 132 131 133 132 132 133 133 134 133 134 133 131 133 134 133 133 130 132 130 130 131 131 130 130 129 131 130 131 133 132 132 134 132 133 131 131 131 131 131 131 130 131 131 132 132 131 132 129 129 129 131 130 130 130 131 128 133 133 133 131 133 129 129 130 131 133 130 131 129 129 130 130 130 129 127 128 127 129 130 128 129 130 129 128 129 129 130 130 130 130 128 130 128 128 128 129 129 131 132 133 131 133 132 132 131 131 133 129 128 129 128 129 128 129 129 124 138 141 143 142 143 142 141 142 142 140 141 139 140 -193 138 137 137 134 136 136 136 136 138 138 139 139 139 140 139 139 139 138 137 137 137 137 137 136 136 136 136 138 136 137 138 137 137 139 138 139 138 140 139 140 143 141 141 142 141 141 143 146 150 -209 0 0 0 0 0
    0 0 0 0 0 0 0 0 0 0 0 0 0 0 0 0 0 0 0 0 0 0 0 0 0 0 0 0 0 0 0 0 0 0 0 0 0 0 0 0 0 0 0 0 0 0 0 0 0 0 0 0 0 0 0 0 0 0 0 0 0 0 0 0 0 0 0 0 0 136 -193 135 137 135 -193 138 139 138 138 137 -193 -193 136 134 134 130 133 134 135 134 135 134 135 -193 137 137 136 131 135 132 134 134 133 134 134 133 135 133 134 134 134 135 135 135 136 134 137 140 138 145 138 137 137 136 136 136 135 134 131 133 131 130 131 131 131 132 131 133 132 132 133 133 133 133 133 133 131 133 133 132 133 130 132 130 129 131 130 129 130 129 131 130 131 132 132 132 134 132 133 131 130 131 131 130 131 130 131 131 132 132 131 132 129 129 129 131 130 130 130 130 128 132 133 133 131 133 129 130 131 131 133 130 131 129 129 130 130 129 129 127 129 128 130 131 129 130 130 129 128 129 129 130 130 130 130 128 130 128 127 127 129 128 130 131 132 130 132 131 131 130 130 133 128 128 129 128 129 128 129 129 125 138 143 144 142 143 142 142 142 142 140 141 140 141 -193 139 139 139 136 138 137 138 137 139 140 141 140 140 140 140 140 140 138 138 137 137 137 137 136 137 136 137 138 137 138 138 137 138 140 139 140 139 140 140 141 145 143 144 143 142 142 143 146 149 -209 0 0 0 0 0
    0 0 0 0 0 0 0 0 0 0 0 0 0 0 0 0 0 0 0 0 0 0 0 0 0 0 0 0 0 0 0 0 0 0 0 0 0 0 0 0 0 0 0 0 0 0 0 0 0 0 0 0 0 0 0 0 0 0 0 0 0 0 0 0 0 0 0 0 0 136 -193 134 137 135 -193 -193 -193 138 138 137 -193 -209 -193 135 135 131 133 -193 135 134 -193 -193 -193 -193 137 138 136 133 136 133 134 134 134 135 136 135 137 135 135 136 135 137 135 134 135 134 137 140 138 144 138 138 137 136 136 136 135 134 130 132 131 129 131 131 130 131 131 133 132 132 133 133 133 133 133 133 130 133 133 132 133 130 132 130 129 131 130 129 130 129 131 130 131 133 132 132 134 132 133 131 130 131 131 130 131 130 131 131 132 132 131 132 130 129 129 132 131 130 130 130 128 132 132 132 131 132 130 132 132 132 133 131 131 129 130 130 130 130 130 127 130 129 131 132 130 131 131 130 129 130 130 130 130 130 130 128 130 129 126 127 128 128 130 130 130 129 130 129 128 128 127 133 128 128 129 128 129 129 129 130 126 139 143 144 142 144 142 142 142 142 140 142 140 142 -193 139 139 139 136 139 138 137 138 140 141 142 141 141 140 140 140 140 138 138 137 137 137 137 136 137 137 136 138 138 139 139 138 138 140 140 141 139 140 139 140 144 143 145 144 143 141 142 146 149 -209 0 0 0 0 0
    0 0 0 0 0 0 0 0 0 0 0 0 0 0 0 0 0 0 0 0 0 0 0 0 0 0 0 0 0 0 0 0 0 0 0 0 0 0 0 0 0 0 0 0 0 0 0 0 0 0 0 0 0 0 0 0 0 0 0 0 0 0 0 0 0 0 0 0 0 135 135 133 136 133 -193 -193 -209 138 -193 138 -193 -193 -193 135 136 133 134 -193 135 134 135 135 -193 -193 137 137 136 133 136 133 134 135 134 136 137 137 139 137 137 139 137 138 134 132 133 132 135 139 137 143 137 -193 137 135 136 135 134 133 129 131 130 128 130 130 129 131 131 133 132 133 134 133 134 133 133 133 130 133 133 131 133 129 132 130 129 130 130 129 130 129 131 130 130 132 132 132 134 132 132 130 130 131 131 129 131 130 131 131 132 132 131 132 130 130 130 132 131 131 130 130 128 132 132 132 130 131 129 131 132 132 133 131 131 130 130 131 130 130 131 128 132 131 132 132 131 131 131 130 129 130 130 130 129 129 130 128 130 129 126 127 128 129 130 129 129 127 129 128 126 126 125 133 128 128 129 129 129 129 130 131 128 140 144 144 143 145 144 143 143 143 141 143 142 144 140 141 143 142 140 143 140 139 140 142 142 144 142 141 140 140 141 140 139 138 137 137 135 135 135 136 136 135 138 138 139 139 138 139 140 140 140 140 140 139 140 144 143 144 142 142 141 142 146 149 -209 0 0 0 0 0
    0 0 0 0 0 0 0 0 0 0 0 0 0 0 0 0 0 0 0 0 0 0 0 0 0 0 0 0 0 0 0 0 0 0 0 0 0 0 0 0 0 0 0 0 0 0 0 0 0 0 0 0 0 0 0 0 0 0 0 0 0 0 0 0 0 0 0 0 0 134 133 132 134 132 -193 -209 -209 -193 -193 -193 -193 -193 -193 136 136 134 134 -193 135 135 135 135 135 -193 137 137 136 134 136 134 134 135 134 136 137 136 138 136 136 137 135 136 132 130 128 128 133 137 136 141 136 -193 136 135 135 135 133 133 127 131 129 127 129 130 128 130 131 133 132 133 134 133 133 133 133 132 130 132 132 130 132 129 132 130 129 130 130 129 130 129 131 129 130 132 132 131 134 131 131 129 130 131 132 130 132 131 132 131 132 133 132 132 130 130 130 133 132 131 131 131 128 132 132 132 129 130 128 131 132 132 133 131 131 130 130 131 131 131 131 129 132 132 132 132 131 131 130 129 128 129 129 129 129 129 130 128 131 130 126 127 128 130 131 129 129 127 128 129 126 126 125 134 128 129 130 130 130 131 132 132 130 139 142 141 142 144 143 142 143 143 141 143 144 144 142 143 145 144 141 142 140 138 138 141 141 143 141 140 140 140 140 140 138 138 137 136 134 135 134 135 136 136 138 139 140 141 139 140 140 143 142 141 141 140 144 146 144 145 142 141 141 142 145 -209 -193 0 0 0 0 0
    0 0 0 0 0 0 0 0 0 0 0 0 0 0 0 0 0 0 0 0 0 0 0 0 0 0 0 0 0 0 0 0 0 0 0 0 0 0 0 0 0 0 0 0 0 0 0 0 0 0 0 0 0 0 0 0 0 0 0 0 0 0 0 0 0 0 0 0 0 134 132 131 134 131 130 -209 -193 -193 -193 -193 -193 -193 139 138 138 135 135 -193 136 -193 136 135 135 -209 137 137 136 -193 136 134 135 135 134 136 137 136 137 135 136 136 135 136 133 130 129 127 132 136 135 141 135 136 135 134 134 134 133 132 127 130 129 127 129 130 128 130 131 134 132 133 134 133 133 133 133 132 129 131 132 130 132 129 132 131 130 130 131 129 130 130 132 129 129 131 131 131 134 131 130 127 128 132 132 130 132 130 131 131 132 132 130 131 130 129 130 133 132 132 131 131 129 132 132 131 130 130 128 131 132 132 133 132 131 130 130 131 131 130 130 128 131 131 132 132 131 130 130 129 128 129 129 129 129 129 130 129 132 131 127 127 127 131 132 129 127 126 127 129 126 126 124 134 129 130 131 132 131 132 132 133 131 138 139 139 140 143 141 141 142 142 140 143 144 143 140 146 150 150 149 150 149 147 147 147 143 143 140 139 140 140 139 139 138 138 136 137 135 135 135 137 138 139 140 140 142 143 141 144 144 148 143 142 145 144 148 147 145 145 141 141 140 141 143 -209 -177 0 0 0 0 0</data></disparity>
</opencv_storage>
