<?xml version="1.0"?>
<opencv_storage>
<gps_time_stamp>24805</gps_time_stamp>
<gps_x>-4.6973748207092285e+000</gps_x>
<gps_y>5.5594575405120850e-001</gps_y>
<gps_z>-8.6785221099853516e-001</gps_z>
<image_time_stamp>12764</image_time_stamp>
<disparity type_id="opencv-matrix">
  <rows>79</rows>
  <cols>320</cols>
  <dt>s</dt>
  <data>
    0 0 0 0 0 0 0 0 0 0 0 0 0 0 0 0 0 0 0 0 0 0 0 0 0 0 0 0 0 0 0 0 0 0 0 0 0 0 0 0 0 0 0 0 0 0 0 0 0 0 0 0 0 0 0 0 0 0 0 0 0 0 0 0 0 0 0 0 0 250 -193 -193 -193 -193 -193 247 246 248 248 250 249 249 249 249 250 250 250 250 250 251 251 252 254 253 252 254 252 252 252 252 251 251 249 249 245 248 246 244 243 243 246 248 249 249 249 249 250 251 250 -193 -193 246 245 244 244 245 247 247 248 250 248 250 250 249 248 248 248 248 247 -193 247 247 247 246 249 252 250 249 249 250 252 251 250 251 250 250 250 250 250 248 249 249 249 249 250 251 252 252 254 254 255 254 253 253 252 251 250 250 249 248 247 248 249 251 250 249 247 247 252 252 251 250 250 250 250 250 251 249 249 249 250 251 250 250 251 251 251 251 250 250 250 250 251 250 250 250 249 250 249 249 250 250 250 250 251 251 252 252 253 252 252 252 255 252 254 251 249 249 249 250 250 248 249 247 -209 250 250 249 249 249 250 249 249 249 247 248 248 249 249 249 250 249 249 249 249 248 248 248 248 247 249 249 250 250 250 250 250 251 251 250 250 249 249 249 249 247 248 247 246 245 246 246 246 247 248 247 247 248 249 248 248 248 248 248 251 252 252 252 251 251 249 248 247 247 248 0 0 0 0 0
    0 0 0 0 0 0 0 0 0 0 0 0 0 0 0 0 0 0 0 0 0 0 0 0 0 0 0 0 0 0 0 0 0 0 0 0 0 0 0 0 0 0 0 0 0 0 0 0 0 0 0 0 0 0 0 0 0 0 0 0 0 0 0 0 0 0 0 0 0 252 -193 -193 -193 -193 249 247 246 248 -193 250 249 250 249 248 249 250 249 249 249 250 250 251 253 253 252 253 252 252 252 252 251 251 249 250 247 250 249 246 245 245 246 249 249 249 248 247 249 250 248 -193 245 246 245 244 243 244 245 246 246 248 247 249 249 249 248 247 247 247 247 -193 247 247 247 248 250 252 250 250 249 250 252 251 250 251 250 250 251 251 250 248 249 250 249 249 250 251 252 252 254 254 256 254 252 252 251 250 250 249 248 247 246 248 249 251 250 249 248 248 253 252 251 251 250 250 250 250 251 249 249 249 250 251 250 251 251 252 252 252 251 251 251 252 252 252 252 250 250 251 250 250 250 251 250 250 252 252 252 253 253 252 252 251 255 252 255 250 249 248 249 249 250 249 -193 248 -209 251 251 250 249 250 250 249 249 249 246 248 248 249 249 250 250 250 249 249 249 248 248 248 248 246 248 249 250 249 250 249 250 250 251 251 251 250 250 250 251 249 250 249 247 246 246 247 246 248 248 247 247 249 250 249 249 249 249 250 253 255 255 255 252 253 249 248 247 247 248 0 0 0 0 0
    0 0 0 0 0 0 0 0 0 0 0 0 0 0 0 0 0 0 0 0 0 0 0 0 0 0 0 0 0 0 0 0 0 0 0 0 0 0 0 0 0 0 0 0 0 0 0 0 0 0 0 0 0 0 0 0 0 0 0 0 0 0 0 0 0 0 0 0 0 252 253 251 251 252 251 250 249 250 251 250 249 250 249 248 249 249 249 249 249 250 249 251 252 252 251 253 252 252 252 252 251 251 250 250 249 251 250 249 247 247 248 251 250 250 248 247 250 251 -193 -193 -193 -209 -193 246 -193 245 245 246 246 248 247 248 249 249 248 247 247 248 247 248 248 248 248 249 250 252 250 250 250 251 253 251 250 251 251 251 251 251 250 249 250 250 249 249 250 252 253 252 254 254 256 254 253 252 251 250 250 249 247 246 246 247 248 251 250 250 249 248 254 253 251 251 250 251 250 251 251 250 250 250 251 251 251 252 252 253 253 253 252 253 253 254 254 254 253 251 251 251 250 250 251 251 251 251 252 252 252 253 252 252 252 251 254 252 255 250 248 248 248 249 250 249 -193 -193 -209 252 252 251 250 250 250 249 249 249 247 249 248 250 250 250 250 250 249 249 249 248 248 247 247 245 247 248 249 248 249 249 249 250 251 251 251 251 251 253 254 -209 252 252 248 247 247 -209 247 249 249 248 248 249 250 250 249 250 250 250 253 254 253 251 250 251 248 248 248 247 250 0 0 0 0 0
    0 0 0 0 0 0 0 0 0 0 0 0 0 0 0 0 0 0 0 0 0 0 0 0 0 0 0 0 0 0 0 0 0 0 0 0 0 0 0 0 0 0 0 0 0 0 0 0 0 0 0 0 0 0 0 0 0 0 0 0 0 0 0 0 0 0 0 0 0 253 254 252 252 253 253 252 251 252 252 251 250 251 249 248 249 249 249 249 249 250 249 251 252 252 251 252 252 252 252 252 250 251 250 251 249 252 251 251 249 249 250 253 252 251 250 249 251 -193 112 115 113 118 121 -177 -177 -193 245 -177 -177 -177 247 248 248 248 248 247 247 247 247 248 248 248 248 249 251 252 251 251 250 252 253 251 251 252 251 252 252 251 251 250 251 250 250 250 250 252 253 253 254 254 256 255 253 252 251 250 250 249 246 245 245 246 246 250 249 250 250 250 257 254 252 252 251 251 251 251 252 250 250 251 252 253 252 253 254 254 255 255 253 255 255 255 255 255 254 252 251 251 250 251 251 251 251 251 252 252 252 253 253 253 252 251 255 253 255 250 249 248 248 250 250 250 -193 -193 -209 253 253 252 250 251 250 250 249 249 248 249 248 250 250 250 250 250 249 249 250 248 248 248 247 245 247 248 249 248 249 248 249 250 251 251 252 252 253 259 262 266 261 261 254 249 249 250 249 250 251 250 249 251 252 -193 -209 -209 -193 -193 253 -209 -209 -209 -209 -209 -209 -209 -209 -193 251 0 0 0 0 0
    0 0 0 0 0 0 0 0 0 0 0 0 0 0 0 0 0 0 0 0 0 0 0 0 0 0 0 0 0 0 0 0 0 0 0 0 0 0 0 0 0 0 0 0 0 0 0 0 0 0 0 0 0 0 0 0 0 0 0 0 0 0 0 0 0 0 0 0 0 253 255 253 253 254 253 252 252 254 253 252 250 251 249 248 249 249 249 249 249 250 250 251 252 252 251 252 252 251 251 251 250 250 249 251 250 252 251 252 250 250 252 255 254 253 250 250 251 -209 109 113 110 118 120 -177 -177 -193 245 -177 -177 -177 248 248 248 248 247 247 247 247 247 248 247 248 248 249 251 252 251 251 250 252 254 251 251 252 252 252 252 251 251 250 251 251 250 250 251 252 253 253 253 254 256 255 253 252 250 250 249 248 245 244 244 245 245 250 248 249 250 251 259 255 253 252 251 252 251 252 253 250 251 252 253 254 -193 254 255 255 256 257 254 256 256 256 256 256 255 252 251 252 250 251 251 252 251 251 253 252 253 254 253 253 252 251 254 252 254 250 248 248 248 250 251 251 -193 252 -193 256 255 254 252 252 251 251 250 250 248 249 248 250 249 249 249 249 248 247 249 246 248 248 247 245 247 249 249 249 250 249 249 250 251 252 254 258 257 262 266 276 268 269 -209 -193 249 249 249 252 252 251 251 253 255 -193 -209 -209 -209 -209 -209 -209 -209 -209 -209 -209 -209 -209 -209 -209 -209 0 0 0 0 0
    0 0 0 0 0 0 0 0 0 0 0 0 0 0 0 0 0 0 0 0 0 0 0 0 0 0 0 0 0 0 0 0 0 0 0 0 0 0 0 0 0 0 0 0 0 0 0 0 0 0 0 0 0 0 0 0 0 0 0 0 0 0 0 0 0 0 0 0 0 254 256 254 253 254 254 253 253 255 255 252 251 251 250 249 249 249 249 249 249 250 249 251 252 252 251 252 252 252 251 251 250 250 249 251 251 253 253 254 252 251 253 256 255 254 250 249 -193 -209 110 113 109 117 119 -177 -177 -193 -193 -177 -177 -177 248 248 248 248 247 247 246 247 246 247 247 247 248 249 251 251 251 251 251 253 254 251 251 252 252 252 252 251 251 250 252 251 250 250 251 252 253 253 253 255 256 255 252 251 250 249 248 246 243 242 242 244 244 250 248 249 250 251 260 255 253 252 251 252 252 252 253 251 252 252 -193 -193 -193 -193 255 255 256 257 255 257 258 258 258 258 256 253 252 252 250 252 251 252 251 252 253 252 253 254 253 253 252 250 252 251 251 249 247 247 247 249 251 252 -193 257 260 259 259 258 256 256 254 253 -193 -193 -193 249 248 249 249 248 248 247 246 245 247 243 247 249 248 246 247 249 250 250 252 249 250 251 253 255 260 264 264 270 277 280 280 278 280 278 259 259 252 258 257 253 252 256 258 258 -209 -209 -209 11 13 15 15 -209 -209 -209 -209 -209 -209 -209 -209 0 0 0 0 0
    0 0 0 0 0 0 0 0 0 0 0 0 0 0 0 0 0 0 0 0 0 0 0 0 0 0 0 0 0 0 0 0 0 0 0 0 0 0 0 0 0 0 0 0 0 0 0 0 0 0 0 0 0 0 0 0 0 0 0 0 0 0 0 0 0 0 0 0 0 254 257 254 253 255 254 253 253 255 255 252 251 252 250 249 249 249 249 249 249 250 249 251 252 251 251 251 251 251 249 249 248 248 249 250 251 254 254 255 255 254 257 259 258 257 -209 -209 -209 -209 110 112 108 114 117 120 -177 -177 -193 -177 -177 -177 -177 247 247 247 247 246 246 246 246 247 246 247 248 249 251 252 251 251 251 253 255 251 251 252 252 253 252 251 251 250 252 251 250 250 250 252 253 253 252 255 256 255 252 250 -193 -193 246 244 240 241 240 244 244 251 249 250 252 254 261 256 254 253 252 253 252 253 253 250 252 -193 -193 -193 -193 -193 254 254 257 257 257 259 260 260 260 261 259 254 253 253 250 252 252 252 251 252 253 253 253 255 254 254 253 251 252 252 249 248 246 245 246 249 252 254 -209 261 262 261 261 261 261 260 258 -193 -193 -193 -193 248 248 249 249 248 248 247 246 246 247 242 247 249 248 247 248 249 250 251 253 250 250 252 254 258 263 268 270 276 277 279 280 280 280 280 269 268 262 264 266 260 258 261 -193 -193 -209 -209 12 12 13 14 -209 -209 -209 -209 -209 -209 -209 -209 38 0 0 0 0 0
    0 0 0 0 0 0 0 0 0 0 0 0 0 0 0 0 0 0 0 0 0 0 0 0 0 0 0 0 0 0 0 0 0 0 0 0 0 0 0 0 0 0 0 0 0 0 0 0 0 0 0 0 0 0 0 0 0 0 0 0 0 0 0 0 0 0 0 0 0 254 256 254 253 255 254 253 254 256 256 252 251 252 250 249 249 249 249 249 249 250 250 251 252 -193 -193 252 252 251 249 248 247 247 249 250 251 254 255 257 257 256 260 260 260 257 -209 -209 -209 -209 108 110 107 111 114 118 119 124 -193 -209 -177 -177 -177 -177 -177 247 247 247 247 247 246 247 247 247 249 250 251 252 252 252 252 254 255 252 251 253 253 253 253 252 251 250 252 251 250 250 250 253 254 253 253 256 256 256 251 250 -193 247 246 242 239 240 240 245 245 250 249 251 253 255 261 256 255 254 252 253 253 253 253 250 252 -193 -193 -193 -177 -193 254 255 260 259 260 262 262 263 263 263 262 257 257 254 250 252 252 252 252 252 254 253 254 256 254 255 255 252 -193 258 258 256 254 246 247 256 262 -193 -209 -193 -209 -193 -209 -209 -209 -209 -209 -193 45 -193 -193 248 248 249 249 249 249 248 247 247 -225 -225 248 250 250 249 249 250 251 252 255 251 250 251 253 259 264 275 -193 279 278 279 280 281 281 281 274 271 267 270 275 278 268 -209 -209 -209 -209 -209 11 11 12 -209 -209 -209 -209 -209 -209 -209 -209 -209 37 0 0 0 0 0
    0 0 0 0 0 0 0 0 0 0 0 0 0 0 0 0 0 0 0 0 0 0 0 0 0 0 0 0 0 0 0 0 0 0 0 0 0 0 0 0 0 0 0 0 0 0 0 0 0 0 0 0 0 0 0 0 0 0 0 0 0 0 0 0 0 0 0 0 0 253 256 254 253 255 255 253 254 257 257 252 251 252 250 249 249 249 249 248 249 251 250 251 252 -193 -193 253 252 252 248 248 247 247 249 251 252 255 255 258 258 257 261 261 262 -209 -209 -209 -209 -209 107 108 106 109 110 114 117 119 -177 -193 -209 -177 -177 -177 -177 249 248 248 247 248 247 248 248 248 250 251 251 252 253 253 253 256 256 252 252 256 255 256 254 252 251 251 252 251 250 250 249 253 255 254 254 257 257 257 250 -193 -193 -193 242 238 237 237 238 -225 -225 -225 -225 -225 -225 253 260 256 254 254 252 253 252 253 253 250 252 -193 -193 -177 370 -193 256 257 262 261 263 265 265 266 266 266 264 262 262 -209 -193 253 252 253 253 253 254 253 254 257 256 258 257 -209 -209 263 264 264 266 262 -193 264 -193 -193 -193 -193 -193 -209 -193 -209 -193 368 370 -209 -209 -193 -193 -193 247 248 -193 -193 -225 -225 -225 -225 -225 -225 -225 -225 -225 -225 248 250 251 255 -209 256 251 253 255 261 268 279 284 282 279 280 281 282 282 282 277 274 270 278 279 -193 -193 -209 -209 -209 -209 -209 -209 -209 -209 -209 -209 -209 -209 -209 -209 -209 -209 -209 38 0 0 0 0 0
    0 0 0 0 0 0 0 0 0 0 0 0 0 0 0 0 0 0 0 0 0 0 0 0 0 0 0 0 0 0 0 0 0 0 0 0 0 0 0 0 0 0 0 0 0 0 0 0 0 0 0 0 0 0 0 0 0 0 0 0 0 0 0 0 0 0 0 0 0 253 257 255 254 255 255 253 255 257 257 252 251 252 251 249 249 249 248 248 249 251 251 252 253 256 -193 254 254 254 -193 249 248 247 -193 251 251 254 253 257 256 -193 -193 261 -209 -209 -193 -193 356 -193 -193 -193 105 109 109 112 114 116 -177 -177 -177 -209 -177 -177 -177 252 251 252 250 250 248 250 249 251 253 253 251 252 253 253 254 257 256 -209 252 259 258 258 255 -193 -193 -193 -193 -193 249 249 -193 252 254 255 -193 -193 -193 -209 -209 -225 -225 -225 -193 -225 -225 -225 -225 -225 -225 -225 -225 -225 -225 -225 -225 255 254 254 251 253 252 -177 -193 -193 -193 -177 -193 -193 370 372 -193 -193 -209 -225 266 274 272 271 271 270 269 267 266 266 257 259 254 -225 -225 255 255 254 254 257 256 259 256 -209 -209 -225 -225 -225 -193 -209 -209 -209 -225 -209 -209 -209 -209 -225 -225 -225 -225 -225 -225 -225 -225 -225 -225 -225 -225 -225 -225 -225 -225 -225 -225 -225 -225 -225 -225 -225 -225 -225 -225 -225 -225 -225 -225 -209 255 256 259 263 272 282 287 284 280 281 282 283 282 282 278 275 271 279 280 -193 -193 -209 286 289 -209 -209 -209 -209 -209 -209 -209 -209 -209 -209 -209 -209 -209 -209 39 0 0 0 0 0
    0 0 0 0 0 0 0 0 0 0 0 0 0 0 0 0 0 0 0 0 0 0 0 0 0 0 0 0 0 0 0 0 0 0 0 0 0 0 0 0 0 0 0 0 0 0 0 0 0 0 0 0 0 0 0 0 0 0 0 0 0 0 0 0 0 0 0 0 0 254 259 258 255 257 257 255 256 258 257 252 251 252 251 250 250 250 249 249 250 254 254 253 255 261 -193 257 -193 -193 231 -209 -193 -193 -193 252 255 -193 -209 -193 -193 -193 -193 261 -209 -209 -209 -193 358 -193 -193 108 -225 -225 -225 -225 -225 -225 -225 -225 -225 -225 -225 -225 -225 -225 252 253 251 250 -193 251 251 254 256 252 251 251 252 252 253 -193 -193 -209 -209 -209 -209 -209 -193 -193 -209 -209 -193 -193 -193 -209 845 -193 -193 -193 -225 -225 -225 -225 -225 -225 -225 -225 -225 -225 -225 -225 -225 -225 -225 -225 -225 -225 -225 -225 -225 -225 -225 -225 -225 -225 -225 -225 -225 -225 -225 -225 -225 -225 -225 -225 -225 -225 -225 -225 -225 277 273 270 271 272 273 271 -225 -225 -225 -225 -225 -225 -225 -225 -225 -225 -225 -225 -225 -225 -225 -225 -225 -225 -225 -225 -225 -225 -225 -225 -225 -225 -225 -225 -225 -225 -225 -225 -225 -225 -225 -225 -225 -225 -225 -225 -225 -225 -225 -225 -225 -225 -225 -225 -225 -225 -225 -225 -225 -225 -225 -225 -225 -225 -225 -225 259 259 261 264 274 283 287 284 281 281 282 283 282 282 278 276 271 279 280 283 -193 -209 289 292 -209 -209 -209 -209 -209 -209 -209 -209 -209 -209 -209 -209 -209 -209 41 0 0 0 0 0
    0 0 0 0 0 0 0 0 0 0 0 0 0 0 0 0 0 0 0 0 0 0 0 0 0 0 0 0 0 0 0 0 0 0 0 0 0 0 0 0 0 0 0 0 0 0 0 0 0 0 0 0 0 0 0 0 0 0 0 0 0 0 0 0 0 0 0 0 0 260 264 264 -193 262 262 260 261 262 261 254 251 251 251 251 251 251 251 252 253 258 258 259 260 267 275 -209 -209 93 -193 -209 0 -209 -209 -193 -209 -209 -209 -193 725 -209 -193 -177 549 -193 -193 366 -225 -225 -225 -225 -225 -225 -225 -225 -225 -225 -225 -225 -225 -225 -225 -225 -225 -225 -225 -225 -225 -225 -225 -225 -225 -225 -225 -225 -225 252 253 -193 -193 -209 -225 634 637 -225 -225 -225 -225 -225 -209 -209 -209 -225 -225 -225 847 -225 -225 -225 -225 -225 -225 -225 -225 -225 -225 -225 -225 -225 -225 -225 -225 -225 -225 -225 -225 -225 -225 -225 -225 -225 -225 -225 -225 -225 -225 -225 -225 -225 -225 -225 -225 -225 -225 -225 -225 -225 -225 -225 -225 -225 -225 -225 -225 -225 -225 -225 -225 -225 -225 -225 -225 -225 -225 -225 -225 -225 -225 -225 -225 -225 -225 -225 -225 -225 -225 -225 -225 -225 -225 -225 -225 -225 -225 -225 -225 -225 -225 -225 -225 -225 -225 -225 -225 -225 -225 -225 -225 -225 -225 -225 -225 -225 -225 -225 -225 -225 -225 -225 -225 -225 -225 -225 -225 -225 -225 -225 260 256 256 263 272 282 286 283 281 281 281 282 282 282 278 276 272 280 281 284 -193 290 292 -209 -209 -209 -209 -209 -209 -209 162 -209 -209 -209 -209 -209 -209 -209 42 0 0 0 0 0
    0 0 0 0 0 0 0 0 0 0 0 0 0 0 0 0 0 0 0 0 0 0 0 0 0 0 0 0 0 0 0 0 0 0 0 0 0 0 0 0 0 0 0 0 0 0 0 0 0 0 0 0 0 0 0 0 0 0 0 0 0 0 0 0 0 0 0 0 0 -193 266 268 266 266 266 265 264 265 264 254 248 -225 -225 -225 -225 -225 252 254 256 260 262 264 -193 271 279 -225 -225 -225 -225 -225 -225 -209 -209 -209 -177 -209 -209 -209 727 738 -209 -177 -209 -225 -225 -225 -225 -225 -225 -225 -225 -225 -225 -225 -225 -225 -225 -225 -225 -225 -225 -225 -225 -225 -225 -225 -225 -225 -225 -225 -225 -225 -225 -225 -225 -225 -225 -225 -225 -225 -225 -225 -225 -225 -225 -225 -225 -225 -225 -225 -225 -225 -225 -225 -225 -225 -225 -225 -225 -225 -225 -225 -225 -225 -225 -225 -225 -225 -225 -225 -225 -225 -225 -225 -225 -225 -225 -225 -225 -225 -225 -225 -225 -225 -225 -225 -225 -225 -225 -225 -225 -225 -225 -225 -225 -225 -225 -225 -225 -225 -225 -225 -225 -225 -225 -225 -225 -225 -225 -225 -225 -225 -225 -225 -225 -225 -225 -225 -225 -225 -225 -225 -225 -225 -225 -225 -225 -225 -225 -225 -225 -225 -225 -225 -225 -225 -225 -225 -225 -225 -225 -225 -225 -225 -225 -225 -225 -225 -225 -225 -225 -225 -225 -225 -225 -225 -225 -225 -225 -225 -225 -225 -225 -225 -225 -225 -225 255 256 263 272 282 285 284 280 280 281 283 282 282 278 277 274 281 282 286 286 294 296 -209 -209 -209 -209 -209 -209 164 -193 -193 -209 -193 -209 -209 -209 -209 44 0 0 0 0 0
    0 0 0 0 0 0 0 0 0 0 0 0 0 0 0 0 0 0 0 0 0 0 0 0 0 0 0 0 0 0 0 0 0 0 0 0 0 0 0 0 0 0 0 0 0 0 0 0 0 0 0 0 0 0 0 0 0 0 0 0 0 0 0 0 0 0 0 0 0 -209 -193 -193 -209 -209 -209 -209 -209 -225 -225 -225 -225 -225 -225 -225 -225 -225 -225 -225 -225 -225 -225 -225 -225 -225 -225 -225 -225 -225 -225 -225 -225 -225 -225 -225 -225 -225 -225 -225 -225 -225 -225 -225 -225 -225 -225 -225 -225 -225 -225 -225 -225 -225 -225 -225 -225 -225 -225 -225 -225 -225 -225 -225 -225 -225 -225 -225 -225 -225 -225 -225 -225 -225 -225 -225 -225 -225 -225 -225 -225 -225 -225 -225 -225 -225 -225 -225 -225 -225 -225 -225 -225 -225 -225 -225 -225 -225 -225 -225 -225 -225 -225 -225 -225 -225 -225 -225 -225 -225 -225 -225 -225 -225 -225 -225 -225 -225 -225 -225 -225 -225 -225 -225 -225 -225 -225 -225 -225 -225 -225 -225 -225 -225 -225 -225 -225 -225 -225 -225 -225 -225 -225 -225 -225 -225 -225 -225 -225 -225 -225 -225 -225 -225 -225 -225 -225 -225 -225 -225 -225 -225 -225 -225 -225 -225 -225 -225 -225 -225 -225 -225 -225 -225 -225 -225 -225 -225 -225 -225 -225 -225 -225 -225 -225 -225 -225 -225 -225 -225 -225 -225 -225 -225 -225 -225 -225 -225 -225 -225 -225 -225 -225 -225 -225 -225 -225 -225 -225 254 255 263 274 285 287 285 280 280 281 282 282 282 278 277 275 281 283 287 -209 -209 -209 -209 -209 -209 -209 -209 -209 -193 172 175 179 182 -209 -193 -209 -209 -209 0 0 0 0 0
    0 0 0 0 0 0 0 0 0 0 0 0 0 0 0 0 0 0 0 0 0 0 0 0 0 0 0 0 0 0 0 0 0 0 0 0 0 0 0 0 0 0 0 0 0 0 0 0 0 0 0 0 0 0 0 0 0 0 0 0 0 0 0 0 0 0 0 0 0 -225 -225 -225 -225 -225 -225 -225 -225 -225 -225 -225 -225 -225 -225 -225 -225 -225 -225 -225 -225 -225 -225 -225 -225 -225 -225 -225 -225 -225 -225 -225 -225 -225 -225 -225 -225 -225 -225 -225 -225 -225 -225 -225 -225 -225 -225 -225 -225 -225 -225 -225 -225 -225 -225 -225 -225 -225 -225 -225 -225 -225 -225 -225 -225 -225 -225 -225 -225 -225 -225 -225 -225 -225 -225 -225 -225 -225 -225 -225 -225 -225 -225 -225 -225 -225 -225 -225 -225 -225 -225 -225 -225 -225 -225 -225 -225 -225 -225 -225 -225 -225 -225 -225 -225 -225 -225 -225 -225 -225 -225 -225 -225 -225 -225 -225 -225 -225 -225 -225 -225 -225 -225 -225 -225 -225 -225 -225 -225 -225 -225 -225 -225 -225 -225 -225 -225 -225 -225 -225 -225 -225 -225 -225 -225 -225 -225 -225 -225 -225 -225 -225 -225 -225 -225 -225 -225 -225 -225 -225 -225 -225 -225 -225 -225 -225 -225 -225 -225 -225 -225 -225 -225 -225 -225 -225 -225 -225 -225 -225 -225 -225 -225 -225 -225 -225 -225 -225 -225 -225 -225 -225 -225 -225 -225 -225 -225 -225 -225 -225 -225 -225 -225 -225 -225 -225 -225 -225 -225 -225 -225 262 274 -177 291 292 278 279 280 285 -193 -209 -209 278 277 283 289 -209 -209 -209 -209 -209 -209 -209 -209 -209 -209 -209 -193 173 179 -193 -209 -209 -193 -209 -209 0 0 0 0 0
    0 0 0 0 0 0 0 0 0 0 0 0 0 0 0 0 0 0 0 0 0 0 0 0 0 0 0 0 0 0 0 0 0 0 0 0 0 0 0 0 0 0 0 0 0 0 0 0 0 0 0 0 0 0 0 0 0 0 0 0 0 0 0 0 0 0 0 0 0 -225 -225 -225 -225 -225 -225 -225 -225 -225 -225 -225 -225 -225 -225 -225 -225 -225 -225 -225 -225 -225 -225 -225 -225 -225 -225 -225 -225 -225 -225 -225 -225 -225 -225 -225 -225 -225 -225 -225 -225 -225 -225 -225 -225 -225 -225 -225 -225 -225 -225 -225 -225 -225 -225 -225 -225 -225 -225 -225 -225 -225 -225 -225 -225 -225 -225 -225 -225 -225 -225 -225 -225 -225 -225 -225 -225 -225 -225 -225 -225 -225 -225 -225 -225 -225 -225 -225 -225 -225 -225 -225 -225 -225 -225 -225 -225 -225 -225 -225 -225 -225 -225 -225 -225 -225 -225 -225 -225 -225 -225 -225 -225 -225 -225 -225 -225 -225 -225 -225 -225 -225 -225 -225 -225 -225 -225 -225 -225 -225 -225 -225 -225 -225 -225 -225 -225 -225 -225 -225 -225 -225 -225 -225 -225 -225 -225 -225 -225 -225 -225 -225 -225 -225 -225 -225 -225 -225 -225 -225 -225 -225 -225 -225 -225 -225 -225 -225 -225 -225 -225 -225 -225 -225 -225 -225 -225 -225 -225 -225 -225 -225 -225 -225 -225 -225 -225 -225 -225 -225 -225 -225 -225 -225 -225 -225 -225 -225 -225 -225 -225 -225 -225 -225 -225 -225 -225 -225 -225 -225 -225 -225 -225 287 296 -193 -209 278 280 290 -209 -209 -209 -209 -209 -209 -209 -209 -209 -209 -209 -209 -209 -209 -209 -209 -209 -209 -209 -209 -193 -209 190 196 199 -209 -209 0 0 0 0 0
    0 0 0 0 0 0 0 0 0 0 0 0 0 0 0 0 0 0 0 0 0 0 0 0 0 0 0 0 0 0 0 0 0 0 0 0 0 0 0 0 0 0 0 0 0 0 0 0 0 0 0 0 0 0 0 0 0 0 0 0 0 0 0 0 0 0 0 0 0 -225 -225 -225 -225 -225 -225 -225 -225 -225 -225 -225 -225 -225 -225 -225 -225 -225 -225 -225 -225 -225 -225 -225 -225 -225 -225 -225 -225 -225 -225 -225 -225 -225 -225 -225 -225 -225 -225 -225 -225 -225 -225 -225 -225 -225 -225 -225 -225 -225 -225 -225 -225 -225 -225 -225 -225 -225 -225 -225 -225 -225 -225 -225 -225 -225 -225 -225 -225 -225 -225 -225 -225 -225 -225 -225 -225 -225 -225 -225 -225 -225 -225 -225 -225 -225 -225 -225 -225 -225 -225 -225 -225 -225 -225 -225 -225 -225 -225 -225 -225 -225 -225 -225 -225 -225 -225 -225 -225 -225 -225 -225 -225 -225 -225 -225 -225 -225 -225 -225 -225 -225 -225 -225 -225 -225 -225 -225 -225 -225 -225 -225 -225 -225 -225 -225 -225 -225 -225 -225 -225 -225 -225 -225 -225 -225 -225 -225 -225 -225 -225 -225 -225 -225 -225 -225 -225 -225 -225 -225 -225 -225 -225 -225 -225 -225 -225 -225 -225 -225 -225 -225 -225 -225 -225 -225 -225 -225 -225 -225 -225 -225 -225 -225 -225 -225 -225 -225 -225 -225 -225 -225 -225 -225 -225 -225 -225 -225 -225 -225 -225 -225 -225 -225 -225 -225 -225 -225 -225 -225 -225 -225 -225 -225 -225 -225 -225 -225 -209 -209 -209 -209 -209 -209 -209 -209 -209 -209 -209 -209 -209 -209 -209 -209 -209 -209 -209 -209 -209 -209 -209 -209 -209 -193 204 206 -209 0 0 0 0 0
    0 0 0 0 0 0 0 0 0 0 0 0 0 0 0 0 0 0 0 0 0 0 0 0 0 0 0 0 0 0 0 0 0 0 0 0 0 0 0 0 0 0 0 0 0 0 0 0 0 0 0 0 0 0 0 0 0 0 0 0 0 0 0 0 0 0 0 0 0 -225 -225 -225 -225 -225 -225 -225 -225 -225 -225 -225 -225 -225 -225 -225 -225 -225 -225 -225 -225 -225 -225 -225 -225 -225 -225 -225 -225 -225 -225 -225 -225 -225 -225 -225 -225 -225 -225 -225 -225 -225 -225 -225 -225 -225 -225 -225 -225 -225 -225 -225 -225 -225 -225 -225 -225 -225 -225 -225 -225 -225 -225 -225 -225 -225 -225 -225 -225 -225 -225 -225 -225 -225 -225 -225 -225 -225 -225 -225 -225 -225 -225 -225 -225 -225 -225 -225 -225 -225 -225 -225 -225 -225 -225 -225 -225 -225 -225 -225 -225 -225 -225 -225 -225 -225 -225 -225 -225 -225 -225 -225 -225 -225 -225 -225 -225 -225 -225 -225 -225 -225 -225 -225 -225 -225 -225 -225 -225 -225 -225 -225 -225 -225 -225 -225 -225 -225 -225 -225 -225 -225 -225 -225 -225 -225 -225 -225 -225 -225 -225 -225 -225 -225 -225 -225 -225 -225 -225 -225 -225 -225 -225 -225 -225 -225 -225 -225 -225 -225 -225 -225 -225 -225 -225 -225 -225 -225 -225 -225 -225 -225 -225 -225 -225 -225 -225 -225 -225 -225 -225 -225 -225 -225 -225 -225 -225 -225 -225 -225 -225 -225 -225 -225 -225 -225 -225 -225 -225 -225 -225 -225 -225 -225 -225 -225 -225 -225 -225 -209 -209 -209 -209 -209 11 23 -209 -209 -209 -209 -209 -209 -209 -209 -209 -209 -209 -177 -209 45 52 56 59 -209 -209 -193 -209 0 0 0 0 0
    0 0 0 0 0 0 0 0 0 0 0 0 0 0 0 0 0 0 0 0 0 0 0 0 0 0 0 0 0 0 0 0 0 0 0 0 0 0 0 0 0 0 0 0 0 0 0 0 0 0 0 0 0 0 0 0 0 0 0 0 0 0 0 0 0 0 0 0 0 -225 -225 -225 -225 -225 -225 -225 -225 -225 -225 -225 -225 -225 -225 -225 -225 -225 -225 -225 -225 0 -256 -1 15125 -225 -225 -225 -225 -225 -225 -225 -225 -225 -225 -225 -225 -225 -225 -225 -225 -225 -225 -225 -225 -225 -225 -225 -225 -225 -225 -225 -225 -225 -225 -225 -225 -225 -225 -225 -225 -225 -225 -225 -225 -225 -225 -225 -225 -225 -225 -225 -225 -225 -225 -225 -225 -225 -225 -225 -225 -225 -225 -225 -225 -225 -225 -225 -225 -225 -225 -225 -225 -225 -225 -225 -225 -225 -225 -225 -225 -225 -225 -225 -225 -225 -225 -225 -225 -225 -225 -225 -225 -225 -225 -225 -225 -225 -225 -225 -225 -225 -225 -225 -225 -225 -225 -225 -225 -225 -225 -225 -225 -225 -225 -225 -225 -225 -225 -225 -225 -225 -225 -225 -225 -225 -225 -225 -225 -225 -225 -225 -225 -225 -225 -225 -225 -225 -225 -225 -225 -225 -225 -225 -225 -225 -225 -225 -225 -225 -225 -225 -225 -225 -225 -225 -225 -225 -225 -225 -225 -225 -225 -225 -225 -225 -225 -225 -225 -225 -225 -225 -225 -225 -225 -225 -225 -225 -225 -225 -225 -225 -225 -225 -225 -225 -225 -225 -225 -225 -225 -225 -225 -225 -225 -225 -225 -225 -225 13 -209 -209 -209 -209 11 21 -193 -209 -209 -209 -209 -209 -209 -209 -209 -209 -209 -177 -193 -209 48 54 57 -209 -209 -209 -209 0 0 0 0 0
    0 0 0 0 0 0 0 0 0 0 0 0 0 0 0 0 0 0 0 0 0 0 0 0 0 0 0 0 0 0 0 0 0 0 0 0 0 0 0 0 0 0 0 0 0 0 0 0 0 0 0 0 0 0 0 0 0 0 0 0 0 0 0 0 0 0 0 0 0 -225 -225 -225 -225 -225 -225 -225 -225 -225 -225 -225 -225 -225 -225 -225 -225 -225 -225 -225 -225 -225 -225 -225 -225 -225 -225 -225 -225 -225 -225 -225 -225 -225 -225 -225 -225 -225 -225 -225 -225 -225 -225 -225 -225 -225 -225 -225 -225 -225 -225 -225 -225 -225 -225 -225 -225 -225 -225 -225 -225 -225 -225 -225 -225 -225 -225 -225 -225 -225 -225 -225 -225 -225 -225 -225 -225 -225 -225 -225 -225 -225 -225 -225 -225 -225 -225 -225 -225 -225 -225 -225 -225 -225 -225 -225 -225 -225 -225 -225 -225 -225 -225 -225 -225 -225 -225 -225 -225 -225 -225 -225 -225 -225 -225 -225 -225 -225 -225 -225 -225 -225 -225 -225 -225 -225 -225 -225 -225 -225 -225 -225 -225 -225 -225 -225 -225 -225 -225 -225 -225 -225 -225 -225 -225 -225 -225 -225 -225 -225 -225 -225 -225 -225 -225 -225 -225 -225 -225 -225 -225 -225 -225 -225 -225 -225 -225 -225 -225 -225 -225 -225 -225 -225 -225 -225 -225 -225 -225 -225 -225 -225 -225 -225 -225 -225 -225 -225 -225 -225 -225 -225 -225 -225 -225 -225 -225 -225 -225 -225 -225 -225 -225 -225 -225 -225 -225 -225 -225 -225 -225 -225 -225 -225 -225 -225 -225 -225 -225 16 -209 -209 -209 -209 10 21 -193 -209 -209 -209 -209 -209 -209 -209 -209 -209 -209 0 0 -209 -193 -209 -209 -209 -209 -193 -193 0 0 0 0 0
    0 0 0 0 0 0 0 0 0 0 0 0 0 0 0 0 0 0 0 0 0 0 0 0 0 0 0 0 0 0 0 0 0 0 0 0 0 0 0 0 0 0 0 0 0 0 0 0 0 0 0 0 0 0 0 0 0 0 0 0 0 0 0 0 0 0 0 0 0 -225 -225 -225 -225 -225 -225 -225 -225 -225 -225 -225 -225 -225 -225 -225 -225 -225 -225 -225 -225 -225 -225 -225 -225 -225 -225 -225 -225 -225 -225 -225 -225 -225 -225 -225 -225 -225 -225 -225 -225 -225 -225 -225 -225 -225 -225 -225 -225 -225 -225 -225 -225 -225 -225 -225 -225 -225 -225 -225 -225 -225 -225 -225 -225 -225 -225 -225 -225 -225 -225 -225 -225 -225 -225 -225 -225 -225 -225 -225 -225 -225 -225 -225 -225 -225 -225 -225 -225 -225 -225 -225 -225 -225 -225 -225 -225 -225 -225 -225 -225 -225 -225 -225 -225 -225 -225 -225 -225 -225 -225 -225 -225 -225 -225 -225 -225 -225 -225 -225 -225 -225 -225 -225 -225 -225 -225 -225 -225 -225 -225 -225 -225 -225 -225 -225 -225 -225 -225 -225 -225 -225 -225 -225 -225 -225 -225 -225 -225 -225 -225 -225 -225 -225 -225 -225 -225 -225 -225 -225 -225 -225 -225 -225 -225 -225 -225 -225 -225 -225 -225 -225 -225 -225 -225 -225 -225 -225 -225 -225 -225 -225 -225 -225 -225 -225 -225 -225 -225 -225 -225 -225 -225 -225 -225 -225 -225 -225 -225 -225 -225 -225 -225 -225 -225 -225 -225 -225 -225 -225 -225 -225 -225 -225 -225 -225 -225 -225 -225 -209 20 -209 -209 10 9 21 -193 -209 -209 -209 -209 -209 -209 -209 -209 -209 -209 0 -193 -209 -209 -209 -209 -209 -209 332 333 0 0 0 0 0
    0 0 0 0 0 0 0 0 0 0 0 0 0 0 0 0 0 0 0 0 0 0 0 0 0 0 0 0 0 0 0 0 0 0 0 0 0 0 0 0 0 0 0 0 0 0 0 0 0 0 0 0 0 0 0 0 0 0 0 0 0 0 0 0 0 0 0 0 0 -225 -225 -225 -225 -225 -225 -225 -225 -225 -225 -225 -225 -225 -225 -225 -225 -225 -225 -225 -225 -225 -225 -225 -225 -225 -225 -225 -225 -225 -225 -225 -225 -225 -225 -225 -225 -225 -225 -225 -225 -225 -225 -225 -225 -225 -225 -225 -225 -225 -225 -225 -225 -225 -225 -225 -225 -225 -225 -225 -225 -225 -225 -225 -225 -225 -225 -225 -225 -225 -225 -225 -225 -225 -225 -225 -225 -225 -225 -225 -225 -225 -225 -225 -225 -225 -225 -225 -225 -225 -225 -225 -225 -225 -225 -225 -225 -225 -225 -225 -225 -225 -225 -225 -225 -225 -225 -225 -225 -225 -225 -225 -225 -225 -225 -225 -225 -225 -225 -225 -225 -225 -225 -225 -225 -225 -225 -225 -225 -225 -225 -225 -225 -225 -225 -225 -225 -225 -225 -225 -225 -225 -225 -225 -225 -225 -225 -225 -225 -225 -225 -225 -225 -225 -225 -225 -225 -225 -225 -225 -225 -225 -225 -225 -225 -225 -225 -225 -225 -225 -225 -225 -225 -225 -225 -225 -225 -225 -225 -225 -225 -225 -225 -225 -225 -225 -225 -225 -225 -225 -225 -225 -225 -225 -225 -225 -225 -225 -225 -225 -225 -225 -225 -225 -225 -225 -225 -225 -225 -225 -225 -225 -225 -225 -225 -225 376 374 378 -209 -209 -209 -209 -209 -193 17 -193 -209 -209 -209 -209 -193 -193 -209 -209 -209 -209 -209 -209 -193 32 35 -209 209 -193 -193 335 0 0 0 0 0
    0 0 0 0 0 0 0 0 0 0 0 0 0 0 0 0 0 0 0 0 0 0 0 0 0 0 0 0 0 0 0 0 0 0 0 0 0 0 0 0 0 0 0 0 0 0 0 0 0 0 0 0 0 0 0 0 0 0 0 0 0 0 0 0 0 0 0 0 0 -225 -225 -225 -225 -225 -225 -225 -225 -225 -225 -225 -225 -225 -225 -225 -225 -225 -225 -225 -225 -225 -225 -225 -225 -225 -225 -225 -225 -225 -225 -225 -225 -225 -225 -225 -225 -225 -225 -225 -225 -225 -225 -225 -225 -225 -225 -225 -225 -225 -225 -225 -225 -225 -225 -225 -225 -225 -225 -225 -225 -225 -225 -225 -225 -225 -225 -225 -225 -225 -225 -225 -225 -225 -225 -225 -225 -225 -225 -225 -225 -225 -225 -225 -225 -225 -225 -225 -225 -225 -225 -225 -225 -225 -225 -225 -225 -225 -225 -225 -225 -225 -225 -225 -225 -225 -225 -225 -225 -225 -225 -225 -225 -225 -225 -225 -225 -225 -225 -225 -225 -225 -225 -225 -225 -225 -225 -225 -225 -225 -225 -225 -225 -225 -225 -225 -225 -225 -225 -225 -225 -225 -225 -225 -225 -225 -225 -225 -225 -225 -225 -225 -225 -225 -225 -225 -225 -225 -225 -225 -225 -225 -225 -225 -225 -225 -225 -225 -225 -225 -225 -225 -225 -225 -225 -225 -225 -225 -225 -225 -225 -225 -225 -225 -225 -225 -225 -225 -225 -225 -225 -225 -225 -225 -225 -225 -193 -209 -193 -193 -193 -193 367 -193 -209 -209 -209 590 588 -209 -209 -209 -209 -209 -209 -209 -209 -209 -209 -209 -209 -209 -209 -209 -193 11 -193 -193 -209 -209 -209 -209 -193 -209 -209 -209 -209 -209 -209 -193 -209 -209 -209 212 -193 -193 337 0 0 0 0 0
    0 0 0 0 0 0 0 0 0 0 0 0 0 0 0 0 0 0 0 0 0 0 0 0 0 0 0 0 0 0 0 0 0 0 0 0 0 0 0 0 0 0 0 0 0 0 0 0 0 0 0 0 0 0 0 0 0 0 0 0 0 0 0 0 0 0 0 0 0 -225 -225 -225 -225 -225 -225 -225 -225 -225 -225 -225 -225 -225 -225 -225 -225 -225 -225 -225 -225 -225 -225 -225 -225 -225 -225 -225 -225 -225 -225 -225 -225 -225 -225 -225 -225 -225 -225 -225 -225 -225 -225 -225 -225 -225 -225 -225 -225 -225 -225 -225 -225 -225 -225 -225 -225 -225 -225 -225 -225 -225 -225 -225 -225 -225 -225 -225 -225 -225 -225 -225 -225 -225 -225 -225 -225 -225 -225 -225 -225 -225 -225 -225 -225 -225 -225 -225 -225 -225 -225 -225 -225 -225 -225 -225 -225 -225 -225 -225 -225 -225 -225 -225 -225 -225 -225 -225 -225 -225 -225 -225 -225 -225 -225 -225 -225 -225 -225 -225 -225 -225 -225 -225 -225 -225 -225 -225 -225 -225 -225 -225 -225 -225 -225 -225 -225 -225 -225 -225 -225 -225 -225 -225 -225 -225 -225 -225 -225 -225 -225 -225 -225 -225 -225 373 373 519 522 526 525 523 -193 -193 -193 371 -193 -193 628 630 630 -193 -177 -209 -193 -193 -193 367 367 -209 -225 -225 -225 -225 -225 -225 -225 -225 -225 -225 -225 -225 -225 -193 462 -193 -193 -193 -193 -193 -193 -193 367 -193 -209 -209 588 590 588 593 595 -193 -193 -193 -209 -209 -209 -209 -209 -209 -209 -209 -209 -209 -209 8 -193 -209 -209 -209 -209 -209 -209 -209 -209 -209 -193 -209 -209 -209 -209 -209 211 213 -193 -193 339 0 0 0 0 0
    0 0 0 0 0 0 0 0 0 0 0 0 0 0 0 0 0 0 0 0 0 0 0 0 0 0 0 0 0 0 0 0 0 0 0 0 0 0 0 0 0 0 0 0 0 0 0 0 0 0 0 0 0 0 0 0 0 0 0 0 0 0 0 0 0 0 0 0 0 -225 -225 -225 -225 -225 -225 -225 -225 -225 -225 -225 -225 -225 -225 -225 -225 -225 -225 -225 -225 -225 -225 -225 -225 -225 -225 -225 -225 -225 -225 -225 -225 -225 -225 -225 -225 -225 -225 -225 -225 -225 -225 -225 -225 -225 -225 -225 -225 -225 -225 -225 -225 -225 -225 -225 -225 -225 -225 -225 -225 -225 -225 -225 -225 -225 -225 -225 -225 -225 -225 -225 -225 -225 -225 -225 -225 -225 -225 -225 -225 -225 -225 -225 -225 -225 -225 -225 -225 -225 -225 -225 -225 -225 -225 -225 -225 -225 -225 -225 -225 -225 -225 -225 -225 -225 -225 -225 -225 -225 -225 -225 -225 -209 842 844 848 -209 -209 -209 -209 897 -209 -209 -225 -225 -225 -225 -225 562 -193 -225 -225 -225 -225 -225 -225 -225 -225 -225 -225 -225 -225 -225 -225 -225 -225 -225 410 412 -193 542 543 545 -209 370 371 517 525 530 -193 373 371 369 371 372 -193 -193 630 630 -209 -193 -193 -209 -209 -209 -193 -193 -193 -193 -209 962 -193 -225 -225 -225 -225 -225 -209 -209 -209 -209 -209 -209 -209 -209 463 -209 -209 -209 362 363 367 368 -193 -209 -193 589 587 -193 -193 -209 -193 -193 -209 -209 -209 -209 -209 -209 -209 -209 -209 -209 -209 -193 -177 -193 -209 -209 -209 -209 -209 -209 -209 155 160 -193 -209 -209 -209 -209 -209 212 -193 -209 341 0 0 0 0 0
    0 0 0 0 0 0 0 0 0 0 0 0 0 0 0 0 0 0 0 0 0 0 0 0 0 0 0 0 0 0 0 0 0 0 0 0 0 0 0 0 0 0 0 0 0 0 0 0 0 0 0 0 0 0 0 0 0 0 0 0 0 0 0 0 0 0 0 0 0 -225 -225 -225 -225 -225 -225 -225 -225 -225 -225 -225 -225 -225 -225 -225 -225 -225 -225 -225 -225 -225 -225 -225 -225 -225 -225 -225 -225 -225 -225 -225 -225 -225 -225 -225 -225 -225 -225 -225 -225 -225 -225 -225 -225 -225 -225 -225 -225 -225 -225 -225 -225 -225 -225 -225 -225 -225 -209 -209 -193 992 -193 -225 -225 -209 -225 -225 -225 -209 -209 -209 -193 -225 -225 -225 -225 -225 -225 -225 -225 -209 -209 -209 -209 -209 -209 -209 -225 -225 -225 -225 -225 -225 -225 -225 -225 -225 -225 -225 -225 -209 886 885 885 -193 164 166 166 -193 369 -193 375 -193 -193 -209 -209 -193 -193 -209 -209 -193 379 -193 -209 -209 558 -177 -177 128 -193 622 624 627 -209 -193 -209 -193 -209 -193 461 462 470 -193 -177 -193 -193 -209 -209 -209 -209 538 540 540 538 370 370 -209 534 535 368 373 372 371 373 374 373 375 -193 -193 376 373 373 371 369 370 367 366 365 -193 -193 -209 -209 -193 -225 -225 -225 -225 -193 -209 -193 -209 378 -209 -209 -209 460 -209 -209 -193 362 363 367 367 366 -193 -193 -193 587 -209 -209 426 429 -193 -209 -209 -209 -209 -209 -209 -209 -193 -209 -209 -193 -177 -177 -177 -209 -209 -209 -209 -209 -209 149 156 161 166 168 166 163 165 -209 -209 -209 -209 -193 0 0 0 0 0
    0 0 0 0 0 0 0 0 0 0 0 0 0 0 0 0 0 0 0 0 0 0 0 0 0 0 0 0 0 0 0 0 0 0 0 0 0 0 0 0 0 0 0 0 0 0 0 0 0 0 0 0 0 0 0 0 0 0 0 0 0 0 0 0 0 0 0 0 0 -225 -225 -225 -225 -225 -225 -225 -225 -225 -225 -225 -225 -225 542 -193 539 539 -193 -193 -209 -209 -209 208 -225 -225 -225 -225 -225 -225 -225 -225 -225 -225 -225 -225 -225 -225 -225 -225 -225 -225 -225 -225 -225 -225 -225 -225 -225 -225 -225 -225 -225 -225 -225 -225 821 821 -193 -193 -209 992 -193 -209 -193 -209 -209 -209 -209 -209 -209 -209 986 -209 -209 806 -209 -193 -193 -209 -209 -209 -209 -209 -209 -209 -209 -209 -209 -209 -225 909 -193 740 738 737 -193 -193 932 931 934 -193 -209 -193 -209 -209 -193 367 371 369 370 372 374 369 373 -209 -209 -209 -193 381 390 -193 380 380 378 377 376 375 -193 -193 -209 629 632 -209 371 373 375 381 374 -209 -193 -177 -193 -193 -209 517 -193 -193 -193 -209 -209 -193 539 540 -193 368 368 -193 535 -193 367 373 372 371 373 374 374 375 -193 377 376 373 373 370 369 369 367 366 366 361 363 -209 -193 -209 -209 -209 -225 -193 -193 -193 -193 -193 378 378 -209 -209 -193 -209 -209 364 364 365 368 368 368 365 369 -193 -209 -209 -193 427 430 436 -209 -209 -209 -209 -193 -209 -209 -193 -193 -209 -209 -193 -177 -177 -193 -193 -209 -209 -209 -209 -193 -193 160 165 166 166 165 164 -193 -209 -209 -209 -209 0 0 0 0 0
    0 0 0 0 0 0 0 0 0 0 0 0 0 0 0 0 0 0 0 0 0 0 0 0 0 0 0 0 0 0 0 0 0 0 0 0 0 0 0 0 0 0 0 0 0 0 0 0 0 0 0 0 0 0 0 0 0 0 0 0 0 0 0 0 0 0 0 0 0 -225 -225 -225 -225 -225 -225 -225 -225 -225 -225 534 537 538 542 -193 -209 -193 -193 -209 377 -193 -193 -193 214 215 -225 209 211 -193 822 -209 -209 -209 378 -177 379 380 -225 -225 -225 -225 -225 -225 -225 -225 -225 -225 -225 -225 -225 -225 -225 -225 -209 -209 -209 -209 -209 -193 -209 -193 -193 -193 -193 -209 -209 -209 -209 -193 -209 -209 -209 -209 -193 -193 375 -209 -209 379 -209 -209 -209 -209 -209 -209 370 371 -209 -209 -193 -209 -193 -193 -193 -193 -193 -193 373 -193 -193 371 367 367 367 365 367 367 371 370 371 372 374 372 374 375 -209 374 -193 377 378 -193 378 378 377 377 376 374 373 -193 -209 -193 -193 366 369 370 374 378 374 -193 -193 -193 -193 -193 -209 -209 -177 -177 -193 -209 -209 -209 542 542 -193 369 368 -193 537 -193 367 373 373 373 374 375 375 376 -193 377 376 373 373 371 370 370 368 367 367 363 365 -209 362 -209 -209 -193 -209 -209 -193 -193 376 378 378 378 -209 374 -193 -193 365 366 366 367 371 371 370 -193 -193 -193 -209 -193 -193 -209 -209 -209 -209 -209 -209 375 377 377 376 376 378 -209 -209 -209 -193 -209 -209 -177 -193 -193 -193 -193 367 370 -193 371 371 -193 -209 -193 369 370 367 368 364 0 0 0 0 0
    0 0 0 0 0 0 0 0 0 0 0 0 0 0 0 0 0 0 0 0 0 0 0 0 0 0 0 0 0 0 0 0 0 0 0 0 0 0 0 0 0 0 0 0 0 0 0 0 0 0 0 0 0 0 0 0 0 0 0 0 0 0 0 0 0 0 0 0 0 -225 -225 -225 -225 -225 -225 -225 -225 -225 529 534 -209 539 -209 -193 381 379 379 374 375 -193 -193 -193 -177 214 210 210 212 -193 -193 -209 -209 -209 378 378 -177 -177 -193 -209 -225 -225 -225 -225 -225 -225 -225 -225 -225 -209 -209 -209 -193 -193 -209 -209 -209 -209 -209 -209 -209 -209 -209 -209 -209 -209 -209 -193 -209 -209 373 -193 -193 374 374 374 375 -209 376 378 -193 -193 -193 -193 -193 -209 370 372 -209 -209 781 -193 -193 -193 -193 -193 -193 373 374 373 -193 372 370 369 369 366 368 368 371 370 373 373 374 373 374 375 -209 374 -193 375 376 -193 376 376 376 376 376 375 374 372 -193 373 371 370 371 372 375 378 375 -193 -193 -193 -193 -193 -193 -193 -177 -193 -209 378 374 -209 -193 -209 -193 369 368 -193 -193 -193 368 373 374 374 375 375 376 376 377 377 376 373 373 371 370 370 369 368 368 364 367 364 366 369 -209 374 375 376 379 378 376 379 378 378 377 376 -193 372 371 369 368 368 371 371 370 -193 -193 -193 -193 -193 -193 -209 -209 -209 -193 374 -193 374 377 377 375 375 377 -193 -193 -209 -193 370 370 371 368 369 368 367 368 370 369 371 371 373 370 371 368 370 367 368 365 0 0 0 0 0
    0 0 0 0 0 0 0 0 0 0 0 0 0 0 0 0 0 0 0 0 0 0 0 0 0 0 0 0 0 0 0 0 0 0 0 0 0 0 0 0 0 0 0 0 0 0 0 0 0 0 0 0 0 0 0 0 0 0 0 0 0 0 0 0 0 0 0 0 0 -225 -225 -225 -225 -225 -225 -225 -209 -209 -209 -209 -209 -209 -193 384 381 380 379 376 377 378 378 -193 -177 211 208 207 209 210 -193 -209 -209 -209 378 377 -177 -177 -177 -193 -193 372 371 367 -193 -193 -193 -193 374 376 375 373 374 373 373 373 370 368 368 -193 -209 -209 -209 -209 -209 -209 -209 -193 -209 375 374 374 374 374 374 374 375 375 375 377 375 376 376 374 374 371 369 372 -193 -209 -193 -193 366 373 -193 375 374 373 374 374 -193 -193 371 371 370 -193 370 368 371 371 373 373 374 373 374 376 -193 375 374 375 376 374 375 375 375 375 374 374 373 372 374 373 372 371 371 372 374 378 374 376 -193 -193 -193 -193 375 376 -209 -209 374 376 374 375 -193 -193 370 370 369 369 -193 -193 370 374 374 374 375 375 375 375 376 376 375 373 372 371 369 370 369 369 369 365 367 366 369 372 373 374 375 375 378 378 376 378 377 377 376 375 375 372 372 371 369 369 371 371 370 369 371 372 -193 374 -193 -209 -209 -193 -193 -193 -209 -193 374 374 372 372 373 373 374 370 370 369 369 371 369 370 370 369 369 370 370 372 372 374 370 371 367 369 367 368 367 0 0 0 0 0
    0 0 0 0 0 0 0 0 0 0 0 0 0 0 0 0 0 0 0 0 0 0 0 0 0 0 0 0 0 0 0 0 0 0 0 0 0 0 0 0 0 0 0 0 0 0 0 0 0 0 0 0 0 0 0 0 0 0 0 0 0 0 0 0 0 0 0 0 0 523 527 530 527 -209 -193 -209 -209 -209 -209 -209 -209 383 384 384 381 380 380 377 378 379 380 -209 -177 213 209 210 211 -193 -209 -209 -209 375 377 376 -177 -177 -177 -209 -209 373 372 368 368 367 368 373 373 374 373 372 373 372 372 373 370 370 369 373 374 -193 -209 -209 -209 -209 -209 -209 -193 375 374 -193 373 373 374 374 375 375 374 376 375 376 375 374 373 371 369 372 366 369 366 365 369 373 372 375 374 374 375 374 375 373 372 372 372 371 371 369 371 371 373 373 374 373 373 375 -193 374 374 374 375 373 375 374 374 373 373 373 372 372 373 372 372 370 371 372 373 376 374 375 373 372 372 372 373 375 -193 -209 374 375 374 374 373 373 371 371 370 370 371 372 371 373 374 374 374 374 374 374 374 375 374 372 371 370 369 370 370 369 369 366 369 369 370 373 373 374 374 375 377 377 376 377 376 376 374 375 375 373 373 373 371 370 372 371 370 370 371 372 372 373 373 -193 -193 -193 370 370 370 371 372 372 370 370 370 372 372 369 369 368 368 370 369 370 370 369 369 369 370 372 371 372 368 370 366 368 368 368 368 0 0 0 0 0
    0 0 0 0 0 0 0 0 0 0 0 0 0 0 0 0 0 0 0 0 0 0 0 0 0 0 0 0 0 0 0 0 0 0 0 0 0 0 0 0 0 0 0 0 0 0 0 0 0 0 0 0 0 0 0 0 0 0 0 0 0 0 0 0 0 0 0 0 0 -193 531 534 531 533 536 -209 -209 -193 -209 -209 -209 382 383 384 381 380 379 377 378 378 379 -209 -209 -193 -193 -193 -177 -209 -209 374 -209 375 377 376 376 375 375 375 374 373 373 371 371 370 370 374 373 374 373 372 373 371 373 373 371 371 371 374 375 373 -193 -209 -193 376 -193 -209 374 374 374 373 372 373 373 373 375 375 374 376 375 375 375 374 373 371 370 372 368 370 367 367 369 373 372 374 374 373 374 374 375 373 372 372 372 372 372 370 370 370 373 373 373 373 373 373 374 373 373 372 373 372 374 373 374 373 373 373 373 373 373 372 372 370 372 372 373 376 373 374 372 372 371 371 372 374 373 375 373 374 373 374 373 373 371 371 370 370 371 372 371 373 373 374 374 374 373 373 373 374 373 371 370 369 368 370 370 369 369 367 371 371 372 373 374 374 374 374 376 376 375 376 375 375 373 374 374 373 373 374 372 371 372 371 371 371 371 372 371 372 372 -193 -193 372 371 371 371 371 371 371 370 369 369 372 372 369 370 369 368 371 370 371 369 368 369 368 368 371 370 371 366 368 365 367 367 368 369 0 0 0 0 0
    0 0 0 0 0 0 0 0 0 0 0 0 0 0 0 0 0 0 0 0 0 0 0 0 0 0 0 0 0 0 0 0 0 0 0 0 0 0 0 0 0 0 0 0 0 0 0 0 0 0 0 0 0 0 0 0 0 0 0 0 0 0 0 0 0 0 0 0 0 -193 -193 -209 -209 -209 -209 -193 -193 -193 -209 -209 -209 381 381 383 379 378 378 376 377 377 377 375 -209 -193 -193 -193 -209 -209 -209 374 -193 374 375 375 375 375 374 374 374 373 374 373 374 373 373 375 374 375 374 372 373 372 373 373 372 372 371 373 374 373 375 -209 -193 375 376 375 374 374 374 374 373 373 373 374 375 375 374 375 374 375 375 374 373 372 370 372 369 371 368 367 369 373 371 374 373 373 374 374 375 374 372 372 372 372 372 370 370 370 372 372 373 372 372 372 373 373 372 372 371 371 372 372 373 372 373 373 372 373 373 372 372 370 371 372 373 375 373 374 372 372 372 372 372 373 373 374 372 373 373 373 372 373 371 371 371 371 371 372 372 373 373 374 374 374 373 373 373 373 372 370 369 369 368 370 370 370 370 369 372 372 373 373 374 373 373 373 375 375 374 375 374 374 373 373 373 373 373 374 372 372 372 371 370 371 371 372 370 371 372 370 372 373 371 371 371 371 371 371 370 370 369 372 372 370 371 370 369 372 371 371 370 369 369 369 369 371 371 372 368 369 366 369 368 369 371 0 0 0 0 0
    0 0 0 0 0 0 0 0 0 0 0 0 0 0 0 0 0 0 0 0 0 0 0 0 0 0 0 0 0 0 0 0 0 0 0 0 0 0 0 0 0 0 0 0 0 0 0 0 0 0 0 0 0 0 0 0 0 0 0 0 0 0 0 0 0 0 0 0 0 374 -209 -209 -193 -209 -209 -193 -193 -177 -209 -209 -209 380 380 381 379 377 376 375 376 376 376 375 -193 -193 -193 -193 -193 375 374 374 375 374 375 374 374 374 374 374 373 373 374 373 374 373 373 374 374 375 374 372 373 372 373 373 373 372 371 373 374 372 374 374 374 374 375 375 373 373 374 374 373 373 373 373 374 375 374 375 373 375 374 374 373 372 370 371 370 372 369 368 369 373 372 374 374 373 374 374 374 374 373 372 372 372 372 371 370 370 372 372 372 372 372 372 372 372 371 371 370 370 371 371 372 372 372 372 372 372 372 371 371 369 370 371 372 374 372 373 372 372 373 372 372 373 373 373 372 373 372 372 372 373 372 372 371 371 372 372 372 373 374 374 374 375 373 373 373 372 372 370 369 369 368 370 370 370 371 369 371 371 372 372 373 372 372 373 374 374 373 373 373 372 371 372 372 372 372 373 372 371 372 371 370 370 370 371 369 370 371 369 372 372 371 370 370 370 370 370 369 369 369 371 372 369 370 370 369 372 371 372 370 370 370 370 370 371 371 372 369 370 366 369 368 370 371 0 0 0 0 0
    0 0 0 0 0 0 0 0 0 0 0 0 0 0 0 0 0 0 0 0 0 0 0 0 0 0 0 0 0 0 0 0 0 0 0 0 0 0 0 0 0 0 0 0 0 0 0 0 0 0 0 0 0 0 0 0 0 0 0 0 0 0 0 0 0 0 0 0 0 374 376 -209 376 -209 -209 -209 -193 -193 -193 379 378 379 379 381 378 377 376 375 376 376 376 375 375 375 -193 -193 375 375 374 374 375 375 375 375 374 374 374 375 374 373 374 373 374 373 373 374 374 375 374 372 373 372 374 373 373 372 372 373 374 373 374 374 374 374 374 374 373 373 374 373 372 373 372 373 374 375 374 374 372 374 374 373 372 372 370 371 371 372 370 370 371 374 373 375 375 374 374 375 375 374 373 373 373 373 373 371 370 371 372 372 372 372 371 371 372 371 370 370 368 369 369 369 371 370 371 371 371 372 371 370 371 369 369 369 371 372 372 372 372 372 373 373 373 373 373 373 372 373 372 372 372 373 372 372 372 372 372 373 373 373 373 374 374 374 373 373 372 371 372 370 370 369 369 370 370 370 371 369 371 371 371 371 372 371 372 372 374 374 373 373 372 371 370 371 372 372 372 374 371 372 372 371 370 370 370 371 369 370 371 369 371 372 370 370 369 369 370 369 369 368 368 370 370 369 369 369 368 372 371 372 370 371 370 371 370 372 371 372 370 371 367 370 370 373 373 0 0 0 0 0
    0 0 0 0 0 0 0 0 0 0 0 0 0 0 0 0 0 0 0 0 0 0 0 0 0 0 0 0 0 0 0 0 0 0 0 0 0 0 0 0 0 0 0 0 0 0 0 0 0 0 0 0 0 0 0 0 0 0 0 0 0 0 0 0 0 0 0 0 0 374 376 376 376 378 378 378 379 380 379 379 378 379 378 380 378 376 376 375 376 375 375 375 374 374 374 374 374 374 374 373 374 374 374 374 374 374 374 374 374 374 374 374 374 374 374 375 374 375 374 372 374 372 374 374 373 373 373 374 374 374 375 374 374 374 374 374 373 373 374 373 372 372 372 373 373 374 373 372 372 374 374 373 372 372 370 371 372 373 371 371 371 374 373 375 375 374 375 376 375 375 374 374 374 374 373 371 370 371 372 372 372 372 371 370 371 371 370 369 367 368 368 368 370 369 369 370 370 371 370 369 370 368 369 369 370 371 372 372 373 373 373 373 374 373 373 373 371 373 372 373 373 373 373 373 373 373 373 373 373 373 373 373 373 374 372 373 372 371 372 371 370 370 370 371 371 371 372 370 371 370 371 371 372 371 371 372 373 373 373 372 371 370 369 371 371 372 372 374 371 371 372 371 370 370 370 370 368 369 370 368 370 371 369 369 369 369 369 369 368 367 367 369 369 368 367 368 367 372 372 373 371 372 370 371 370 371 370 371 369 370 367 371 370 374 374 0 0 0 0 0
    0 0 0 0 0 0 0 0 0 0 0 0 0 0 0 0 0 0 0 0 0 0 0 0 0 0 0 0 0 0 0 0 0 0 0 0 0 0 0 0 0 0 0 0 0 0 0 0 0 0 0 0 0 0 0 0 0 0 0 0 0 0 0 0 0 0 0 0 0 373 375 376 377 377 377 378 378 379 378 378 377 378 378 379 377 376 375 375 375 374 374 374 373 372 373 373 372 372 373 373 373 373 373 373 373 373 373 374 374 374 375 374 374 374 375 375 374 374 374 372 374 372 374 373 373 373 374 374 374 374 374 374 374 374 373 374 373 373 374 373 372 372 372 373 373 374 373 371 371 373 373 372 372 372 370 372 373 373 372 372 372 374 372 375 374 374 374 375 375 375 374 374 374 374 373 371 370 371 371 372 372 371 370 370 370 371 369 369 367 368 368 367 370 369 370 370 371 371 370 369 370 368 370 370 371 371 373 373 373 373 373 373 374 373 373 372 371 372 372 373 373 373 373 373 373 373 373 373 373 373 373 373 372 374 372 372 372 371 372 371 371 370 370 371 371 371 372 370 371 370 371 370 372 371 371 371 372 373 372 372 371 370 369 370 371 371 371 374 371 371 371 370 369 369 369 370 367 368 369 367 369 370 368 369 368 369 369 369 368 367 366 367 367 366 366 366 366 371 373 373 372 372 370 371 370 371 370 370 368 370 367 371 369 375 374 0 0 0 0 0
    0 0 0 0 0 0 0 0 0 0 0 0 0 0 0 0 0 0 0 0 0 0 0 0 0 0 0 0 0 0 0 0 0 0 0 0 0 0 0 0 0 0 0 0 0 0 0 0 0 0 0 0 0 0 0 0 0 0 0 0 0 0 0 0 0 0 0 0 0 372 374 375 376 376 376 377 377 378 377 377 376 376 377 378 376 375 375 375 375 374 374 373 372 372 372 372 371 371 373 372 372 373 373 373 372 372 373 373 373 374 374 373 374 374 375 375 374 374 -193 372 374 372 374 373 373 373 374 373 374 373 374 373 374 374 373 373 373 372 374 373 372 372 373 373 373 373 373 371 370 373 373 372 371 372 370 372 372 373 372 372 372 373 372 374 373 373 373 375 374 374 374 373 373 374 373 371 369 370 370 371 371 371 370 369 370 370 370 370 368 368 369 368 370 369 370 370 371 371 370 369 370 368 370 370 371 370 373 373 373 373 373 373 373 373 373 372 371 372 372 373 373 373 373 373 373 374 373 373 373 372 372 372 371 373 371 372 371 371 372 371 371 370 370 370 370 371 371 369 370 369 371 370 372 371 372 371 372 372 372 371 370 369 368 369 371 371 371 373 370 370 370 369 368 369 369 369 367 368 369 368 369 370 369 369 369 369 369 369 368 367 366 367 366 366 365 365 365 371 373 373 372 373 370 371 370 370 369 369 368 369 366 371 369 375 375 0 0 0 0 0
    0 0 0 0 0 0 0 0 0 0 0 0 0 0 0 0 0 0 0 0 0 0 0 0 0 0 0 0 0 0 0 0 0 0 0 0 0 0 0 0 0 0 0 0 0 0 0 0 0 0 0 0 0 0 0 0 0 0 0 0 0 0 0 0 0 0 0 0 0 373 374 375 376 376 376 376 377 377 376 375 375 375 376 377 376 374 374 374 374 373 373 372 372 371 372 371 371 371 373 371 372 373 373 373 372 372 372 372 372 373 373 373 373 373 374 374 374 374 -193 372 374 372 375 373 374 373 374 373 374 373 374 373 374 374 373 373 373 372 373 373 372 372 373 373 373 373 373 371 371 373 373 372 371 372 370 372 372 373 372 372 372 373 372 374 372 372 372 374 373 373 373 372 372 373 372 370 368 369 369 370 371 370 369 368 369 370 369 370 368 369 370 369 371 370 371 370 371 371 371 369 370 369 370 370 371 370 373 372 372 373 373 373 373 373 373 371 371 373 372 374 373 373 373 373 373 373 372 372 372 372 371 371 370 372 371 371 371 371 372 370 371 370 370 370 370 370 370 368 369 368 371 368 371 370 370 371 371 371 370 371 369 368 368 369 370 371 371 373 370 370 370 369 368 368 369 369 367 368 369 368 370 371 370 370 369 369 370 369 369 367 366 367 366 366 365 365 366 372 374 374 373 374 370 371 369 369 -193 368 367 368 366 370 368 375 374 0 0 0 0 0
    0 0 0 0 0 0 0 0 0 0 0 0 0 0 0 0 0 0 0 0 0 0 0 0 0 0 0 0 0 0 0 0 0 0 0 0 0 0 0 0 0 0 0 0 0 0 0 0 0 0 0 0 0 0 0 0 0 0 0 0 0 0 0 0 0 0 0 0 0 373 374 375 377 375 375 375 375 375 374 373 373 373 375 376 375 374 374 373 374 373 373 372 371 371 371 371 371 371 373 372 373 373 373 373 372 372 372 373 372 373 373 373 373 373 374 374 374 374 -193 373 375 373 375 373 374 373 373 373 374 373 374 372 373 373 372 373 373 372 373 373 372 372 372 373 373 373 374 371 371 373 373 371 371 371 370 371 371 373 372 371 371 373 372 374 372 371 371 373 372 372 372 371 370 371 371 370 369 369 369 369 371 370 369 368 369 370 369 370 369 370 371 370 372 370 371 370 372 371 371 370 370 369 371 370 372 369 373 371 372 373 373 373 373 372 373 371 371 373 371 373 372 372 372 373 373 373 372 371 372 371 371 371 371 373 371 372 372 371 372 370 371 370 370 369 370 370 370 367 368 367 370 367 370 369 369 369 370 370 370 370 369 368 368 369 371 371 371 373 370 370 370 369 368 368 368 368 366 368 369 368 370 370 370 370 369 369 369 368 369 367 366 367 366 366 365 366 368 373 375 375 373 374 370 371 369 369 -193 368 366 368 366 370 368 375 374 0 0 0 0 0
    0 0 0 0 0 0 0 0 0 0 0 0 0 0 0 0 0 0 0 0 0 0 0 0 0 0 0 0 0 0 0 0 0 0 0 0 0 0 0 0 0 0 0 0 0 0 0 0 0 0 0 0 0 0 0 0 0 0 0 0 0 0 0 0 0 0 0 0 0 374 374 376 377 375 374 374 373 374 372 372 372 372 374 375 375 374 374 374 374 373 373 372 371 370 371 370 370 370 373 372 372 373 373 373 372 372 372 373 372 373 373 372 373 373 374 374 374 374 -193 373 375 373 375 373 373 373 373 372 373 372 373 372 373 373 372 373 373 371 373 373 372 372 373 373 373 373 374 372 372 374 374 371 371 371 369 371 371 372 372 371 372 373 372 374 372 372 371 372 372 371 371 370 369 370 370 369 369 370 370 370 371 371 370 369 370 370 369 370 369 370 370 369 371 369 370 369 371 371 371 370 370 369 370 370 372 368 372 371 371 373 372 373 373 372 373 371 370 373 371 373 372 371 372 372 372 373 371 371 372 371 372 371 371 373 372 372 372 371 373 371 372 370 370 370 370 370 369 366 367 366 369 365 369 367 368 369 370 371 371 371 370 369 369 371 372 371 372 373 370 370 369 368 367 367 367 367 365 367 368 367 369 369 369 369 368 368 368 367 368 366 365 366 366 366 366 367 369 373 375 374 373 374 370 371 369 369 368 368 367 368 366 371 368 374 374 0 0 0 0 0
    0 0 0 0 0 0 0 0 0 0 0 0 0 0 0 0 0 0 0 0 0 0 0 0 0 0 0 0 0 0 0 0 0 0 0 0 0 0 0 0 0 0 0 0 0 0 0 0 0 0 0 0 0 0 0 0 0 0 0 0 0 0 0 0 0 0 0 0 0 374 374 376 377 375 375 374 374 374 373 372 372 372 374 375 375 374 374 374 374 373 373 372 371 370 371 370 370 369 372 371 372 373 373 373 373 372 373 373 372 373 373 372 373 373 374 374 374 373 -193 372 375 373 375 373 373 372 373 372 373 373 373 372 373 373 372 373 373 371 373 372 372 372 372 373 372 373 374 372 373 374 374 371 371 372 370 371 370 372 372 371 372 373 372 373 372 372 370 372 371 370 369 368 368 369 369 368 368 370 371 -193 -193 372 371 370 370 370 369 370 369 369 370 369 370 369 369 368 372 370 371 370 371 370 371 370 371 368 371 369 370 372 371 372 373 372 372 370 370 372 370 372 371 370 371 371 372 372 371 371 371 371 372 370 371 372 372 371 371 371 373 371 372 370 371 370 370 370 369 366 367 366 369 365 368 367 368 368 370 371 370 370 370 369 371 372 373 371 372 373 370 370 369 367 367 367 367 367 365 366 368 367 369 369 368 368 368 367 368 366 367 365 364 365 365 366 365 366 368 372 374 374 373 374 370 371 369 369 368 368 367 368 366 371 369 374 373 0 0 0 0 0
    0 0 0 0 0 0 0 0 0 0 0 0 0 0 0 0 0 0 0 0 0 0 0 0 0 0 0 0 0 0 0 0 0 0 0 0 0 0 0 0 0 0 0 0 0 0 0 0 0 0 0 0 0 0 0 0 0 0 0 0 0 0 0 0 0 0 0 0 0 374 374 376 378 376 375 375 374 374 373 372 373 373 374 375 375 374 374 374 374 373 373 372 371 369 370 369 369 369 371 371 372 373 374 374 373 372 373 373 373 373 373 372 372 373 374 373 373 373 -193 372 374 373 374 372 373 372 373 372 374 373 374 372 373 373 372 373 373 371 373 372 371 372 372 372 372 372 374 373 374 374 374 371 372 372 370 371 370 372 371 371 371 372 371 372 370 371 369 371 370 368 368 367 367 368 368 368 368 370 371 -193 372 372 371 371 371 370 369 370 369 369 370 368 370 368 369 368 372 371 372 371 371 371 371 370 371 368 370 368 369 371 371 371 372 371 371 370 369 371 369 370 369 368 369 370 371 372 371 370 371 370 371 370 370 371 371 370 370 371 373 371 372 370 371 370 371 371 369 366 368 366 369 365 369 368 368 368 370 372 371 371 371 370 372 373 373 372 373 373 370 370 369 367 367 367 367 367 365 366 367 367 369 368 368 368 367 367 367 366 367 364 364 364 364 365 365 365 367 371 373 373 373 374 371 371 369 369 368 368 367 368 366 370 368 373 373 0 0 0 0 0
    0 0 0 0 0 0 0 0 0 0 0 0 0 0 0 0 0 0 0 0 0 0 0 0 0 0 0 0 0 0 0 0 0 0 0 0 0 0 0 0 0 0 0 0 0 0 0 0 0 0 0 0 0 0 0 0 0 0 0 0 0 0 0 0 0 0 0 0 0 373 373 375 377 375 374 374 373 374 373 372 373 373 374 375 375 375 375 375 374 373 373 372 371 370 370 369 369 369 371 371 372 373 374 373 373 372 372 373 372 373 373 371 372 373 374 373 373 373 -193 372 374 373 374 372 372 372 373 372 374 373 374 372 374 374 373 373 373 372 373 372 371 372 372 372 372 372 374 373 374 375 374 371 373 373 371 371 370 371 371 370 371 371 370 371 369 370 368 370 369 367 368 367 366 367 367 368 368 370 371 -193 371 372 371 371 371 370 368 369 370 369 369 368 370 367 370 369 373 372 373 372 373 372 373 372 372 369 371 368 369 370 370 370 371 370 370 369 368 370 368 368 369 368 368 369 370 371 370 370 371 369 371 369 370 371 371 370 370 371 373 371 372 370 371 370 371 371 369 367 368 367 370 366 369 368 368 368 370 371 371 370 370 370 373 373 373 372 372 373 370 370 369 367 366 367 367 367 365 366 367 366 368 368 367 367 366 366 366 366 366 364 364 364 364 364 365 365 367 370 372 372 372 373 371 370 369 368 368 368 368 368 366 370 369 373 373 0 0 0 0 0
    0 0 0 0 0 0 0 0 0 0 0 0 0 0 0 0 0 0 0 0 0 0 0 0 0 0 0 0 0 0 0 0 0 0 0 0 0 0 0 0 0 0 0 0 0 0 0 0 0 0 0 0 0 0 0 0 0 0 0 0 0 0 0 0 0 0 0 0 0 373 372 374 375 374 373 373 373 374 372 372 373 373 374 375 375 375 375 375 375 373 373 372 371 370 370 370 369 370 371 371 373 372 374 373 373 372 372 373 372 373 373 371 373 372 373 373 373 373 -193 372 374 373 374 372 373 372 373 372 373 372 373 371 373 373 372 373 373 372 373 372 371 372 372 372 372 372 374 373 375 375 374 372 373 373 371 371 370 371 371 370 371 371 370 371 369 370 368 369 369 366 367 366 365 367 366 367 367 370 371 368 371 373 372 371 371 371 -193 370 370 369 368 366 369 366 368 369 373 372 373 373 373 373 374 373 373 370 370 368 368 369 369 369 370 370 370 369 368 370 368 368 369 367 368 368 370 370 370 369 370 368 371 369 371 371 371 370 370 371 373 370 371 370 371 370 370 370 369 367 368 367 370 367 369 368 368 367 369 371 370 368 370 370 373 373 373 372 372 373 370 369 368 366 366 366 367 366 364 366 366 366 368 368 367 367 366 366 366 366 367 364 364 364 365 364 365 365 368 369 371 371 371 -193 371 370 370 368 370 369 370 369 366 371 370 373 373 0 0 0 0 0
    0 0 0 0 0 0 0 0 0 0 0 0 0 0 0 0 0 0 0 0 0 0 0 0 0 0 0 0 0 0 0 0 0 0 0 0 0 0 0 0 0 0 0 0 0 0 0 0 0 0 0 0 0 0 0 0 0 0 0 0 0 0 0 0 0 0 0 0 0 373 372 374 374 375 373 373 373 374 373 372 373 373 374 376 375 375 375 375 375 374 374 373 372 371 371 371 371 371 372 372 374 373 374 373 373 372 372 373 372 373 373 371 373 372 373 373 373 373 373 371 373 372 374 372 373 372 372 372 373 372 373 370 373 373 372 373 373 372 373 371 371 371 372 372 372 372 373 372 375 375 374 372 373 373 371 371 370 370 370 370 370 371 370 371 369 370 369 370 369 366 367 366 365 367 366 367 367 370 371 368 371 373 372 371 371 371 -193 370 370 368 368 365 367 364 365 368 371 372 374 374 374 374 -193 374 373 370 369 367 367 368 368 368 369 369 369 368 369 369 367 368 368 368 369 369 370 370 370 370 371 369 371 369 371 371 371 370 370 371 372 370 371 369 370 369 370 370 369 367 368 367 369 366 367 367 367 366 367 370 369 367 368 370 373 373 372 371 372 373 370 369 368 366 366 366 366 366 364 366 366 366 368 367 367 367 366 366 366 365 367 365 365 365 366 365 367 367 370 370 371 371 371 -193 371 369 370 368 370 370 372 370 367 372 371 372 373 0 0 0 0 0
    0 0 0 0 0 0 0 0 0 0 0 0 0 0 0 0 0 0 0 0 0 0 0 0 0 0 0 0 0 0 0 0 0 0 0 0 0 0 0 0 0 0 0 0 0 0 0 0 0 0 0 0 0 0 0 0 0 0 0 0 0 0 0 0 0 0 0 0 0 374 373 374 374 375 374 374 374 374 373 372 374 373 374 375 375 375 374 375 375 374 374 373 373 372 372 371 371 372 372 372 374 373 374 373 373 372 372 373 372 373 373 372 373 372 373 373 372 372 373 371 373 372 374 372 373 373 372 372 374 373 373 370 373 373 373 373 373 371 373 371 370 371 371 371 371 371 373 371 375 375 374 372 372 373 371 370 370 369 370 369 370 370 369 371 369 370 369 370 370 366 367 366 365 367 366 367 368 370 371 369 372 373 372 371 371 370 368 370 369 367 367 365 366 364 365 367 370 372 374 374 375 374 -209 374 373 369 369 366 367 368 368 368 368 368 368 367 368 368 367 367 368 368 369 369 371 370 371 371 371 370 371 369 371 370 371 370 370 371 372 370 371 369 371 370 370 370 369 368 368 368 369 366 366 366 366 365 366 368 367 365 367 369 373 372 371 370 371 373 369 369 368 366 366 366 366 366 363 365 365 365 368 367 366 366 365 365 365 365 367 365 367 366 368 366 369 368 371 370 371 370 370 371 370 369 370 368 371 370 373 373 371 373 372 372 372 0 0 0 0 0
    0 0 0 0 0 0 0 0 0 0 0 0 0 0 0 0 0 0 0 0 0 0 0 0 0 0 0 0 0 0 0 0 0 0 0 0 0 0 0 0 0 0 0 0 0 0 0 0 0 0 0 0 0 0 0 0 0 0 0 0 0 0 0 0 0 0 0 0 0 374 373 374 373 375 373 373 373 374 372 373 373 373 373 374 374 375 374 375 374 374 374 373 373 372 372 372 372 372 372 372 373 372 374 373 373 372 373 373 373 373 374 372 373 372 373 373 372 372 372 371 372 372 373 372 372 373 372 372 374 373 373 371 374 374 374 374 374 372 373 371 370 370 371 371 370 370 372 370 375 374 374 372 372 373 371 370 369 368 369 368 370 370 368 370 368 369 370 369 369 366 367 366 365 367 365 367 368 370 371 369 372 372 372 371 371 370 368 369 368 366 366 364 366 364 364 366 368 372 373 373 374 373 -193 373 372 369 367 365 367 367 368 368 367 367 367 367 367 366 366 366 367 368 369 369 371 370 372 371 372 370 371 368 371 370 371 369 369 371 371 370 370 369 371 370 371 370 369 369 369 368 369 366 366 366 366 365 366 367 367 364 366 367 372 371 370 369 371 373 369 369 368 366 365 366 366 365 363 364 364 365 367 366 365 365 364 365 365 365 366 365 367 366 367 367 368 368 370 369 370 369 370 371 371 370 371 370 372 372 374 374 373 374 373 373 372 0 0 0 0 0
    0 0 0 0 0 0 0 0 0 0 0 0 0 0 0 0 0 0 0 0 0 0 0 0 0 0 0 0 0 0 0 0 0 0 0 0 0 0 0 0 0 0 0 0 0 0 0 0 0 0 0 0 0 0 0 0 0 0 0 0 0 0 0 0 0 0 0 0 0 374 373 374 373 374 373 373 373 373 372 373 373 374 373 374 375 375 375 376 375 375 375 373 373 372 372 372 372 372 371 370 373 371 373 372 372 372 372 373 373 373 374 372 373 373 373 373 372 372 372 370 372 372 373 372 372 372 372 372 374 373 373 371 375 375 375 374 374 372 373 370 370 370 371 370 370 370 371 370 374 374 373 372 372 374 371 370 369 368 368 368 369 369 367 369 368 369 370 370 368 365 367 366 365 366 366 367 367 369 370 368 371 372 372 371 370 370 368 369 367 365 365 363 365 363 364 365 367 372 374 373 374 373 374 373 370 368 366 365 366 366 367 367 366 367 367 366 367 366 366 366 367 368 369 369 371 369 371 370 371 368 368 366 368 368 369 367 367 371 371 370 370 370 371 371 371 371 370 369 369 368 369 366 367 367 366 365 366 367 366 364 366 366 371 371 369 369 371 372 369 369 368 366 365 366 366 365 362 363 363 363 365 365 364 364 364 365 365 366 367 365 368 367 368 367 368 368 370 369 370 370 371 -193 372 372 372 372 373 374 375 376 374 -193 374 374 373 0 0 0 0 0
    0 0 0 0 0 0 0 0 0 0 0 0 0 0 0 0 0 0 0 0 0 0 0 0 0 0 0 0 0 0 0 0 0 0 0 0 0 0 0 0 0 0 0 0 0 0 0 0 0 0 0 0 0 0 0 0 0 0 0 0 0 0 0 0 0 0 0 0 0 373 373 374 373 375 374 374 374 374 373 373 373 374 373 374 375 375 375 376 375 375 375 373 373 372 372 371 371 371 371 369 373 370 373 372 372 372 372 373 373 373 374 372 373 372 373 373 371 371 371 370 371 371 372 371 372 372 372 372 374 374 373 372 375 374 373 373 373 372 372 370 370 369 370 370 369 369 370 368 373 373 372 371 371 374 371 369 368 367 368 367 368 367 365 367 366 368 369 369 367 365 366 366 365 367 366 367 367 369 369 368 370 371 371 369 369 369 367 368 367 365 365 363 365 364 364 365 366 372 374 373 374 372 373 371 369 368 366 365 367 366 367 367 366 367 367 366 367 366 366 366 367 369 370 369 371 368 371 369 369 366 365 364 366 366 367 366 367 371 370 370 370 370 371 371 371 371 370 370 369 369 369 367 367 367 367 365 366 366 366 364 365 366 370 370 368 368 370 372 369 369 368 366 365 366 366 365 362 363 362 -193 365 364 364 364 364 366 366 368 368 366 370 369 369 369 368 368 370 370 371 370 371 372 372 372 372 371 373 -193 -193 -193 375 -193 -209 375 -193 0 0 0 0 0
    0 0 0 0 0 0 0 0 0 0 0 0 0 0 0 0 0 0 0 0 0 0 0 0 0 0 0 0 0 0 0 0 0 0 0 0 0 0 0 0 0 0 0 0 0 0 0 0 0 0 0 0 0 0 0 0 0 0 0 0 0 0 0 0 0 0 0 0 0 373 373 374 373 374 373 373 373 373 373 373 373 373 373 374 374 375 375 375 375 374 375 373 373 372 372 371 371 370 371 369 372 370 373 371 372 372 373 373 373 373 374 372 373 372 373 372 371 371 371 370 371 371 372 372 371 372 372 371 373 373 373 371 373 372 372 371 372 371 372 369 369 368 369 370 369 368 369 367 371 371 372 370 369 372 370 367 368 366 367 366 367 366 365 366 366 367 369 369 368 366 367 367 366 367 367 368 366 368 368 366 369 370 370 369 368 369 368 369 368 366 365 364 365 364 364 366 366 372 374 373 373 372 372 371 369 369 367 366 367 367 367 367 366 367 367 366 367 365 366 366 367 369 370 369 371 368 371 368 367 365 364 363 365 364 366 366 366 372 370 370 370 369 371 370 370 371 369 370 369 369 369 367 368 368 367 366 365 367 366 365 365 366 370 369 368 368 370 371 369 369 368 366 365 366 366 365 362 362 361 -193 364 364 364 364 364 367 367 369 369 367 370 369 369 369 368 368 369 370 370 370 370 370 371 370 371 370 371 -193 -193 -193 374 375 -209 375 -193 0 0 0 0 0
    0 0 0 0 0 0 0 0 0 0 0 0 0 0 0 0 0 0 0 0 0 0 0 0 0 0 0 0 0 0 0 0 0 0 0 0 0 0 0 0 0 0 0 0 0 0 0 0 0 0 0 0 0 0 0 0 0 0 0 0 0 0 0 0 0 0 0 0 0 373 373 374 373 374 373 373 373 373 373 373 373 374 373 374 374 375 375 375 375 374 375 373 373 372 372 372 372 371 372 370 373 370 373 371 372 372 373 373 373 373 373 372 373 372 373 372 372 372 372 370 371 372 372 372 371 372 371 371 372 372 372 370 372 371 371 371 372 371 372 369 369 368 369 370 369 368 369 367 370 370 371 369 367 370 368 366 367 366 367 365 367 367 366 368 368 369 371 370 369 368 369 368 367 369 368 368 367 368 368 366 368 369 370 368 368 369 368 369 368 366 366 364 366 365 365 366 366 372 373 372 373 371 371 371 369 368 367 367 367 367 367 368 366 368 367 366 367 365 366 366 367 370 370 370 372 369 371 368 367 364 364 363 364 364 366 365 367 372 369 370 369 369 370 369 369 370 367 369 368 369 368 367 368 368 367 366 365 367 366 366 366 367 370 369 368 368 369 371 368 368 367 366 365 366 366 365 362 362 361 -193 364 364 364 365 365 368 368 369 370 368 370 369 368 369 367 368 368 369 369 368 369 369 369 369 368 368 368 -193 -193 -193 374 375 374 375 -193 0 0 0 0 0
    0 0 0 0 0 0 0 0 0 0 0 0 0 0 0 0 0 0 0 0 0 0 0 0 0 0 0 0 0 0 0 0 0 0 0 0 0 0 0 0 0 0 0 0 0 0 0 0 0 0 0 0 0 0 0 0 0 0 0 0 0 0 0 0 0 0 0 0 0 373 373 374 374 374 374 374 373 374 373 373 373 373 373 373 373 374 374 375 374 374 374 373 373 372 372 372 372 371 372 371 372 371 373 371 372 372 373 372 373 373 373 372 373 371 372 372 372 372 372 371 371 372 372 372 371 372 371 371 371 372 371 370 371 370 371 371 372 371 371 370 369 368 369 370 369 368 369 367 369 369 371 368 366 368 367 365 366 365 367 365 367 367 367 368 370 370 372 371 370 368 370 368 368 368 368 368 367 368 368 366 369 370 371 369 369 370 369 369 368 367 366 365 366 365 365 365 366 371 371 371 371 370 369 369 368 367 367 367 367 367 367 369 367 369 368 366 367 366 367 367 368 371 371 371 372 370 371 368 367 364 363 363 363 364 366 366 367 372 369 370 369 369 369 368 368 369 366 369 367 368 367 367 367 368 367 366 364 366 366 367 366 368 370 369 368 368 369 370 368 368 367 365 365 365 365 365 361 362 361 -193 364 364 365 366 365 369 368 370 370 368 370 369 368 369 367 368 368 369 369 368 368 368 368 368 -193 -193 367 -193 -193 -193 372 373 373 375 -193 0 0 0 0 0
    0 0 0 0 0 0 0 0 0 0 0 0 0 0 0 0 0 0 0 0 0 0 0 0 0 0 0 0 0 0 0 0 0 0 0 0 0 0 0 0 0 0 0 0 0 0 0 0 0 0 0 0 0 0 0 0 0 0 0 0 0 0 0 0 0 0 0 0 0 373 373 374 374 375 375 375 374 374 373 373 372 373 372 373 372 373 373 373 374 373 373 372 372 372 372 372 371 371 371 370 372 370 373 371 372 372 373 372 373 372 372 371 372 370 371 372 371 372 372 370 371 371 372 371 371 371 370 370 370 370 370 369 370 370 371 371 371 371 371 370 369 369 369 370 369 368 369 367 369 369 370 368 366 368 367 366 366 366 367 365 367 366 367 366 370 370 371 371 370 368 370 369 368 368 368 368 368 368 369 368 370 370 372 370 370 370 369 369 368 367 367 365 366 365 366 366 366 371 371 371 370 370 369 368 368 367 367 366 366 367 366 368 366 368 368 366 367 366 367 368 369 371 371 371 372 369 371 367 365 363 362 363 363 364 366 366 367 372 369 369 369 369 368 368 368 368 365 368 367 368 367 367 367 368 366 366 364 366 366 369 367 368 369 369 367 367 368 370 367 367 366 365 365 365 365 365 362 362 361 -193 364 364 365 365 365 368 368 369 369 368 370 370 369 370 369 370 369 371 -193 369 -193 -193 368 367 366 -193 366 -193 -193 -193 372 372 372 375 -193 0 0 0 0 0
    0 0 0 0 0 0 0 0 0 0 0 0 0 0 0 0 0 0 0 0 0 0 0 0 0 0 0 0 0 0 0 0 0 0 0 0 0 0 0 0 0 0 0 0 0 0 0 0 0 0 0 0 0 0 0 0 0 0 0 0 0 0 0 0 0 0 0 0 0 373 374 375 375 375 375 375 374 374 373 372 372 372 371 372 372 372 372 373 373 373 373 371 371 371 371 371 370 369 370 369 371 369 372 370 372 372 372 372 372 372 372 371 372 370 371 371 371 371 371 370 370 371 371 370 370 371 369 369 370 370 369 368 369 370 370 370 371 371 371 370 369 369 369 370 369 368 369 367 368 368 369 367 366 368 367 366 366 366 368 365 367 366 366 365 368 368 369 369 369 368 370 369 369 368 369 369 368 369 370 369 370 370 371 370 369 369 369 368 367 367 367 365 366 366 367 367 367 371 370 371 369 369 368 367 367 366 366 366 364 366 365 366 365 367 368 366 367 366 368 368 370 371 371 370 372 367 368 364 364 362 361 362 362 364 366 366 367 372 369 369 369 369 368 367 367 368 365 368 367 368 367 367 368 369 367 366 364 366 366 368 368 368 368 368 367 367 368 369 367 367 366 365 364 365 365 365 362 362 362 -193 364 364 365 365 365 367 367 368 368 368 369 369 369 371 369 371 370 372 370 370 -193 -193 368 367 366 -193 366 -193 -193 -193 373 372 372 375 -193 0 0 0 0 0
    0 0 0 0 0 0 0 0 0 0 0 0 0 0 0 0 0 0 0 0 0 0 0 0 0 0 0 0 0 0 0 0 0 0 0 0 0 0 0 0 0 0 0 0 0 0 0 0 0 0 0 0 0 0 0 0 0 0 0 0 0 0 0 0 0 0 0 0 0 373 374 375 374 375 374 375 373 374 372 372 371 372 371 372 372 373 373 374 374 373 373 371 371 371 371 371 369 369 369 368 371 369 372 370 371 371 372 371 372 371 371 370 372 370 371 371 371 371 371 370 370 370 371 370 369 370 368 369 369 369 369 368 369 370 370 370 371 371 371 371 370 369 369 371 369 368 369 367 368 367 369 367 365 367 367 366 366 366 368 366 368 367 367 365 367 367 368 368 368 369 370 369 369 369 369 369 369 369 370 369 370 371 371 370 369 369 368 368 367 367 366 365 366 366 367 367 367 370 368 370 368 369 368 366 367 366 365 366 363 365 365 366 365 368 369 367 367 367 368 368 369 370 370 369 370 365 365 363 363 361 361 362 362 364 -193 366 367 372 369 369 369 368 366 366 366 367 364 367 366 368 367 368 368 369 367 367 364 366 365 366 367 367 368 368 367 368 368 369 367 366 365 365 364 364 365 364 362 363 363 363 365 365 365 365 365 366 366 367 367 367 368 369 370 372 371 372 371 373 371 -193 -193 367 367 366 365 365 366 368 -193 -193 373 371 371 374 -193 0 0 0 0 0
    0 0 0 0 0 0 0 0 0 0 0 0 0 0 0 0 0 0 0 0 0 0 0 0 0 0 0 0 0 0 0 0 0 0 0 0 0 0 0 0 0 0 0 0 0 0 0 0 0 0 0 0 0 0 0 0 0 0 0 0 0 0 0 0 0 0 0 0 0 372 373 374 374 374 373 374 372 374 372 371 371 372 371 373 372 373 373 375 375 374 373 372 372 372 371 372 369 369 369 368 371 369 372 370 371 371 371 371 371 371 371 370 371 370 370 371 370 371 370 370 369 370 371 369 369 370 368 369 369 369 368 367 369 370 370 370 371 372 371 371 370 370 369 371 369 368 369 367 368 367 368 367 365 367 367 366 366 366 368 367 368 368 367 366 368 368 368 367 368 369 370 369 369 368 369 369 369 369 370 369 370 371 371 370 369 369 368 368 367 368 366 366 366 367 369 368 368 371 369 370 369 370 369 368 368 367 366 367 364 367 366 367 366 369 370 368 368 368 367 368 368 369 368 366 367 364 363 362 361 360 361 362 362 365 367 367 368 372 370 369 369 368 366 365 365 366 364 366 366 368 367 368 369 370 368 368 365 366 365 367 368 368 369 369 368 368 369 368 367 366 365 364 364 364 364 364 363 363 363 364 365 365 365 365 364 366 365 367 366 366 367 369 371 372 371 373 371 372 370 370 367 365 365 365 363 363 364 366 -193 -193 371 368 370 373 370 0 0 0 0 0
    0 0 0 0 0 0 0 0 0 0 0 0 0 0 0 0 0 0 0 0 0 0 0 0 0 0 0 0 0 0 0 0 0 0 0 0 0 0 0 0 0 0 0 0 0 0 0 0 0 0 0 0 0 0 0 0 0 0 0 0 0 0 0 0 0 0 0 0 0 372 373 374 373 373 372 372 371 372 371 370 370 371 370 372 371 373 371 374 374 373 373 372 372 372 371 371 368 370 369 368 370 369 372 369 371 371 371 371 371 370 370 369 371 369 370 371 370 371 370 370 369 370 371 369 369 370 368 369 369 369 368 368 369 370 370 371 371 372 372 372 370 370 369 371 370 368 368 367 367 367 368 367 365 367 367 366 366 366 368 367 368 368 367 366 368 369 368 368 368 371 371 369 370 369 369 369 370 370 370 370 371 372 372 372 370 370 370 369 368 369 368 367 367 368 369 368 369 371 369 371 369 371 370 369 369 369 368 369 365 368 366 367 366 368 369 367 367 367 367 368 368 368 367 365 366 364 364 362 362 360 362 363 364 367 368 368 369 373 371 369 369 368 366 365 365 366 364 365 365 367 367 367 368 369 368 367 364 365 366 368 369 369 370 369 368 369 369 368 366 365 365 363 363 364 364 365 363 364 -193 365 366 366 365 365 364 365 365 366 366 366 367 368 371 372 371 372 371 371 369 368 365 364 363 363 362 362 363 364 363 363 366 365 368 371 368 0 0 0 0 0
    0 0 0 0 0 0 0 0 0 0 0 0 0 0 0 0 0 0 0 0 0 0 0 0 0 0 0 0 0 0 0 0 0 0 0 0 0 0 0 0 0 0 0 0 0 0 0 0 0 0 0 0 0 0 0 0 0 0 0 0 0 0 0 0 0 0 0 0 0 371 372 373 372 372 370 370 369 371 369 368 369 369 369 371 370 372 370 373 372 372 372 372 372 372 371 372 368 371 370 369 371 370 372 370 371 371 370 370 370 370 370 368 370 369 369 371 370 371 370 370 369 370 371 369 369 369 368 369 368 369 368 367 369 370 371 371 372 372 372 372 370 370 369 371 369 367 368 367 367 367 367 366 365 366 367 366 366 366 368 367 368 368 367 366 368 369 368 368 369 371 371 371 370 -193 369 369 370 370 371 371 371 373 373 373 372 372 371 370 369 370 368 368 367 367 368 368 368 370 369 371 370 371 371 370 370 370 368 369 366 369 367 366 366 367 367 366 367 366 366 367 367 367 366 364 366 364 364 363 362 361 363 364 365 368 369 368 370 373 371 368 368 367 365 365 365 365 363 363 364 365 365 366 366 367 366 365 364 365 365 368 370 370 370 369 368 369 369 368 366 365 364 363 364 364 365 365 363 365 -193 366 366 365 365 365 364 365 364 365 365 366 367 368 370 371 369 371 370 369 368 367 365 363 362 362 361 361 362 363 362 363 365 364 366 369 367 0 0 0 0 0
    0 0 0 0 0 0 0 0 0 0 0 0 0 0 0 0 0 0 0 0 0 0 0 0 0 0 0 0 0 0 0 0 0 0 0 0 0 0 0 0 0 0 0 0 0 0 0 0 0 0 0 0 0 0 0 0 0 0 0 0 0 0 0 0 0 0 0 0 0 371 371 372 371 372 369 369 368 370 368 367 368 368 367 370 369 372 369 373 371 371 372 372 372 372 371 372 368 371 370 369 370 369 372 369 370 371 370 370 370 369 369 368 370 369 369 371 370 371 370 370 369 370 371 369 369 369 367 369 368 368 368 367 369 370 371 371 372 372 372 372 370 370 369 370 369 367 368 367 366 367 367 366 365 366 367 366 366 366 368 367 368 367 367 366 367 368 367 366 368 370 -193 -193 -193 -193 -193 368 370 370 371 371 372 373 373 374 373 372 371 370 369 369 368 367 366 366 368 367 368 369 368 370 369 371 371 370 370 370 368 369 366 368 366 366 365 366 367 366 367 366 366 367 367 367 366 364 365 364 365 363 364 363 365 366 367 371 370 369 371 373 371 368 368 367 365 365 365 365 363 363 363 364 365 365 365 366 365 364 363 364 365 367 370 370 370 370 369 370 370 368 367 365 365 363 364 364 365 365 364 365 -193 366 366 365 365 364 363 364 363 364 364 365 368 368 371 371 369 371 369 368 368 366 365 363 362 362 361 361 362 363 363 363 365 365 367 369 366 0 0 0 0 0
    0 0 0 0 0 0 0 0 0 0 0 0 0 0 0 0 0 0 0 0 0 0 0 0 0 0 0 0 0 0 0 0 0 0 0 0 0 0 0 0 0 0 0 0 0 0 0 0 0 0 0 0 0 0 0 0 0 0 0 0 0 0 0 0 0 0 0 0 0 370 370 371 370 371 369 368 368 369 367 366 367 366 366 369 369 372 369 372 371 371 372 372 371 371 370 372 367 370 368 367 369 368 371 368 369 370 369 370 370 369 369 368 371 370 369 371 370 372 370 370 370 370 371 369 369 369 367 369 368 368 368 366 369 369 371 371 372 372 372 372 370 370 369 371 370 368 368 367 366 367 367 366 365 366 367 366 366 366 367 367 368 367 366 365 366 367 365 365 366 369 -193 369 -193 -193 -193 367 369 370 370 371 372 373 373 374 373 372 371 370 368 369 367 366 365 365 367 367 367 368 367 369 369 370 371 370 370 369 368 369 366 368 366 366 365 366 366 366 367 366 366 367 366 366 365 364 365 363 365 364 365 364 368 369 369 372 371 369 371 372 371 368 368 367 365 366 365 365 364 363 364 364 364 364 364 366 365 364 363 364 365 366 370 370 370 370 369 370 370 368 367 365 365 363 364 364 365 365 364 365 -193 365 365 364 364 363 363 363 363 364 364 366 369 370 372 372 370 371 369 369 368 367 365 364 363 363 362 362 363 364 364 365 367 366 367 368 365 0 0 0 0 0
    0 0 0 0 0 0 0 0 0 0 0 0 0 0 0 0 0 0 0 0 0 0 0 0 0 0 0 0 0 0 0 0 0 0 0 0 0 0 0 0 0 0 0 0 0 0 0 0 0 0 0 0 0 0 0 0 0 0 0 0 0 0 0 0 0 0 0 0 0 370 369 371 370 370 369 368 368 369 368 366 367 366 366 369 369 372 369 372 371 370 372 371 371 370 369 371 366 369 367 366 368 367 371 367 368 370 368 370 370 369 369 368 371 370 370 371 370 372 371 370 370 370 371 369 369 369 367 368 368 368 367 366 368 369 371 371 372 372 372 372 370 370 369 370 370 367 368 367 366 367 367 366 365 366 367 366 366 366 367 367 367 366 365 364 365 365 364 364 365 367 368 367 367 367 367 366 369 369 369 370 371 373 373 374 374 372 371 370 370 370 368 367 366 365 367 367 367 368 367 368 369 370 371 370 370 369 368 369 367 368 366 366 365 365 366 367 368 366 366 367 366 366 366 364 365 363 365 365 365 364 368 368 369 372 370 368 370 371 370 367 367 367 365 365 365 364 364 362 364 364 364 364 364 366 365 364 363 364 366 366 370 370 371 370 370 370 371 369 367 366 365 363 364 364 365 365 364 -193 -193 365 365 364 363 363 362 362 362 363 364 366 371 371 373 373 371 371 369 369 369 367 366 364 363 363 362 362 363 364 364 366 369 367 367 367 364 0 0 0 0 0
    0 0 0 0 0 0 0 0 0 0 0 0 0 0 0 0 0 0 0 0 0 0 0 0 0 0 0 0 0 0 0 0 0 0 0 0 0 0 0 0 0 0 0 0 0 0 0 0 0 0 0 0 0 0 0 0 0 0 0 0 0 0 0 0 0 0 0 0 0 369 369 370 370 370 368 367 368 368 367 366 367 366 366 368 368 371 369 371 370 370 371 371 371 370 368 370 366 369 367 366 368 367 371 368 368 369 368 369 369 369 369 369 371 370 370 371 370 371 370 370 370 370 371 369 369 368 367 368 368 368 367 366 369 369 372 371 373 372 372 372 370 369 369 370 370 367 368 366 366 367 366 366 365 365 367 366 365 366 366 367 366 365 365 364 365 365 364 364 365 367 367 367 366 367 366 366 367 368 367 369 371 373 372 374 374 -193 371 370 370 370 368 367 -193 366 367 367 367 367 367 368 369 370 372 371 370 369 368 368 367 368 367 366 366 366 367 367 368 366 365 367 366 366 365 364 365 363 365 366 366 366 369 369 370 373 370 369 370 370 370 367 367 366 365 365 364 364 363 362 363 363 363 363 364 366 365 363 363 364 367 368 371 371 372 371 371 371 372 370 368 366 365 363 365 364 365 365 364 365 365 366 365 363 363 362 -193 362 361 363 364 367 372 372 373 373 370 371 368 368 368 367 366 -193 363 363 361 361 362 362 362 364 366 364 365 -193 362 0 0 0 0 0
    0 0 0 0 0 0 0 0 0 0 0 0 0 0 0 0 0 0 0 0 0 0 0 0 0 0 0 0 0 0 0 0 0 0 0 0 0 0 0 0 0 0 0 0 0 0 0 0 0 0 0 0 0 0 0 0 0 0 0 0 0 0 0 0 0 0 0 0 0 369 369 369 370 369 369 367 368 367 367 366 366 366 366 367 367 371 369 371 370 370 371 370 371 370 368 370 367 370 369 367 370 368 372 368 368 369 368 368 368 368 369 368 371 370 369 371 370 371 371 370 370 370 371 370 369 368 367 368 368 368 368 366 369 370 373 372 374 371 372 371 369 369 369 370 369 366 368 366 366 367 366 366 366 365 366 365 365 365 366 366 366 365 366 366 366 366 365 365 365 367 367 366 366 366 366 365 367 367 367 368 372 374 373 374 373 370 370 370 369 368 367 366 366 366 367 367 367 367 367 369 370 370 372 371 370 369 368 368 367 368 367 367 366 366 367 367 367 366 365 365 364 365 365 364 364 365 366 368 369 370 371 369 370 373 369 368 370 370 369 366 366 366 365 365 364 364 363 361 362 363 363 363 364 365 365 364 365 366 369 369 371 372 373 372 371 372 372 370 368 366 365 363 364 364 -193 365 364 365 364 365 365 363 363 362 -193 362 -193 364 365 368 372 372 373 371 369 369 367 368 368 366 365 -193 -193 -209 -209 -193 -193 -193 -193 362 364 361 363 362 360 0 0 0 0 0
    0 0 0 0 0 0 0 0 0 0 0 0 0 0 0 0 0 0 0 0 0 0 0 0 0 0 0 0 0 0 0 0 0 0 0 0 0 0 0 0 0 0 0 0 0 0 0 0 0 0 0 0 0 0 0 0 0 0 0 0 0 0 0 0 0 0 0 0 0 369 368 369 370 369 370 367 369 367 367 366 366 365 366 366 367 371 369 370 369 369 370 369 370 369 367 369 367 369 369 368 370 368 372 368 368 368 367 368 368 368 368 368 370 370 369 371 370 371 371 371 370 371 371 370 369 368 367 368 368 368 367 367 369 370 373 372 373 370 372 370 368 368 368 369 369 366 368 367 366 367 366 367 366 365 366 365 364 365 365 365 364 364 366 366 366 367 366 366 366 367 367 367 366 367 366 365 367 367 367 368 372 374 373 374 373 370 370 369 367 367 366 366 366 365 367 367 366 367 367 369 370 371 372 371 370 369 368 368 367 368 367 366 366 366 367 367 367 366 365 366 366 366 366 365 365 365 365 367 367 368 370 369 369 371 368 367 369 369 369 366 366 366 365 366 365 364 364 362 362 363 364 363 363 365 365 363 364 367 370 369 371 372 373 372 371 372 371 368 367 366 365 362 364 -193 -193 -193 364 364 363 364 364 -193 363 -193 -193 -193 -193 365 366 369 372 371 372 370 368 368 366 367 367 365 365 -193 -193 -209 -209 -209 -209 -193 -209 362 364 361 363 361 358 0 0 0 0 0
    0 0 0 0 0 0 0 0 0 0 0 0 0 0 0 0 0 0 0 0 0 0 0 0 0 0 0 0 0 0 0 0 0 0 0 0 0 0 0 0 0 0 0 0 0 0 0 0 0 0 0 0 0 0 0 0 0 0 0 0 0 0 0 0 0 0 0 0 0 369 368 369 371 370 370 368 369 366 368 366 367 366 367 366 367 370 369 368 368 367 368 367 368 367 366 367 366 368 369 367 370 368 372 368 368 368 367 368 367 367 368 367 370 370 370 371 370 371 371 371 371 371 371 370 369 368 367 368 368 368 367 366 368 369 372 371 372 369 372 370 368 369 369 369 370 368 369 368 367 368 367 367 367 365 365 365 364 365 364 365 364 363 366 366 365 366 365 367 366 367 368 368 367 368 367 366 367 367 367 368 371 373 371 373 373 368 368 367 366 366 366 365 366 365 366 366 365 365 366 367 369 370 371 371 371 370 369 368 368 369 367 367 367 367 368 368 368 368 366 367 367 366 366 365 365 365 365 367 367 369 371 369 369 369 366 367 368 367 368 366 366 366 366 367 365 364 364 363 364 364 365 364 364 365 365 364 364 367 370 369 371 372 373 372 372 371 370 368 367 366 364 363 364 362 363 364 363 362 361 362 362 361 362 361 361 361 -193 366 368 370 372 370 371 369 367 367 366 367 366 365 -193 -193 -193 -193 -209 -193 -209 -209 -209 362 364 359 362 358 355 0 0 0 0 0
    0 0 0 0 0 0 0 0 0 0 0 0 0 0 0 0 0 0 0 0 0 0 0 0 0 0 0 0 0 0 0 0 0 0 0 0 0 0 0 0 0 0 0 0 0 0 0 0 0 0 0 0 0 0 0 0 0 0 0 0 0 0 0 0 0 0 0 0 0 -177 367 368 370 369 370 368 371 367 369 367 368 367 368 367 367 370 369 368 367 367 367 366 367 366 365 366 366 367 368 367 370 369 372 369 368 368 367 368 368 368 369 368 370 370 370 371 370 371 371 371 371 371 371 370 369 368 367 368 368 368 367 365 367 367 370 370 370 368 371 369 369 369 369 370 370 369 370 369 368 368 367 368 367 364 365 365 363 365 365 365 364 363 367 366 365 365 365 366 366 367 368 367 367 367 367 366 366 366 366 366 369 371 370 371 371 365 366 365 364 365 365 364 365 365 366 366 366 365 365 366 368 369 370 370 370 369 370 369 369 369 367 367 368 368 369 369 369 369 367 367 367 366 366 365 364 364 363 366 366 367 370 367 368 366 365 366 367 367 367 366 366 366 367 367 365 364 364 364 364 364 365 364 364 365 365 365 365 368 371 371 372 373 374 374 372 371 370 369 367 367 365 364 364 363 364 364 363 363 361 362 361 361 362 361 362 361 -193 366 369 370 372 370 371 369 368 367 366 367 366 365 -193 173 177 180 -209 -193 -209 -209 -209 -209 -209 353 355 349 350 0 0 0 0 0
    0 0 0 0 0 0 0 0 0 0 0 0 0 0 0 0 0 0 0 0 0 0 0 0 0 0 0 0 0 0 0 0 0 0 0 0 0 0 0 0 0 0 0 0 0 0 0 0 0 0 0 0 0 0 0 0 0 0 0 0 0 0 0 0 0 0 0 0 0 366 366 366 369 367 370 368 372 368 370 368 368 368 369 367 368 369 369 367 367 366 366 365 366 365 364 365 365 366 367 366 368 367 372 368 368 368 367 368 368 369 369 368 370 370 370 371 370 372 371 371 371 371 371 371 369 369 368 368 368 368 367 366 368 368 370 369 370 369 371 369 370 370 370 370 370 370 370 370 370 368 368 369 368 365 365 365 364 364 365 365 364 364 366 366 366 366 365 366 366 367 368 367 367 367 367 367 366 366 367 365 367 368 367 368 367 364 363 363 363 364 364 364 366 365 367 367 367 366 366 366 370 369 369 370 369 369 370 370 369 368 367 368 368 368 370 369 369 369 367 368 368 367 367 365 365 364 362 365 365 365 368 366 368 366 365 367 368 367 367 367 367 367 368 368 366 365 366 365 365 365 366 365 366 366 367 366 367 371 373 372 372 374 375 375 372 371 370 369 367 367 365 365 364 363 364 364 364 364 362 363 362 362 363 362 362 362 362 366 369 370 372 371 372 369 368 367 366 366 -193 -193 -193 -177 -177 178 -209 -209 -209 -209 -193 -209 -209 350 347 345 347 0 0 0 0 0
    0 0 0 0 0 0 0 0 0 0 0 0 0 0 0 0 0 0 0 0 0 0 0 0 0 0 0 0 0 0 0 0 0 0 0 0 0 0 0 0 0 0 0 0 0 0 0 0 0 0 0 0 0 0 0 0 0 0 0 0 0 0 0 0 0 0 0 0 0 367 366 366 368 367 370 368 371 369 369 368 368 368 370 367 368 368 368 366 367 366 365 364 365 364 364 365 365 365 366 365 368 367 371 368 368 368 368 369 368 369 369 368 370 370 371 371 371 372 372 371 371 371 371 371 369 368 368 368 368 369 367 367 369 370 371 371 371 370 371 369 370 370 370 371 371 371 371 371 371 369 369 369 368 366 365 365 364 365 365 366 364 365 368 368 367 368 366 368 367 368 368 368 368 368 367 367 367 367 368 365 368 371 370 372 369 365 364 364 364 364 365 365 367 366 368 368 368 367 368 368 371 369 370 371 370 369 370 370 370 368 368 368 368 368 370 370 370 370 368 370 369 369 368 367 367 366 363 366 364 364 368 365 368 365 365 368 369 368 368 368 368 367 369 368 367 365 366 366 365 365 367 366 367 367 368 368 369 372 374 374 373 374 375 375 372 371 369 368 366 365 364 364 364 363 364 365 364 364 363 363 362 362 363 363 363 363 -193 367 370 372 372 -193 371 367 367 366 -193 -193 -193 -193 -193 -177 -177 179 -209 -209 -209 -209 -209 -193 -209 352 349 348 349 0 0 0 0 0
    0 0 0 0 0 0 0 0 0 0 0 0 0 0 0 0 0 0 0 0 0 0 0 0 0 0 0 0 0 0 0 0 0 0 0 0 0 0 0 0 0 0 0 0 0 0 0 0 0 0 0 0 0 0 0 0 0 0 0 0 0 0 0 0 0 0 0 0 0 367 366 366 367 366 368 367 370 369 368 368 368 369 370 368 369 368 368 367 367 366 364 364 364 364 364 365 365 365 367 367 369 369 372 370 369 369 369 370 369 369 370 368 370 370 371 371 371 372 371 371 371 371 371 371 370 368 368 369 369 370 369 370 370 372 373 373 372 371 372 370 371 371 371 371 371 371 371 371 372 370 370 370 369 366 365 366 364 365 365 366 365 366 369 369 369 370 368 369 368 369 369 369 369 368 367 368 367 368 369 367 371 374 374 375 372 368 366 366 366 365 365 365 368 367 369 369 368 368 369 369 372 370 371 372 371 371 371 370 371 369 369 369 368 369 371 370 371 371 370 371 370 370 370 368 369 368 365 369 366 366 369 366 368 365 365 368 369 369 367 367 368 367 369 369 367 366 366 366 365 365 368 367 367 367 369 369 370 373 374 374 374 374 375 376 372 371 369 368 366 366 365 365 365 365 369 371 371 372 368 365 364 365 365 365 365 364 -209 366 -193 372 -193 -209 -193 -193 366 366 -193 -193 -193 -193 -193 -193 -193 -209 -209 -209 -209 -209 -209 354 351 352 353 353 353 0 0 0 0 0
    0 0 0 0 0 0 0 0 0 0 0 0 0 0 0 0 0 0 0 0 0 0 0 0 0 0 0 0 0 0 0 0 0 0 0 0 0 0 0 0 0 0 0 0 0 0 0 0 0 0 0 0 0 0 0 0 0 0 0 0 0 0 0 0 0 0 0 0 0 365 366 365 366 365 367 367 368 368 368 368 368 369 370 370 370 369 369 368 369 367 365 365 365 364 364 365 366 366 368 369 369 369 372 370 369 369 369 370 369 369 370 369 370 371 371 371 371 372 371 372 372 371 371 371 370 369 369 369 369 371 369 370 371 373 373 374 373 372 372 371 372 372 372 372 372 372 372 373 373 371 371 371 370 367 366 366 364 365 365 367 366 368 371 370 370 372 370 371 370 371 371 370 370 370 368 369 368 369 370 368 372 375 376 376 373 371 369 368 368 366 366 366 368 367 369 368 368 369 369 370 372 370 371 372 372 372 372 371 372 369 370 371 369 370 372 371 371 371 371 372 371 371 370 369 370 370 367 373 370 373 372 370 370 366 365 368 369 369 368 369 369 369 370 370 368 367 367 367 366 366 368 368 368 368 370 371 374 375 375 374 373 374 375 376 372 369 368 367 366 367 367 367 367 369 373 374 375 377 374 371 367 368 368 368 369 366 -193 366 370 372 372 -209 -193 364 365 365 365 366 -193 365 365 -193 -193 -209 -209 -209 -209 -209 -209 350 -209 354 -193 362 -209 0 0 0 0 0
    0 0 0 0 0 0 0 0 0 0 0 0 0 0 0 0 0 0 0 0 0 0 0 0 0 0 0 0 0 0 0 0 0 0 0 0 0 0 0 0 0 0 0 0 0 0 0 0 0 0 0 0 0 0 0 0 0 0 0 0 0 0 0 0 0 0 0 0 0 363 364 364 365 364 366 366 367 368 368 368 368 370 371 371 371 370 370 370 370 368 366 366 365 364 364 365 366 366 368 369 369 370 372 370 369 369 369 370 369 369 370 369 371 371 371 372 372 372 372 372 372 371 371 371 370 369 369 370 370 371 370 370 371 373 373 374 373 373 373 372 373 373 373 373 373 373 373 374 374 372 372 372 371 369 368 368 366 367 366 369 367 370 372 371 371 372 371 373 372 373 373 373 372 371 371 371 370 371 372 369 373 377 378 378 374 373 372 370 371 368 367 367 369 369 370 369 369 369 370 370 372 370 371 372 372 372 372 371 372 370 370 371 370 371 373 372 372 372 371 372 372 371 370 369 371 371 370 377 374 377 374 374 373 367 366 368 369 370 369 371 371 370 372 371 370 369 368 368 367 367 369 369 370 370 371 373 376 377 376 375 373 374 375 376 372 369 368 369 368 369 369 369 368 371 374 374 376 377 375 373 370 371 371 370 373 -193 -209 368 372 374 -193 -209 -209 -209 364 -193 -193 366 -193 366 366 -209 -209 -209 -209 -209 -209 -209 -209 -193 -209 359 365 372 378 0 0 0 0 0
    0 0 0 0 0 0 0 0 0 0 0 0 0 0 0 0 0 0 0 0 0 0 0 0 0 0 0 0 0 0 0 0 0 0 0 0 0 0 0 0 0 0 0 0 0 0 0 0 0 0 0 0 0 0 0 0 0 0 0 0 0 0 0 0 0 0 0 0 0 -193 363 363 364 364 366 366 367 369 368 369 369 371 371 372 371 371 370 371 370 369 367 367 365 364 364 365 365 365 368 369 368 369 372 371 369 370 370 371 370 370 370 369 371 371 372 372 372 373 373 373 373 372 372 371 371 369 368 370 370 371 370 371 372 374 374 375 374 374 373 373 374 374 374 374 373 374 374 375 374 373 372 373 372 371 370 370 368 370 368 372 370 372 373 372 371 373 372 374 374 375 375 374 374 373 373 373 372 372 373 370 374 376 379 382 -193 376 377 373 374 372 371 370 371 371 371 370 370 370 371 371 373 371 371 373 372 373 373 372 373 371 372 372 371 372 374 373 373 373 372 373 373 372 371 370 372 372 372 377 377 378 375 375 374 368 367 369 370 371 370 372 372 372 373 373 371 371 370 370 368 367 369 369 370 372 373 374 377 377 376 376 374 375 376 378 373 370 370 371 370 370 370 370 370 373 375 375 376 377 376 375 372 371 371 370 372 -193 -209 366 -209 -209 390 -209 -209 -209 -209 -209 -209 -209 -209 369 371 -209 -209 -209 -209 -209 -193 -209 -209 -209 -209 -193 372 376 380 0 0 0 0 0
    0 0 0 0 0 0 0 0 0 0 0 0 0 0 0 0 0 0 0 0 0 0 0 0 0 0 0 0 0 0 0 0 0 0 0 0 0 0 0 0 0 0 0 0 0 0 0 0 0 0 0 0 0 0 0 0 0 0 0 0 0 0 0 0 0 0 0 0 0 362 363 363 363 364 365 366 367 370 368 370 370 372 372 372 372 371 371 372 371 369 367 368 365 365 364 364 365 365 368 370 368 369 372 371 370 371 371 372 371 371 372 370 372 372 373 373 373 373 373 373 373 372 372 372 371 369 368 371 371 372 371 372 373 375 376 376 375 375 374 375 376 375 375 375 375 375 375 375 375 374 373 373 373 372 372 371 371 372 371 374 372 374 373 373 373 373 373 374 374 375 375 375 374 373 373 373 372 373 373 370 374 376 380 388 381 379 383 375 377 374 374 372 373 372 372 371 370 371 371 371 373 371 372 373 373 373 374 373 374 373 374 375 373 374 376 374 374 374 373 374 373 373 372 371 374 375 376 380 379 380 377 375 374 369 368 369 370 372 371 372 373 372 374 373 372 371 370 370 368 367 369 369 371 373 374 376 378 378 377 377 375 376 378 380 -209 -193 371 372 371 372 371 371 372 374 376 377 377 379 378 378 376 375 374 374 -193 -209 -209 -209 -209 -209 391 -193 -209 -209 -209 -209 -209 -209 -209 -193 373 -209 -209 -209 -209 -209 -193 -209 -209 -209 -209 361 373 377 381 0 0 0 0 0
    0 0 0 0 0 0 0 0 0 0 0 0 0 0 0 0 0 0 0 0 0 0 0 0 0 0 0 0 0 0 0 0 0 0 0 0 0 0 0 0 0 0 0 0 0 0 0 0 0 0 0 0 0 0 0 0 0 0 0 0 0 0 0 0 0 0 0 0 0 362 363 363 364 364 366 367 368 370 369 371 371 372 372 373 373 372 372 373 371 370 368 369 366 365 365 365 365 365 369 370 369 370 373 372 371 372 372 372 372 372 373 371 373 373 373 373 373 373 373 373 373 372 373 372 372 369 368 371 371 372 371 372 374 375 376 376 376 376 374 376 377 376 376 375 375 375 376 376 375 374 374 374 373 374 373 373 373 374 373 376 375 376 374 374 374 374 373 375 374 376 375 375 374 374 373 374 372 373 374 371 375 378 382 390 387 380 387 377 378 376 375 373 373 373 372 372 371 371 372 371 373 371 372 373 373 373 374 373 375 372 375 376 -193 -193 377 -209 375 374 374 375 374 375 374 374 377 379 379 382 382 381 378 376 -193 371 369 370 371 373 372 373 374 373 374 373 372 371 370 371 368 366 368 368 372 374 376 378 379 379 378 378 376 377 379 -209 -209 -209 -209 -209 372 373 372 372 373 376 378 378 379 380 380 380 379 379 -193 377 -209 -209 -209 -209 -209 -209 390 392 -209 -209 386 -193 -209 -209 -209 -209 -209 -209 -209 -209 -209 -209 -209 -209 -209 -209 -209 -193 373 377 382 0 0 0 0 0
    0 0 0 0 0 0 0 0 0 0 0 0 0 0 0 0 0 0 0 0 0 0 0 0 0 0 0 0 0 0 0 0 0 0 0 0 0 0 0 0 0 0 0 0 0 0 0 0 0 0 0 0 0 0 0 0 0 0 0 0 0 0 0 0 0 0 0 0 0 363 363 364 364 365 368 369 369 371 370 372 372 373 373 374 373 373 372 374 372 370 368 369 366 366 366 365 365 365 369 371 370 370 373 373 372 372 372 373 373 374 374 373 374 374 374 374 374 374 373 374 374 372 373 372 372 369 368 370 371 372 372 373 375 375 376 377 377 376 376 378 380 377 377 377 376 376 377 377 376 375 375 375 374 375 375 374 375 375 374 377 376 377 375 375 374 375 374 376 376 377 376 376 375 375 374 375 373 374 375 373 376 380 384 389 389 383 387 380 380 378 -193 375 375 375 374 373 372 372 373 373 374 371 372 373 374 374 373 373 375 373 377 378 -209 -193 -193 -209 378 377 376 378 377 378 377 377 380 382 381 385 384 383 381 378 -193 374 372 372 373 375 373 374 374 374 374 374 373 372 370 372 369 367 370 370 373 375 376 378 380 379 378 -193 -209 -209 -209 -209 -209 -209 93 -209 -209 374 372 -193 374 377 379 379 381 381 382 382 382 384 -193 -209 -193 -209 -209 -209 -209 -193 -193 391 393 390 385 389 391 -193 389 -209 -209 -209 -209 -209 -209 -209 -209 -209 -209 -209 365 369 376 378 383 0 0 0 0 0
    0 0 0 0 0 0 0 0 0 0 0 0 0 0 0 0 0 0 0 0 0 0 0 0 0 0 0 0 0 0 0 0 0 0 0 0 0 0 0 0 0 0 0 0 0 0 0 0 0 0 0 0 0 0 0 0 0 0 0 0 0 0 0 0 0 0 0 0 0 365 364 364 365 365 368 370 370 372 370 -193 -193 374 374 374 374 373 373 374 372 371 369 370 -193 366 365 366 366 367 370 372 372 372 374 373 372 372 373 374 374 374 374 373 375 374 374 374 375 374 374 374 374 373 374 373 373 369 368 370 371 372 372 374 375 376 377 378 378 378 378 380 383 380 381 381 -193 378 380 378 378 377 376 376 376 376 376 375 377 377 376 379 379 380 376 377 376 376 376 378 378 379 378 379 378 377 377 377 375 376 377 376 379 383 387 390 389 386 388 383 383 381 379 377 376 376 374 372 371 373 373 373 373 371 373 374 375 375 374 373 377 377 378 380 -193 -193 -193 -209 384 382 379 382 381 384 -193 381 383 385 383 387 386 385 383 382 -209 -193 375 373 374 -193 374 375 375 374 375 375 374 373 371 372 371 367 -209 -209 -209 -209 -209 -193 380 -209 -209 -209 -209 -209 -209 -209 -209 -193 91 -209 -209 -209 -209 -209 -209 -193 380 380 381 381 382 384 385 388 -209 -193 -209 -209 -209 -209 -209 -209 -193 390 391 387 383 387 389 393 391 390 385 -209 -209 -209 -209 -209 -209 -209 -209 -209 376 -193 -193 380 384 0 0 0 0 0
    0 0 0 0 0 0 0 0 0 0 0 0 0 0 0 0 0 0 0 0 0 0 0 0 0 0 0 0 0 0 0 0 0 0 0 0 0 0 0 0 0 0 0 0 0 0 0 0 0 0 0 0 0 0 0 0 0 0 0 0 0 0 0 0 0 0 0 0 0 365 363 364 365 365 369 372 371 -193 -193 -209 -209 -193 -209 -209 -209 375 374 376 373 372 -209 -193 -209 366 364 363 365 368 372 373 373 373 376 375 373 373 374 374 374 374 375 373 375 375 375 375 376 375 375 376 376 374 -193 377 -209 -193 368 371 372 372 372 373 375 377 378 378 378 378 379 382 386 382 384 384 -193 379 381 379 378 377 376 -193 376 377 377 376 377 378 -209 381 386 384 379 379 377 377 377 380 379 380 380 381 381 381 381 382 379 380 382 380 385 384 388 390 389 388 389 386 386 384 -193 380 378 377 375 372 370 372 373 372 372 372 374 375 375 376 375 375 378 380 379 380 -193 -177 -193 -209 388 388 384 388 389 -193 -193 -193 387 388 386 387 387 386 384 -193 380 -193 -209 -209 -193 -209 -209 375 376 376 376 377 376 375 372 -193 -209 -209 -209 -209 -209 -209 -209 -209 -209 -209 -209 -209 -209 -209 -209 -209 -209 -209 -209 -209 -209 -209 -209 -209 -193 -193 379 379 381 382 -193 385 -193 388 -209 -209 -209 -209 -209 -209 -209 -193 -193 -193 -209 -209 -209 389 391 395 395 394 -209 -209 -209 -209 -209 -209 -209 -209 -209 -209 -209 -209 -193 -193 -193 0 0 0 0 0
    0 0 0 0 0 0 0 0 0 0 0 0 0 0 0 0 0 0 0 0 0 0 0 0 0 0 0 0 0 0 0 0 0 0 0 0 0 0 0 0 0 0 0 0 0 0 0 0 0 0 0 0 0 0 0 0 0 0 0 0 0 0 0 0 0 0 0 0 0 369 363 364 369 -209 -193 -193 -209 -209 -209 -209 -209 -209 -209 -209 -209 -209 -209 -209 -209 -209 -209 -209 -209 -209 -209 -193 364 367 372 374 375 375 378 377 375 375 375 -193 -209 375 376 375 -193 376 375 376 379 378 -193 -193 -193 -193 -193 -193 -209 -209 367 370 372 370 370 372 374 376 377 378 378 378 380 383 387 383 385 -193 -193 380 383 379 378 378 376 -193 376 376 377 375 378 379 614 -193 -193 -193 -193 380 378 378 377 380 380 381 383 384 384 385 385 386 383 387 389 387 -209 -209 390 392 -193 -193 -193 -209 388 -193 -193 -193 381 380 378 -209 -193 372 -193 373 373 372 373 375 374 374 375 375 378 381 -193 -209 -209 -177 -209 -209 -193 392 391 391 393 395 -193 -193 390 390 388 388 388 389 386 -193 -193 -193 -209 -209 -209 -209 -209 -209 -193 377 378 378 377 -193 -209 -209 -209 -209 -209 -209 -209 -209 -209 -209 -209 -209 -209 33 -209 -209 -209 -209 -209 -209 -209 -209 -209 -209 -209 -209 -193 -209 -209 -193 -193 383 -193 -193 -193 -193 -209 -209 -209 -209 -209 -209 -209 -209 -209 -209 -209 -209 -209 392 -209 -193 397 397 -209 -209 -209 -209 -209 -209 -209 -209 911 912 -209 -193 -209 -209 390 0 0 0 0 0</data></disparity>
</opencv_storage>
