<?xml version="1.0"?>
<opencv_storage>
<gps_time_stamp>37870</gps_time_stamp>
<gps_x>-1.3488474845886230e+001</gps_x>
<gps_y>1.4166657924652100e+000</gps_y>
<gps_z>-3.8894052505493164e+000</gps_z>
<image_time_stamp>25764</image_time_stamp>
<disparity type_id="opencv-matrix">
  <rows>92</rows>
  <cols>320</cols>
  <dt>s</dt>
  <data>
    0 0 0 0 0 0 0 0 0 0 0 0 0 0 0 0 0 0 0 0 0 0 0 0 0 0 0 0 0 0 0 0 0 0 0 0 0 0 0 0 0 0 0 0 0 0 0 0 0 0 0 0 0 0 0 0 0 0 0 0 0 0 0 0 0 0 0 0 0 0 0 0 0 0 0 0 0 0 0 0 0 0 0 0 0 0 0 0 0 0 0 0 0 0 0 0 0 0 0 0 9 9 9 0 0 0 0 0 0 0 0 0 0 0 0 -193 0 0 12 10 12 11 10 11 10 12 13 0 0 0 9 0 8 9 10 10 9 0 0 0 0 0 0 0 0 0 0 0 0 -193 -225 -209 -225 -225 -193 0 0 0 0 0 0 0 0 0 -193 -193 -193 -193 0 0 0 0 -193 -193 -209 -209 10 20 14 15 14 -193 960 12 12 12 0 9 0 10 10 9 10 9 10 10 10 10 9 9 12 10 11 11 15 12 12 12 12 10 13 16 13 12 14 14 13 13 13 16 15 16 15 15 15 16 17 16 14 13 16 17 18 17 15 15 17 16 16 16 17 16 17 18 17 17 19 20 19 19 21 21 20 20 21 21 21 21 21 19 20 21 21 20 17 18 17 21 23 23 23 24 26 26 26 26 26 26 27 27 27 25 25 25 26 27 29 29 29 28 29 31 31 31 32 31 31 34 37 38 39 41 42 43 44 45 44 45 45 45 47 45 44 45 43 0 0 0 0 0
    0 0 0 0 0 0 0 0 0 0 0 0 0 0 0 0 0 0 0 0 0 0 0 0 0 0 0 0 0 0 0 0 0 0 0 0 0 0 0 0 0 0 0 0 0 0 0 0 0 0 0 0 0 0 0 0 0 0 0 0 0 0 0 0 0 0 0 0 0 9 0 0 0 0 0 0 0 0 0 0 0 0 0 0 0 0 0 0 0 0 0 0 0 0 0 0 0 0 0 0 9 9 9 0 0 0 0 0 0 0 0 0 0 0 0 0 0 0 11 10 12 11 10 11 10 12 13 0 0 0 9 9 9 10 11 11 10 9 10 9 9 0 0 0 0 0 0 0 0 10 -225 -225 -225 -225 -209 9 0 0 0 0 0 0 0 0 0 0 -193 -193 0 0 0 0 0 0 15 -209 10 20 14 14 13 -193 -193 12 12 12 0 9 0 10 10 9 10 9 9 10 9 9 0 0 -193 10 11 11 15 12 12 12 12 10 13 16 13 12 15 15 13 13 13 16 14 15 14 14 15 17 17 17 14 15 18 18 19 18 16 17 17 17 17 17 17 16 17 18 17 18 19 19 19 19 22 21 20 20 21 21 21 21 21 18 20 22 21 20 18 18 17 21 22 22 23 24 -193 25 25 26 26 26 27 27 27 25 25 25 27 28 29 29 29 29 30 32 32 32 32 32 32 34 37 38 40 42 43 44 45 46 45 46 45 45 47 45 44 45 43 0 0 0 0 0
    0 0 0 0 0 0 0 0 0 0 0 0 0 0 0 0 0 0 0 0 0 0 0 0 0 0 0 0 0 0 0 0 0 0 0 0 0 0 0 0 0 0 0 0 0 0 0 0 0 0 0 0 0 0 0 0 0 0 0 0 0 0 0 0 0 0 0 0 0 9 9 0 0 0 0 0 0 0 0 0 0 0 0 0 0 0 0 0 0 0 0 0 0 0 0 0 0 0 0 0 9 9 9 0 0 0 0 0 0 0 0 0 0 0 0 0 0 0 11 10 12 11 10 11 10 12 13 0 0 0 9 9 9 10 11 11 11 10 11 10 10 10 0 0 0 0 10 10 11 12 -225 -225 -225 -225 -225 10 0 0 0 0 0 -193 0 0 0 0 0 0 0 0 0 0 0 0 14 10 9 20 14 14 13 12 -193 11 12 12 0 0 0 10 10 9 9 9 9 10 9 10 0 0 -193 10 11 11 15 12 12 12 12 10 13 15 13 12 15 15 13 13 13 17 14 15 14 14 15 17 17 17 14 15 19 18 19 18 16 18 17 17 17 17 17 16 17 18 17 18 19 19 19 20 22 21 20 20 21 21 21 21 21 18 21 22 22 20 19 19 18 22 22 22 22 23 -193 25 25 25 26 26 27 27 27 26 25 25 27 28 29 29 29 29 30 32 32 31 31 32 32 34 36 37 39 41 43 44 45 46 44 46 45 45 46 44 44 45 44 0 0 0 0 0
    0 0 0 0 0 0 0 0 0 0 0 0 0 0 0 0 0 0 0 0 0 0 0 0 0 0 0 0 0 0 0 0 0 0 0 0 0 0 0 0 0 0 0 0 0 0 0 0 0 0 0 0 0 0 0 0 0 0 0 0 0 0 0 0 0 0 0 0 0 9 9 0 0 0 0 0 0 0 0 0 0 0 0 0 0 0 0 0 0 0 0 0 0 0 0 0 0 0 0 0 9 9 9 0 0 0 0 0 0 0 0 0 0 0 0 -193 0 0 11 10 12 11 10 11 10 12 13 0 0 0 9 9 9 10 11 11 11 11 11 11 11 11 10 9 9 0 10 10 10 12 -225 -225 -225 -225 -225 9 -193 0 0 0 -193 -193 -193 -209 0 0 0 0 0 0 0 0 0 0 14 0 0 -177 13 14 12 12 -193 11 12 12 0 0 0 9 9 9 9 0 9 10 9 10 0 9 -177 11 12 12 15 11 11 11 11 10 13 14 13 12 15 14 13 13 12 15 12 12 12 12 13 14 15 15 13 16 19 18 18 18 17 18 18 18 18 16 17 17 16 18 17 17 18 19 19 20 22 21 20 20 21 21 21 21 21 17 22 23 22 21 21 20 20 22 21 21 22 23 -193 24 25 25 26 26 27 27 27 26 26 26 27 29 29 29 29 29 31 33 32 31 31 32 33 34 35 37 37 40 42 43 43 44 44 45 45 45 46 44 45 46 45 0 0 0 0 0
    0 0 0 0 0 0 0 0 0 0 0 0 0 0 0 0 0 0 0 0 0 0 0 0 0 0 0 0 0 0 0 0 0 0 0 0 0 0 0 0 0 0 0 0 0 0 0 0 0 0 0 0 0 0 0 0 0 0 0 0 0 0 0 0 0 0 0 0 0 9 9 0 0 0 0 0 0 0 0 0 0 0 0 0 0 0 0 0 0 0 0 0 0 0 0 0 0 0 0 0 9 9 0 0 0 0 0 0 0 0 0 0 0 0 -193 -193 0 0 11 10 12 11 10 11 10 12 12 0 0 0 9 10 9 10 11 11 11 11 11 12 11 11 10 9 0 0 9 10 10 11 10 11 11 -225 -209 -193 -209 0 0 0 -193 -193 -193 -209 0 0 0 0 0 0 0 0 0 0 13 0 0 -177 13 13 12 12 -193 11 11 12 0 0 0 9 9 9 0 0 9 10 9 10 0 9 -177 11 12 12 14 11 10 11 11 9 12 13 12 12 15 14 12 12 13 14 12 12 12 12 13 15 15 15 13 17 19 17 18 18 17 18 18 18 17 16 18 17 17 18 17 17 18 20 20 20 22 21 21 21 21 21 21 21 21 15 22 23 22 21 22 21 22 22 21 21 22 23 24 24 24 25 25 26 27 27 27 27 26 27 28 30 30 30 29 29 31 33 32 31 31 32 32 33 35 36 36 39 41 41 42 43 43 45 44 45 45 45 45 46 46 0 0 0 0 0
    0 0 0 0 0 0 0 0 0 0 0 0 0 0 0 0 0 0 0 0 0 0 0 0 0 0 0 0 0 0 0 0 0 0 0 0 0 0 0 0 0 0 0 0 0 0 0 0 0 0 0 0 0 0 0 0 0 0 0 0 0 0 0 0 0 0 0 0 0 9 9 0 0 0 0 0 0 0 0 0 0 0 0 0 0 0 0 0 0 0 0 0 0 0 0 0 0 0 0 0 9 9 0 0 0 0 0 0 0 0 0 0 0 0 -193 -193 0 0 11 10 12 11 10 11 10 12 13 9 0 0 9 9 9 10 11 12 11 12 12 12 12 12 12 12 10 0 10 12 11 13 11 -193 -193 -193 -209 -209 -209 0 0 0 -193 -209 -193 -193 0 0 0 0 0 0 0 0 0 0 12 0 0 -177 12 13 12 11 -193 10 11 12 0 0 0 9 9 9 0 0 9 10 10 11 9 9 -193 11 12 12 13 10 10 10 10 9 12 13 11 12 15 13 12 12 14 14 12 12 12 12 13 15 15 14 13 17 19 17 18 18 17 18 18 18 17 17 18 18 17 18 17 17 19 21 20 20 22 21 21 21 22 22 21 22 21 14 23 24 23 22 22 22 22 22 21 20 22 23 23 24 24 25 25 26 27 27 27 27 27 27 29 31 29 29 29 29 30 33 31 31 31 32 33 33 34 36 36 38 40 40 41 42 43 45 44 45 46 45 46 47 46 0 0 0 0 0
    0 0 0 0 0 0 0 0 0 0 0 0 0 0 0 0 0 0 0 0 0 0 0 0 0 0 0 0 0 0 0 0 0 0 0 0 0 0 0 0 0 0 0 0 0 0 0 0 0 0 0 0 0 0 0 0 0 0 0 0 0 0 0 0 0 0 0 0 0 0 0 0 0 0 0 0 0 0 0 0 0 0 0 0 0 0 0 0 0 0 0 0 0 0 0 0 0 0 0 0 9 0 0 0 0 0 0 0 0 0 0 0 0 0 -193 -193 0 0 10 10 12 11 10 11 10 12 13 9 9 0 9 10 10 12 11 13 12 12 13 13 12 12 12 14 12 11 12 15 13 16 12 11 10 -209 -193 -209 -193 0 -193 -193 -209 -209 -193 -193 0 0 0 0 0 0 0 0 0 9 14 0 0 -177 12 13 12 11 -193 10 11 12 0 8 0 9 9 10 9 9 10 11 11 11 10 10 -193 12 13 13 13 10 10 10 10 9 11 12 11 12 14 12 11 11 15 13 12 13 12 13 13 15 15 14 14 17 18 16 17 18 17 18 18 17 17 17 19 18 17 18 17 18 20 21 20 21 23 22 22 22 23 23 22 23 22 15 24 24 23 23 22 22 22 22 20 20 22 23 23 24 24 25 25 26 27 26 26 27 27 28 29 31 29 30 30 29 31 33 31 31 32 33 33 33 34 36 35 37 39 39 40 42 42 44 43 45 46 46 46 47 47 0 0 0 0 0
    0 0 0 0 0 0 0 0 0 0 0 0 0 0 0 0 0 0 0 0 0 0 0 0 0 0 0 0 0 0 0 0 0 0 0 0 0 0 0 0 0 0 0 0 0 0 0 0 0 0 0 0 0 0 0 0 0 0 0 0 0 0 0 0 0 0 0 0 0 0 0 0 0 0 0 0 0 0 0 0 0 0 0 0 0 0 0 0 0 0 0 0 0 0 0 0 0 0 0 0 9 9 0 0 0 0 0 0 0 0 0 0 0 0 -193 -193 0 0 11 10 12 11 10 10 10 12 13 9 9 0 9 10 11 13 12 14 13 13 13 13 12 12 12 13 11 9 11 13 14 17 13 12 10 -209 -193 -193 -209 -193 -193 -193 -209 9 9 9 9 9 9 0 0 0 0 0 10 10 16 0 0 -177 12 13 12 -193 -193 10 12 12 9 9 0 10 10 10 11 10 11 12 11 12 10 11 13 12 13 13 12 10 10 10 10 9 11 11 10 11 13 11 10 10 15 13 12 13 13 13 14 15 16 14 14 17 18 16 18 19 17 18 18 17 18 18 19 18 17 18 17 18 20 20 20 21 23 23 23 23 24 24 23 23 23 18 24 23 23 22 21 21 21 22 20 20 22 23 23 24 24 25 25 27 27 26 26 27 28 28 29 32 30 30 30 30 32 33 32 32 33 34 34 33 33 36 34 36 37 37 39 41 42 43 43 44 46 46 47 47 47 0 0 0 0 0
    0 0 0 0 0 0 0 0 0 0 0 0 0 0 0 0 0 0 0 0 0 0 0 0 0 0 0 0 0 0 0 0 0 0 0 0 0 0 0 0 0 0 0 0 0 0 0 0 0 0 0 0 0 0 0 0 0 0 0 0 0 0 0 0 0 0 0 0 0 0 0 0 0 9 0 0 0 0 0 0 0 0 0 0 0 0 0 0 0 0 0 0 0 0 0 0 0 0 0 0 9 9 0 0 0 0 0 0 0 0 0 0 0 0 -193 -193 0 0 11 10 12 12 10 10 10 12 12 0 0 0 0 9 11 12 12 14 14 14 14 13 12 12 12 12 12 9 11 -225 14 17 13 12 11 -209 -193 -209 -209 -193 0 0 -209 10 10 10 10 10 10 9 9 0 0 0 10 10 16 0 0 16 12 13 12 -193 -193 10 11 12 9 9 0 10 10 11 11 10 11 12 12 13 11 11 13 12 13 13 12 10 10 10 10 9 11 11 10 12 13 12 11 10 16 13 12 13 13 13 14 15 16 14 14 17 18 16 18 19 18 18 17 18 18 18 19 17 16 18 17 18 19 19 20 20 22 22 22 22 23 23 23 23 23 19 22 22 22 21 20 21 21 21 20 21 22 24 23 24 24 25 25 26 26 26 26 27 27 27 28 31 29 29 30 30 32 33 32 32 33 34 34 32 32 35 33 34 36 35 37 39 41 42 42 44 46 46 47 48 48 0 0 0 0 0
    0 0 0 0 0 0 0 0 0 0 0 0 0 0 0 0 0 0 0 0 0 0 0 0 0 0 0 0 0 0 0 0 0 0 0 0 0 0 0 0 0 0 0 0 0 0 0 0 0 0 0 0 0 0 0 0 0 0 0 0 0 0 0 0 0 0 0 0 0 0 0 0 0 0 0 0 0 0 0 0 0 0 0 0 0 0 0 0 0 0 0 0 0 0 0 0 0 0 0 0 10 10 9 0 0 0 0 0 0 0 0 0 0 0 -193 -193 0 0 11 10 13 12 10 11 11 12 12 0 0 0 0 0 10 10 11 14 14 14 14 12 12 11 12 12 12 10 -225 -225 -225 -225 14 13 11 -193 -193 0 -193 -193 -193 0 -209 9 10 10 10 10 10 10 9 9 9 9 10 10 15 -193 0 15 11 12 11 -193 -193 10 11 12 9 9 0 10 10 11 11 11 11 12 12 13 11 12 13 12 13 13 11 10 9 10 10 0 10 10 10 11 13 12 11 11 16 13 13 14 13 14 14 16 16 14 15 17 17 16 18 19 17 18 18 18 18 18 19 17 16 18 17 18 19 20 20 20 23 22 22 22 23 23 23 23 22 18 22 22 22 21 20 21 22 21 21 21 23 24 24 24 24 25 25 26 26 26 26 27 27 28 29 32 30 30 31 30 33 33 32 32 33 34 34 32 32 35 32 33 34 34 36 37 39 40 40 43 45 46 47 48 49 0 0 0 0 0
    0 0 0 0 0 0 0 0 0 0 0 0 0 0 0 0 0 0 0 0 0 0 0 0 0 0 0 0 0 0 0 0 0 0 0 0 0 0 0 0 0 0 0 0 0 0 0 0 0 0 0 0 0 0 0 0 0 0 0 0 0 0 0 0 0 0 0 0 0 0 0 0 0 0 0 0 0 0 0 0 0 0 0 0 0 0 0 0 0 0 0 0 0 0 0 0 0 0 0 0 10 11 10 0 0 0 0 0 0 0 0 0 0 0 -193 -193 0 0 12 10 13 12 10 11 10 12 12 0 0 0 0 0 9 0 10 13 13 13 13 11 11 11 12 12 12 10 -225 -225 -225 -225 15 14 12 -193 0 0 -193 0 -193 0 -209 9 9 9 9 10 10 9 9 9 9 9 10 11 14 0 0 14 11 12 11 -193 -193 9 11 12 9 9 0 9 9 11 11 10 11 12 11 12 11 11 13 12 13 12 10 10 9 9 10 0 10 10 9 11 12 11 11 11 16 13 13 14 13 14 15 16 16 14 15 16 16 16 17 18 17 18 18 18 17 18 18 17 17 18 17 18 19 20 20 21 22 21 22 22 23 22 22 22 22 18 22 21 22 21 21 22 22 22 22 22 24 24 24 25 25 25 26 26 26 26 26 27 28 29 29 33 31 31 31 30 33 33 32 32 33 34 33 32 32 35 32 33 34 33 34 36 38 39 38 43 46 46 47 49 49 0 0 0 0 0
    0 0 0 0 0 0 0 0 0 0 0 0 0 0 0 0 0 0 0 0 0 0 0 0 0 0 0 0 0 0 0 0 0 0 0 0 0 0 0 0 0 0 0 0 0 0 0 0 0 0 0 0 0 0 0 0 0 0 0 0 0 0 0 0 0 0 0 0 0 0 0 0 0 0 0 0 0 0 0 0 0 0 0 0 0 0 0 0 0 0 0 0 0 0 0 0 0 0 0 0 10 12 11 0 0 0 0 0 0 0 0 0 0 0 -193 -193 0 0 12 10 13 12 10 10 10 11 12 0 0 0 0 0 9 0 11 13 13 13 13 11 12 11 12 12 12 10 -225 -225 15 19 16 13 11 -193 0 0 -193 0 -193 0 -193 0 0 9 9 9 9 9 9 9 9 9 11 12 14 0 0 12 10 11 10 -193 -193 -193 10 11 9 9 0 9 9 10 10 10 11 11 11 12 10 10 12 11 11 11 0 9 9 9 10 0 10 10 10 11 13 12 11 11 16 12 13 14 13 13 15 15 15 13 15 16 16 16 18 17 17 17 18 17 17 17 18 16 17 18 17 18 19 20 20 21 22 21 21 22 22 22 21 21 21 17 21 21 22 21 21 22 23 22 23 23 24 25 25 25 25 26 26 27 27 26 27 28 29 30 30 33 31 32 32 30 33 33 32 32 34 34 33 32 32 35 32 33 33 32 33 35 37 38 36 42 47 47 48 50 49 0 0 0 0 0
    0 0 0 0 0 0 0 0 0 0 0 0 0 0 0 0 0 0 0 0 0 0 0 0 0 0 0 0 0 0 0 0 0 0 0 0 0 0 0 0 0 0 0 0 0 0 0 0 0 0 0 0 0 0 0 0 0 0 0 0 0 0 0 0 0 0 0 0 0 0 0 0 0 0 0 0 0 0 0 0 0 0 0 0 0 0 0 0 0 0 0 0 0 0 0 0 0 0 0 0 10 12 11 0 0 0 0 0 0 0 0 0 0 0 -193 -193 0 0 12 11 13 12 10 11 10 11 12 0 0 0 0 0 10 9 11 14 14 13 13 11 12 11 12 12 11 9 -225 -225 13 18 14 0 9 0 0 0 0 0 0 0 -193 0 0 0 9 9 9 9 9 9 10 10 12 14 16 -193 0 -193 9 10 -193 -193 -193 -193 10 10 9 9 0 9 0 10 10 10 10 11 10 11 9 9 11 10 10 10 0 0 0 9 9 0 10 10 10 12 13 13 12 12 16 13 16 16 14 15 16 16 16 14 16 15 15 16 18 16 16 18 17 17 17 17 18 16 17 18 17 18 20 20 20 21 22 21 21 22 22 21 20 20 20 17 21 21 21 21 22 23 23 23 23 24 25 25 25 25 25 26 27 27 27 26 27 28 30 30 30 32 31 31 31 29 33 31 31 31 34 34 32 32 32 35 32 32 33 31 32 34 36 37 34 42 48 48 48 50 49 0 0 0 0 0
    0 0 0 0 0 0 0 0 0 0 0 0 0 0 0 0 0 0 0 0 0 0 0 0 0 0 0 0 0 0 0 0 0 0 0 0 0 0 0 0 0 0 0 0 0 0 0 0 0 0 0 0 0 0 0 0 0 0 0 0 0 0 0 0 0 0 0 0 0 0 0 0 0 0 0 0 0 0 0 0 0 0 0 0 0 0 0 0 0 0 0 0 0 0 0 0 0 0 0 0 11 13 12 0 0 9 0 0 0 0 0 0 0 0 -193 -193 0 0 12 11 13 12 10 11 11 11 12 0 0 0 0 0 10 9 11 13 14 13 13 11 11 10 11 11 11 9 -225 -225 -225 -225 -209 0 0 0 0 0 0 0 0 0 0 0 0 0 9 9 10 10 10 9 11 10 12 15 17 -209 0 -209 9 9 9 -193 -193 0 9 9 9 9 0 9 0 10 9 9 10 11 10 11 9 9 10 10 10 10 0 0 0 0 9 0 10 10 9 11 12 13 12 12 15 12 17 16 14 15 15 15 15 15 16 14 15 16 18 16 16 17 17 17 17 17 18 16 17 18 17 18 20 20 20 21 22 21 21 21 22 20 20 20 20 18 21 21 21 20 22 23 23 23 23 24 25 26 26 26 26 26 26 27 27 26 27 28 30 30 30 32 31 31 31 29 32 31 31 32 34 33 32 31 32 34 32 32 32 31 32 34 36 37 34 42 48 48 47 50 48 0 0 0 0 0
    0 0 0 0 0 0 0 0 0 0 0 0 0 0 0 0 0 0 0 0 0 0 0 0 0 0 0 0 0 0 0 0 0 0 0 0 0 0 0 0 0 0 0 0 0 0 0 0 0 0 0 0 0 0 0 0 0 0 0 0 0 0 0 0 0 0 0 0 0 0 0 0 0 0 0 0 0 0 0 0 0 9 0 0 9 0 0 0 0 0 0 0 0 0 0 0 0 0 0 0 11 13 13 0 9 10 0 0 0 0 -193 0 0 9 -193 -193 0 0 12 11 13 12 10 10 10 11 12 0 0 0 0 0 9 0 10 10 12 11 11 9 10 0 10 9 10 0 -225 -225 -225 -225 -225 0 0 0 0 -193 -193 0 0 0 9 0 9 9 9 10 10 10 10 10 11 11 12 14 -193 -193 0 -209 0 0 0 -193 0 0 9 9 0 9 0 9 0 9 9 9 10 10 9 10 0 0 9 10 9 9 0 0 0 0 9 0 11 10 10 12 13 13 13 13 15 12 18 16 14 15 15 15 15 15 15 14 16 16 18 16 16 17 17 17 17 17 17 15 17 18 17 18 20 19 19 20 22 20 20 21 21 19 20 20 20 18 21 21 21 21 22 23 24 23 24 25 25 26 27 26 26 26 26 27 27 27 28 29 30 30 29 33 31 31 31 29 32 31 31 33 33 32 32 31 32 34 33 33 33 32 34 36 37 38 36 43 48 48 47 50 49 0 0 0 0 0
    0 0 0 0 0 0 0 0 0 0 0 0 0 0 0 0 0 0 0 0 0 0 0 0 0 0 0 0 0 0 0 0 0 0 0 0 0 0 0 0 0 0 0 0 0 0 0 0 0 0 0 0 0 0 0 0 0 0 0 0 0 0 0 0 0 0 0 0 0 0 0 0 0 0 0 0 0 0 0 0 0 0 0 0 9 0 0 0 0 0 0 0 0 0 0 0 0 0 0 0 11 13 13 0 9 10 0 -193 -193 -193 -193 0 0 9 -193 -193 0 0 12 11 13 11 10 10 10 11 11 0 0 0 0 0 0 0 0 0 0 0 9 0 0 0 0 0 0 0 -225 -225 -225 -225 -225 -193 -209 -193 0 10 -209 -193 9 10 10 0 9 9 9 10 10 10 10 10 11 10 11 11 -193 -193 0 0 0 0 0 0 0 0 0 0 0 0 0 9 0 9 0 0 9 9 0 0 0 0 0 9 0 9 0 0 0 0 9 0 12 11 10 12 13 15 14 14 14 12 19 16 13 15 15 15 15 15 15 14 15 16 18 16 16 17 17 17 17 17 17 14 18 18 17 18 20 19 19 21 21 19 19 20 19 18 19 19 19 19 21 21 21 22 23 24 24 24 25 26 26 27 27 26 27 26 27 28 28 29 30 30 32 31 30 34 32 32 30 29 32 30 30 32 31 31 31 31 32 34 34 34 34 35 36 39 40 40 39 44 48 49 47 50 49 0 0 0 0 0
    0 0 0 0 0 0 0 0 0 0 0 0 0 0 0 0 0 0 0 0 0 0 0 0 0 0 0 0 0 0 0 0 0 0 0 0 0 0 0 0 0 0 0 0 0 0 0 0 0 0 0 0 0 0 0 0 0 0 0 0 0 0 0 0 0 0 0 0 0 0 0 0 0 0 0 0 0 0 0 0 0 0 0 0 10 0 0 -177 0 0 0 0 0 0 0 0 0 0 0 0 11 13 13 9 9 11 -193 -193 -193 349 -193 0 0 9 -193 131 0 0 11 10 12 11 9 10 10 11 11 0 0 0 0 0 0 0 0 0 0 0 0 0 0 0 0 0 0 0 -225 -225 -225 0 -225 -193 -209 -209 -209 -193 -209 -193 10 10 10 0 0 0 9 9 9 9 9 9 11 10 11 12 -193 -193 0 0 0 0 0 0 0 0 0 0 0 0 0 0 0 0 0 0 9 9 0 0 0 0 0 0 0 9 0 0 0 0 9 9 13 11 11 12 14 15 15 14 13 10 19 16 13 15 14 15 15 15 15 14 15 16 18 15 16 17 17 17 17 17 17 14 18 18 17 19 20 19 20 21 22 19 19 20 19 18 19 19 18 18 21 21 21 22 23 24 25 25 26 26 26 27 27 26 27 27 27 28 28 29 30 30 32 32 31 34 32 32 30 28 32 30 30 31 30 30 30 31 32 34 34 35 35 36 38 40 41 41 41 45 49 50 48 50 49 0 0 0 0 0
    0 0 0 0 0 0 0 0 0 0 0 0 0 0 0 0 0 0 0 0 0 0 0 0 0 0 0 0 0 0 0 0 0 0 0 0 0 0 0 0 0 0 0 0 0 0 0 0 0 0 0 0 0 0 0 0 0 0 0 0 0 0 0 0 0 0 0 0 0 0 0 0 0 0 0 0 0 0 0 0 0 0 0 0 9 0 0 8 0 0 0 0 0 0 0 0 0 0 0 0 10 12 12 9 9 11 9 -193 -193 348 -193 0 0 0 -193 131 0 0 10 10 11 10 9 9 9 10 11 0 0 0 0 0 0 0 0 0 0 0 0 0 0 0 0 0 0 0 -225 0 0 0 -193 -193 -209 -209 -209 -209 -209 -193 9 10 -193 0 0 0 0 0 0 0 0 0 10 -193 -193 -193 -193 -193 0 0 0 0 0 0 0 0 0 0 0 0 0 0 0 0 0 0 9 9 0 0 0 0 -193 0 0 10 0 0 0 0 9 9 14 12 11 13 14 16 15 14 13 10 19 15 13 15 14 15 14 15 15 14 16 16 18 15 16 17 17 17 17 17 17 14 18 18 17 20 21 20 21 23 22 19 20 20 19 18 19 19 18 19 22 22 22 22 24 24 25 25 26 26 26 27 27 26 27 27 27 28 28 29 30 30 33 32 31 34 32 33 30 28 32 29 29 30 29 29 29 30 32 33 35 35 36 37 39 41 42 41 42 45 49 50 49 50 49 0 0 0 0 0
    0 0 0 0 0 0 0 0 0 0 0 0 0 0 0 0 0 0 0 0 0 0 0 0 0 0 0 0 0 0 0 0 0 0 0 0 0 0 0 0 0 0 0 0 0 0 0 0 0 0 0 0 0 0 0 0 0 0 0 0 0 0 0 0 0 0 0 0 0 0 0 0 0 0 0 0 0 0 0 0 0 0 0 0 9 0 9 9 0 0 0 0 0 0 0 0 0 0 0 0 10 11 11 9 9 11 9 9 -193 349 -193 0 0 0 0 -193 0 0 9 9 11 10 9 9 9 10 10 0 0 0 10 12 12 0 9 0 0 0 0 0 0 0 0 0 0 0 0 0 0 0 -193 -193 -193 -193 -209 -193 -209 0 0 10 -193 0 0 0 0 0 0 0 0 0 10 -193 -193 -193 -193 -193 9 0 0 0 0 0 0 0 0 0 0 0 0 0 0 0 0 0 9 9 9 9 0 9 -193 0 0 11 0 0 9 9 10 10 15 12 11 14 15 16 16 14 13 10 19 15 13 15 14 14 14 16 16 15 16 16 18 15 16 17 16 17 17 16 17 13 18 18 17 20 20 20 22 24 23 20 20 21 19 19 19 20 19 20 22 22 22 23 24 25 25 26 26 26 26 26 26 25 26 26 26 27 27 28 29 30 32 31 30 34 32 33 30 28 31 29 29 30 29 28 29 30 32 32 35 36 36 38 40 42 42 42 43 45 48 49 48 50 49 0 0 0 0 0
    0 0 0 0 0 0 0 0 0 0 0 0 0 0 0 0 0 0 0 0 0 0 0 0 0 0 0 0 0 0 0 0 0 0 0 0 0 0 0 0 0 0 0 0 0 0 0 0 0 0 0 0 0 0 0 0 0 0 0 0 0 0 0 0 0 0 0 0 0 0 0 0 0 0 0 0 0 9 9 9 9 9 0 0 9 9 9 9 0 0 9 0 0 0 0 0 0 0 0 0 9 11 11 0 9 11 9 9 -193 349 -193 0 0 0 0 -193 0 0 0 0 10 9 9 9 9 10 10 0 0 0 10 12 12 10 10 0 0 0 0 0 0 0 0 0 0 0 0 0 0 0 -193 -193 -193 -193 -193 0 0 0 0 10 -193 0 0 0 0 0 0 0 0 9 11 10 12 19 23 11 10 0 0 0 0 0 0 0 0 0 0 0 0 0 0 0 0 0 9 10 9 9 9 10 10 9 9 12 9 9 9 9 10 11 17 13 12 15 17 17 16 14 13 11 18 15 13 14 14 14 15 16 16 15 16 16 18 16 16 17 16 16 17 16 17 12 18 19 17 20 20 20 22 23 22 21 21 22 20 20 20 20 19 21 22 22 22 23 24 24 25 26 25 25 26 26 26 25 26 26 26 27 27 28 28 30 32 31 30 32 31 33 30 28 31 28 29 30 29 28 29 31 32 33 36 37 38 40 41 43 43 43 44 46 47 48 48 49 49 0 0 0 0 0
    0 0 0 0 0 0 0 0 0 0 0 0 0 0 0 0 0 0 0 0 0 0 0 0 0 0 0 0 0 0 0 0 0 0 0 0 0 0 0 0 0 0 0 0 0 0 0 0 0 0 0 0 0 0 0 0 0 0 0 0 0 0 0 0 0 0 0 0 0 0 0 0 0 0 0 0 8 10 9 9 9 9 0 0 10 9 9 9 9 9 9 0 0 0 0 0 0 0 0 0 9 10 10 0 9 11 0 0 0 -193 0 0 0 0 0 0 0 0 0 0 10 9 0 9 0 9 10 9 9 0 9 9 9 0 0 0 0 0 0 0 0 0 0 0 0 0 0 0 0 0 0 0 -193 -193 -193 0 -193 0 0 11 -193 0 0 0 0 0 0 0 0 9 11 10 11 15 22 11 11 0 0 0 0 -193 0 0 0 0 9 9 0 0 0 0 9 0 9 9 9 10 10 11 10 10 10 13 10 10 10 10 10 11 17 13 12 15 17 17 16 14 13 11 18 14 13 14 13 14 15 16 16 15 16 16 19 16 16 16 16 16 16 16 17 12 18 19 18 21 21 20 22 23 22 21 22 22 21 20 21 21 20 22 23 23 23 24 25 24 25 26 24 24 25 24 25 25 25 25 25 26 27 27 28 30 32 31 29 32 30 33 30 29 31 29 29 31 29 28 29 32 34 35 39 39 40 42 42 44 44 44 44 46 47 48 48 49 48 0 0 0 0 0
    0 0 0 0 0 0 0 0 0 0 0 0 0 0 0 0 0 0 0 0 0 0 0 0 0 0 0 0 0 0 0 0 0 0 0 0 0 0 0 0 0 0 0 0 0 0 0 0 0 0 0 0 0 0 0 0 0 0 0 0 0 0 0 0 0 0 0 0 0 0 0 0 0 0 0 0 0 9 9 9 9 9 0 0 10 9 9 10 9 9 9 0 0 0 0 0 0 0 0 0 9 9 9 0 9 10 0 0 0 0 0 0 0 0 0 0 0 0 0 0 9 9 0 0 0 9 9 9 9 0 9 0 0 0 0 0 0 0 0 0 0 0 0 0 0 0 0 0 0 0 0 0 0 -193 -193 0 14 11 11 13 -193 9 0 -193 0 0 0 0 0 9 11 11 11 14 21 11 11 0 0 0 0 -193 0 0 0 0 9 9 0 0 0 0 9 0 9 9 0 9 10 10 10 10 10 14 10 10 10 10 11 12 17 13 11 16 16 17 15 14 13 11 17 14 12 14 13 14 15 16 16 15 15 16 19 16 16 16 16 16 16 16 17 12 19 19 19 21 21 20 22 23 22 21 21 22 20 20 21 21 21 22 23 23 23 24 24 23 24 26 25 25 25 25 25 25 25 25 24 26 26 26 27 29 31 30 28 30 29 33 30 30 32 29 30 32 30 29 31 34 36 37 40 41 42 43 43 44 44 44 44 45 46 47 48 49 48 0 0 0 0 0
    0 0 0 0 0 0 0 0 0 0 0 0 0 0 0 0 0 0 0 0 0 0 0 0 0 0 0 0 0 0 0 0 0 0 0 0 0 0 0 0 0 0 0 0 0 0 0 0 0 0 0 0 0 0 0 0 0 0 0 0 0 0 0 0 0 0 0 0 0 0 0 0 0 0 0 0 0 9 9 9 9 9 0 9 10 9 9 10 9 9 9 0 0 0 0 0 0 0 0 0 0 0 0 0 9 9 0 0 0 0 0 0 0 0 0 0 0 0 0 0 9 0 0 0 0 9 9 9 9 0 0 0 0 0 0 0 0 0 0 0 0 0 0 0 0 0 0 0 0 0 0 0 0 -209 12 12 15 12 12 14 11 9 0 0 0 0 0 0 0 9 10 10 11 15 20 11 11 0 0 0 0 0 0 0 0 0 9 10 0 0 0 9 9 0 9 0 0 9 9 10 10 10 10 15 10 10 10 11 11 12 17 13 11 16 16 17 14 13 13 11 16 14 12 13 12 14 15 16 16 15 15 16 19 16 16 16 16 15 15 17 17 12 18 18 19 20 20 19 21 23 22 21 21 22 20 20 21 21 20 21 22 22 22 24 24 23 23 26 24 24 25 24 24 24 25 25 24 25 25 25 27 29 31 29 28 29 29 34 31 30 32 29 30 32 30 30 31 35 37 38 41 42 43 44 43 44 44 44 44 45 46 47 48 49 48 0 0 0 0 0
    0 0 0 0 0 0 0 0 0 0 0 0 0 0 0 0 0 0 0 0 0 0 0 0 0 0 0 0 0 0 0 0 0 0 0 0 0 0 0 0 0 0 0 0 0 0 0 0 0 0 0 0 0 0 0 0 0 0 0 0 0 0 0 0 0 0 0 0 0 0 0 0 0 9 9 9 9 11 10 9 10 9 0 9 9 9 9 10 9 9 10 0 0 0 0 0 0 0 0 0 0 0 9 0 9 9 0 0 0 0 0 0 0 0 0 0 0 0 0 0 0 0 0 0 0 0 0 9 9 0 0 0 0 0 0 0 0 0 0 0 0 0 0 0 0 0 0 0 0 9 -193 -193 -193 -193 12 11 12 10 10 10 9 9 0 0 0 0 0 0 0 0 9 10 10 14 19 11 11 0 0 0 0 0 0 0 0 0 9 10 0 0 0 0 0 0 0 0 0 9 9 10 10 10 10 15 11 11 11 11 11 13 17 14 11 17 16 16 14 13 12 11 16 14 12 13 12 14 15 15 16 14 14 15 19 16 16 16 15 15 16 17 17 12 18 19 19 20 20 18 22 23 22 22 22 21 20 20 21 21 20 21 22 22 22 23 23 23 23 24 23 24 24 23 23 23 24 24 24 25 25 25 27 28 32 29 28 29 29 35 32 31 33 30 30 31 31 31 32 36 38 39 42 43 43 44 43 44 43 43 43 44 45 46 48 49 48 0 0 0 0 0
    0 0 0 0 0 0 0 0 0 0 0 0 0 0 0 0 0 0 0 0 0 0 0 0 0 0 0 0 0 0 0 0 0 0 0 0 0 0 0 0 0 0 0 0 0 0 0 0 0 0 0 0 0 0 0 0 0 0 0 0 0 0 0 0 0 0 0 0 0 0 0 0 0 9 9 9 9 11 10 10 10 9 9 9 9 9 9 9 9 8 9 0 0 0 0 0 0 0 0 0 0 0 9 0 9 0 0 0 0 0 0 0 0 0 0 0 0 0 0 0 0 0 0 0 0 0 0 9 10 0 9 0 0 0 0 0 0 0 0 9 9 9 0 9 0 0 0 9 10 10 10 -193 -193 -193 11 10 11 8 0 0 0 0 0 0 0 0 0 9 0 0 9 9 10 13 -193 11 11 0 0 0 0 0 0 0 0 0 9 10 0 0 0 0 0 0 0 0 0 0 9 10 10 10 10 16 11 11 11 11 11 13 17 13 11 16 15 16 14 13 12 11 17 14 12 12 12 13 15 16 17 14 14 15 20 16 16 16 15 15 16 17 17 12 18 19 19 20 19 18 21 22 22 22 22 21 20 20 20 21 19 21 21 21 21 22 23 23 23 24 23 23 24 23 23 23 23 23 23 24 24 22 25 27 30 27 26 27 28 36 33 32 33 30 31 32 32 33 33 37 38 40 42 44 44 44 43 43 43 43 43 44 44 44 47 48 47 0 0 0 0 0
    0 0 0 0 0 0 0 0 0 0 0 0 0 0 0 0 0 0 0 0 0 0 0 0 0 0 0 0 0 0 0 0 0 0 0 0 0 0 0 0 0 0 0 0 0 0 0 0 0 0 0 0 0 0 0 0 0 0 0 0 0 0 0 0 0 0 0 0 0 0 0 0 0 0 0 0 0 10 9 9 10 9 0 9 9 9 0 9 9 0 9 0 0 0 0 0 0 0 0 0 0 0 0 0 9 0 0 0 0 0 0 0 0 0 0 0 0 0 0 0 0 0 0 0 0 0 0 10 10 0 9 0 0 0 0 0 0 0 9 9 9 10 9 9 -193 0 9 9 11 11 11 11 11 -193 11 10 11 8 9 0 9 9 9 10 9 10 10 10 9 9 9 9 9 12 -193 10 11 0 0 0 0 0 0 0 0 0 9 10 0 0 0 0 0 0 0 0 0 0 0 10 9 9 10 16 11 11 11 12 12 13 17 14 11 17 15 16 14 13 12 11 17 14 12 12 11 13 15 16 17 13 14 15 20 16 15 16 15 15 16 17 17 13 18 19 18 19 18 17 21 22 21 21 21 22 21 21 21 21 20 21 21 21 22 23 23 24 24 24 23 23 24 22 22 22 23 22 22 23 23 20 25 26 27 25 24 24 26 35 32 32 33 30 31 32 32 34 33 37 38 39 42 44 44 43 42 43 43 43 43 43 43 43 46 46 46 0 0 0 0 0
    0 0 0 0 0 0 0 0 0 0 0 0 0 0 0 0 0 0 0 0 0 0 0 0 0 0 0 0 0 0 0 0 0 0 0 0 0 0 0 0 0 0 0 0 0 0 0 0 0 0 0 0 0 0 0 0 0 0 0 0 0 0 0 0 0 0 0 0 0 0 0 0 0 0 0 0 0 10 9 10 10 9 0 9 0 0 0 0 0 0 0 0 0 0 0 0 0 0 0 0 0 0 0 0 0 0 0 0 0 0 0 0 0 0 0 0 0 0 0 0 0 0 0 0 0 0 0 9 10 0 9 0 0 0 0 0 0 0 0 9 0 9 0 0 -193 0 9 9 11 11 11 11 11 10 11 10 11 9 9 0 9 10 11 11 10 11 11 11 10 10 10 10 9 12 -193 10 11 0 0 0 0 0 0 0 0 0 10 9 0 0 0 0 0 0 0 0 0 0 0 0 0 8 9 16 11 11 11 12 11 13 17 14 11 17 15 16 14 13 12 11 17 14 12 12 11 13 15 15 17 13 14 15 20 16 15 16 15 15 16 17 17 13 18 18 17 18 17 16 19 21 21 21 21 21 21 21 21 21 19 20 20 21 22 23 24 24 24 24 23 23 24 22 22 22 23 22 22 22 22 19 24 25 25 24 25 25 26 34 31 31 33 30 31 32 32 34 33 37 38 39 42 43 44 43 42 43 43 42 43 43 42 43 45 45 45 0 0 0 0 0
    0 0 0 0 0 0 0 0 0 0 0 0 0 0 0 0 0 0 0 0 0 0 0 0 0 0 0 0 0 0 0 0 0 0 0 0 0 0 0 0 0 0 0 0 0 0 0 0 0 0 0 0 0 0 0 0 0 0 0 0 0 0 0 0 0 0 0 0 0 0 0 0 0 9 9 9 0 10 9 9 10 0 0 0 0 0 0 0 0 0 0 0 0 0 9 0 0 0 0 0 0 9 9 0 0 0 0 0 0 0 0 0 0 0 0 0 0 0 0 0 0 0 0 0 0 0 0 9 9 0 0 0 0 0 0 0 0 0 0 0 0 9 0 0 -193 0 10 10 13 12 12 11 12 11 12 11 11 9 9 9 10 10 11 12 11 11 11 11 10 10 9 10 9 10 -193 10 10 0 0 0 0 0 0 0 0 0 10 10 9 0 0 0 0 0 0 0 0 0 0 0 0 0 0 16 11 11 10 11 11 13 17 14 11 17 15 16 13 13 13 11 17 14 11 12 11 13 14 15 17 13 13 15 19 15 15 16 16 15 16 17 17 13 18 17 16 17 17 15 18 20 20 20 20 21 20 21 21 20 19 19 19 21 22 23 24 24 24 24 23 23 24 22 22 22 23 22 23 23 22 20 25 26 26 25 26 25 26 33 30 31 33 31 31 32 32 33 32 36 38 39 42 43 44 42 42 43 43 42 42 43 42 42 45 45 45 0 0 0 0 0
    0 0 0 0 0 0 0 0 0 0 0 0 0 0 0 0 0 0 0 0 0 0 0 0 0 0 0 0 0 0 0 0 0 0 0 0 0 0 0 0 0 0 0 0 0 0 0 0 0 0 0 0 0 0 0 0 0 0 0 0 0 0 0 0 0 0 0 0 0 0 0 0 0 9 9 9 0 0 0 0 0 0 0 0 0 0 0 0 0 0 0 0 0 0 10 9 9 9 0 0 0 9 9 0 0 0 0 0 0 0 0 0 0 0 0 0 0 0 9 0 0 0 0 0 0 0 0 0 0 0 0 0 0 0 0 0 0 0 0 0 0 0 0 0 9 0 10 11 13 12 12 12 12 11 12 11 11 9 9 0 9 10 11 12 11 12 12 12 10 10 9 10 9 9 -193 9 12 9 9 9 9 9 9 0 9 0 10 9 9 8 0 0 0 0 0 0 0 0 0 0 0 0 0 14 10 10 10 10 10 12 16 13 10 16 14 15 13 13 13 11 17 14 11 12 12 13 13 14 17 12 13 14 19 15 16 16 16 15 16 17 17 13 17 16 16 17 16 15 18 19 20 20 20 21 20 21 21 20 19 19 20 22 23 24 24 25 25 24 23 23 24 22 22 23 23 22 23 23 23 19 25 26 26 26 26 26 27 32 30 30 32 30 30 31 31 32 31 35 38 38 41 43 43 41 41 42 42 41 42 42 42 43 45 46 45 0 0 0 0 0
    0 0 0 0 0 0 0 0 0 0 0 0 0 0 0 0 0 0 0 0 0 0 0 0 0 0 0 0 0 0 0 0 0 0 0 0 0 0 0 0 0 0 0 0 0 0 0 0 0 0 0 0 0 0 0 0 0 0 0 0 0 0 0 0 0 0 0 0 0 0 0 0 0 9 9 9 0 0 0 0 0 0 0 0 0 0 0 0 0 0 0 0 0 9 10 10 9 9 9 9 0 9 9 0 0 0 0 0 0 0 0 0 0 0 0 0 0 0 11 9 9 0 9 9 9 9 10 0 0 0 0 0 0 0 0 0 0 0 0 0 0 0 0 0 9 0 10 10 12 12 12 12 11 10 11 11 11 9 0 0 9 9 11 11 11 12 12 13 10 10 9 9 0 0 10 8 13 11 11 10 10 10 10 9 10 0 9 0 9 9 0 0 0 0 0 0 0 0 0 9 0 0 0 14 10 10 9 10 10 11 15 13 10 15 13 15 13 13 13 11 18 14 12 12 12 13 13 14 17 12 13 14 19 15 16 16 16 14 16 17 17 13 17 15 16 16 16 15 17 19 20 20 20 20 20 20 20 20 18 18 19 21 21 23 23 24 25 24 23 24 24 23 23 23 23 22 24 24 23 19 25 26 27 27 27 27 28 31 30 30 31 30 30 30 30 31 30 34 37 37 40 42 41 40 40 41 41 40 41 41 41 42 44 45 44 0 0 0 0 0
    0 0 0 0 0 0 0 0 0 0 0 0 0 0 0 0 0 0 0 0 0 0 0 0 0 0 0 0 0 0 0 0 0 0 0 0 0 0 0 0 0 0 0 0 0 0 0 0 0 0 0 0 0 0 0 0 0 0 0 0 0 0 0 0 0 0 0 0 0 0 0 9 0 0 0 0 0 0 0 0 0 0 0 0 0 0 0 0 0 0 0 9 0 9 11 11 10 10 9 9 9 10 9 0 0 0 0 0 0 0 0 0 0 0 0 0 0 0 10 9 9 0 9 9 9 10 11 9 10 0 9 0 0 0 0 0 0 0 0 0 9 9 0 8 9 9 10 10 12 12 12 12 11 10 11 11 11 9 0 0 0 9 10 10 10 10 -193 12 9 10 0 9 0 0 10 9 14 13 13 13 12 12 11 10 11 0 0 0 9 0 0 9 0 0 0 0 0 9 9 10 0 0 9 15 11 10 10 10 10 11 15 13 10 15 13 14 13 13 13 11 18 14 11 12 12 12 13 14 17 12 13 14 20 15 16 16 16 14 17 17 17 13 16 14 15 16 16 14 17 20 20 20 20 20 20 20 20 19 18 19 20 21 22 23 23 24 25 23 23 23 24 23 23 23 23 22 25 24 24 21 26 27 27 28 29 29 29 31 30 29 30 30 29 30 29 30 30 33 36 36 38 40 39 39 39 39 40 39 40 40 40 42 43 44 43 0 0 0 0 0
    0 0 0 0 0 0 0 0 0 0 0 0 0 0 0 0 0 0 0 0 0 0 0 0 0 0 0 0 0 0 0 0 0 0 0 0 0 0 0 0 0 0 0 0 0 0 0 0 0 0 0 0 0 0 0 0 0 0 0 0 0 0 0 0 0 0 0 0 0 9 9 9 9 9 9 0 0 0 0 0 0 0 0 0 0 0 0 0 0 0 0 0 0 9 12 11 10 10 9 9 9 10 10 0 0 0 0 0 0 0 0 0 0 0 0 0 0 0 9 0 9 0 9 10 10 11 11 10 11 9 10 9 9 0 0 0 0 0 0 0 9 10 9 10 10 10 10 10 11 12 11 12 10 10 10 10 10 9 0 0 0 9 9 10 9 10 -193 11 0 9 0 0 0 -193 -209 -193 14 13 14 14 13 13 12 11 11 0 0 0 0 0 0 9 0 0 0 0 0 9 9 11 0 0 9 15 11 11 10 10 9 11 14 12 10 15 13 15 13 14 13 11 18 14 11 12 12 12 13 14 17 11 13 15 20 15 16 16 16 14 17 17 16 13 16 15 16 16 18 16 19 19 19 19 19 19 19 18 20 19 16 22 24 24 25 25 25 25 26 23 23 23 25 23 23 24 24 23 25 25 25 21 26 27 27 27 29 29 28 30 29 29 29 29 29 29 28 30 30 32 34 34 36 38 37 37 37 38 38 38 39 39 39 41 42 42 42 0 0 0 0 0
    0 0 0 0 0 0 0 0 0 0 0 0 0 0 0 0 0 0 0 0 0 0 0 0 0 0 0 0 0 0 0 0 0 0 0 0 0 0 0 0 0 0 0 0 0 0 0 0 0 0 0 0 0 0 0 0 0 0 0 0 0 0 0 0 0 0 0 0 0 9 9 9 0 0 0 0 0 0 0 9 9 0 0 0 0 0 0 0 0 0 0 0 0 0 11 11 10 9 9 9 9 10 9 0 0 0 0 0 0 0 0 0 0 0 0 0 0 0 0 0 9 0 9 10 10 11 11 10 11 9 10 10 9 9 0 0 0 0 0 0 -193 -193 -193 -193 -193 11 -193 10 10 11 11 12 10 10 10 10 10 10 0 9 0 9 9 10 9 -209 -209 -193 -193 9 -209 -209 -193 -209 -209 -193 14 14 14 14 13 14 12 10 11 0 0 0 0 0 0 9 0 0 0 0 9 10 10 12 0 9 10 14 11 10 9 9 0 10 13 11 9 14 13 15 13 14 13 12 18 14 12 12 12 13 13 14 16 11 13 15 19 15 16 16 16 14 16 16 16 13 17 15 16 15 18 17 18 19 18 18 18 18 19 18 20 19 17 25 27 26 26 25 25 25 26 24 23 24 26 24 25 25 25 25 26 26 26 21 25 27 26 26 28 29 28 29 29 29 29 30 29 28 28 30 30 31 33 32 34 37 36 36 35 36 37 37 38 39 38 41 42 42 42 0 0 0 0 0
    0 0 0 0 0 0 0 0 0 0 0 0 0 0 0 0 0 0 0 0 0 0 0 0 0 0 0 0 0 0 0 0 0 0 0 0 0 0 0 0 0 0 0 0 0 0 0 0 0 0 0 0 0 0 0 0 0 0 0 0 0 0 0 0 0 0 0 0 0 9 9 9 0 0 0 0 0 0 0 9 9 9 0 0 0 0 0 0 0 0 0 0 0 0 11 10 9 9 0 0 9 10 9 0 0 0 0 0 0 0 0 0 0 0 0 0 0 0 0 0 9 9 9 10 9 11 11 10 11 9 10 9 9 9 0 0 0 0 0 -193 -193 -193 -193 -193 -193 -193 -193 10 -193 11 11 12 10 10 10 10 10 -177 -193 -193 0 -193 -193 -193 -193 140 138 140 -209 -209 -193 -209 -209 -209 -209 -193 14 14 14 14 13 14 12 10 11 0 0 0 9 0 0 10 10 9 9 9 10 11 12 13 9 9 10 13 11 10 9 9 0 10 12 11 10 15 12 15 13 14 13 12 18 14 12 13 13 14 14 14 16 12 14 16 19 14 16 16 16 14 16 16 16 13 16 15 15 16 20 18 18 20 18 18 18 19 19 17 20 20 16 26 30 28 28 27 26 25 26 24 24 24 28 26 26 26 26 26 28 27 27 23 26 27 26 26 28 28 28 29 28 29 28 30 29 28 27 29 30 31 32 32 33 35 34 34 33 33 35 35 36 37 37 40 40 41 41 0 0 0 0 0
    0 0 0 0 0 0 0 0 0 0 0 0 0 0 0 0 0 0 0 0 0 0 0 0 0 0 0 0 0 0 0 0 0 0 0 0 0 0 0 0 0 0 0 0 0 0 0 0 0 0 0 0 0 0 0 0 0 0 0 0 0 0 0 0 0 0 0 0 0 9 9 9 9 0 9 0 0 0 0 9 9 9 0 0 9 0 0 0 0 0 0 0 0 0 9 9 0 0 0 0 9 10 10 0 0 0 0 0 0 0 0 0 0 0 0 0 0 0 0 0 9 9 9 10 9 10 11 10 11 9 9 9 9 9 0 0 0 0 0 -193 -193 -193 -193 -193 -193 -193 -193 -193 -193 -193 11 13 -193 10 10 11 -177 -177 -193 -193 -193 -193 -193 -193 140 140 139 141 -209 -209 -193 -193 -209 -193 -209 11 15 14 14 14 13 14 12 10 11 0 0 0 9 9 0 10 10 10 10 10 11 13 15 16 10 10 11 12 11 10 10 10 9 10 11 10 10 14 12 15 13 14 13 13 18 15 12 14 13 14 14 15 16 12 14 16 19 14 16 16 15 14 16 16 16 13 16 14 16 18 20 18 18 20 18 18 18 18 17 17 19 19 14 25 29 27 28 26 25 24 25 24 24 24 28 26 26 27 27 27 29 28 28 24 26 28 26 27 29 28 28 28 28 29 28 29 29 27 27 29 29 30 30 31 30 34 32 32 31 31 33 33 35 35 35 39 39 39 39 0 0 0 0 0
    0 0 0 0 0 0 0 0 0 0 0 0 0 0 0 0 0 0 0 0 0 0 0 0 0 0 0 0 0 0 0 0 0 0 0 0 0 0 0 0 0 0 0 0 0 0 0 0 0 0 0 0 0 0 0 0 0 0 0 0 0 0 0 0 0 0 0 0 0 9 0 0 0 0 8 0 0 0 0 10 9 10 9 9 10 9 0 0 0 0 0 0 0 0 0 0 0 0 0 0 9 9 9 0 0 0 0 0 0 0 0 0 0 0 0 0 0 0 0 0 9 9 10 10 9 11 11 10 11 9 9 9 9 9 0 0 0 0 0 -193 -193 -193 -193 -193 -193 -193 -193 -193 -193 -193 11 13 -193 10 10 10 -177 -177 -193 -193 0 -193 -193 -193 140 140 139 141 -209 -209 -193 -193 -193 -193 -209 11 15 14 14 14 13 14 12 10 11 0 0 0 9 9 0 10 11 11 11 11 12 15 17 18 12 12 12 12 10 11 10 10 9 10 11 10 10 14 11 14 13 14 13 13 17 15 12 14 14 15 15 16 16 12 15 17 18 14 17 15 15 14 15 16 15 13 15 13 18 20 21 19 19 21 18 18 18 18 17 17 19 19 13 25 28 27 27 25 25 24 25 24 24 24 29 27 27 27 27 27 30 29 29 25 27 28 27 28 29 28 29 29 29 29 28 29 28 27 26 28 29 29 29 30 29 32 30 30 29 28 31 31 32 34 32 38 37 37 38 0 0 0 0 0
    0 0 0 0 0 0 0 0 0 0 0 0 0 0 0 0 0 0 0 0 0 0 0 0 0 0 0 0 0 0 0 0 0 0 0 0 0 0 0 0 0 0 0 0 0 0 0 0 0 0 0 0 0 0 0 0 0 0 0 0 0 0 0 0 0 0 0 0 0 0 0 0 0 0 0 0 0 0 0 10 10 10 9 9 10 9 0 0 0 0 0 0 0 0 0 0 0 0 0 0 9 0 0 0 0 0 0 0 0 0 0 0 0 0 0 0 0 0 0 0 9 9 10 10 9 11 11 11 11 10 10 9 9 9 0 0 0 0 0 -193 -193 -193 -193 -193 -193 -193 -193 -193 -193 -193 -193 -193 -209 10 -193 -193 -193 -177 -193 -193 0 -193 -193 -193 140 140 139 140 -209 -209 -193 -209 -209 -193 -209 11 15 14 14 14 13 14 12 11 11 0 0 0 9 9 0 10 11 11 12 12 12 14 17 18 12 12 12 11 10 11 10 10 9 9 10 10 10 14 11 14 13 13 13 13 17 14 12 14 13 15 15 16 16 13 15 17 18 14 16 15 15 14 15 15 15 12 15 14 20 21 22 20 21 22 19 19 19 19 18 18 20 19 12 25 27 26 27 25 24 24 25 24 24 24 30 27 27 27 27 27 30 29 29 25 26 28 27 28 29 28 29 29 29 30 28 30 29 27 27 29 29 29 29 30 28 31 29 29 28 27 29 29 30 31 30 36 35 35 36 0 0 0 0 0
    0 0 0 0 0 0 0 0 0 0 0 0 0 0 0 0 0 0 0 0 0 0 0 0 0 0 0 0 0 0 0 0 0 0 0 0 0 0 0 0 0 0 0 0 0 0 0 0 0 0 0 0 0 0 0 0 0 0 0 0 0 0 0 0 0 0 0 0 0 0 0 0 0 0 0 0 0 9 9 11 10 11 10 10 11 10 9 8 0 0 0 0 0 0 0 0 0 0 0 0 0 0 0 0 0 0 0 0 0 0 0 0 0 0 0 0 0 0 0 0 0 8 9 10 9 10 10 11 11 10 10 10 9 9 0 0 0 0 0 -193 -193 -193 -193 -193 -193 -193 -193 -193 -193 -193 -193 -193 -209 -193 -193 -193 -193 11 -193 -193 -193 -193 -193 -193 -209 140 -193 -193 -209 -209 -209 -209 -209 -209 -209 -193 14 14 14 14 14 14 12 11 11 0 0 0 9 9 0 9 10 10 11 11 11 14 17 18 13 12 12 11 10 11 10 10 9 9 10 9 10 14 12 14 13 14 14 13 17 15 12 14 13 14 15 16 16 13 15 17 17 15 16 15 15 14 14 15 14 12 16 17 21 22 22 21 21 22 19 19 19 19 18 18 20 19 12 25 26 25 26 23 23 23 24 23 23 24 30 27 27 27 27 27 30 29 29 25 26 28 27 27 28 27 28 28 28 30 27 30 29 28 28 30 29 29 28 30 28 30 29 28 28 27 29 28 29 30 29 34 33 33 34 0 0 0 0 0
    0 0 0 0 0 0 0 0 0 0 0 0 0 0 0 0 0 0 0 0 0 0 0 0 0 0 0 0 0 0 0 0 0 0 0 0 0 0 0 0 0 0 0 0 0 0 0 0 0 0 0 0 0 0 0 0 0 0 0 0 0 0 0 0 0 0 0 0 0 0 0 0 0 0 0 0 0 10 9 12 11 12 11 10 12 10 0 0 0 0 0 0 0 0 0 0 0 0 0 0 0 0 0 0 0 0 0 0 0 0 0 0 0 0 0 0 0 0 0 0 0 0 9 9 0 9 9 11 11 10 10 10 9 9 0 0 0 0 0 0 -193 -193 -193 -193 -193 -193 -193 -193 -193 -193 -193 -193 -209 -209 -193 -193 -193 11 -193 -193 -193 -193 -193 -193 -209 -193 -193 -193 -209 -209 -209 -193 -209 -209 -209 -193 14 14 14 14 13 14 12 11 11 0 0 0 9 9 0 9 10 10 11 11 10 12 14 17 12 12 11 9 9 10 10 10 9 9 9 9 10 15 12 14 13 14 13 14 17 15 12 14 13 14 15 16 16 14 15 18 18 15 17 16 15 15 14 15 13 13 18 19 21 22 22 20 21 22 19 19 19 19 18 18 20 19 11 25 25 24 25 23 23 23 24 23 23 24 29 27 26 27 27 27 30 29 29 25 26 29 27 27 28 27 28 28 28 30 27 31 30 29 29 30 30 29 28 30 28 30 29 28 28 26 29 29 -193 -193 29 34 32 32 33 0 0 0 0 0
    0 0 0 0 0 0 0 0 0 0 0 0 0 0 0 0 0 0 0 0 0 0 0 0 0 0 0 0 0 0 0 0 0 0 0 0 0 0 0 0 0 0 0 0 0 0 0 0 0 0 0 0 0 0 0 0 0 0 0 0 0 0 0 0 0 0 0 0 0 0 0 0 9 9 9 0 0 12 10 13 12 12 11 11 12 10 0 0 0 0 0 0 0 0 0 0 0 0 0 0 0 0 0 0 0 0 0 0 0 0 0 0 0 0 0 0 0 0 0 0 0 0 0 0 0 0 0 10 11 10 10 10 9 9 0 0 0 0 -177 0 -193 -193 -193 -193 -193 -193 -193 -193 -193 -193 -193 -193 -193 -193 -193 -193 -193 12 -193 -193 -193 -193 -193 -193 -209 -209 -193 276 -209 -209 -193 528 -193 -209 -209 11 14 13 14 14 13 14 12 11 11 0 0 0 9 9 0 9 10 10 11 11 10 11 12 14 11 10 10 0 0 9 10 9 9 9 9 9 10 15 12 14 13 13 13 14 16 14 12 14 13 14 15 16 16 15 16 19 18 16 17 16 15 15 14 16 13 14 18 20 21 22 21 20 21 23 20 20 19 19 19 19 21 20 11 25 24 23 23 22 22 23 23 23 22 24 28 26 26 26 26 26 30 29 29 25 26 29 27 27 28 27 28 28 28 30 27 30 30 29 29 30 30 29 27 29 28 29 29 28 28 26 29 29 -193 -193 -193 34 32 32 33 0 0 0 0 0
    0 0 0 0 0 0 0 0 0 0 0 0 0 0 0 0 0 0 0 0 0 0 0 0 0 0 0 0 0 0 0 0 0 0 0 0 0 0 0 0 0 0 0 0 0 0 0 0 0 0 0 0 0 0 0 0 0 0 0 0 0 0 0 0 0 0 0 0 0 0 0 0 0 0 0 0 0 12 10 13 12 12 11 11 12 10 0 0 0 0 0 0 0 0 0 0 0 0 0 0 0 0 0 0 0 0 0 0 0 0 0 0 0 0 0 0 0 0 0 0 0 0 0 0 0 0 0 10 10 9 9 9 0 9 0 0 0 0 0 0 0 -193 -193 -193 -193 -193 -193 -193 -193 -193 -193 -177 11 12 -193 -193 -193 13 10 13 -193 -193 -193 -209 -209 -209 -193 276 270 -193 -209 -193 -193 -177 -193 11 15 13 14 13 13 13 12 11 12 0 0 0 10 9 0 9 10 11 11 11 9 10 11 13 10 9 9 0 0 9 10 10 9 10 9 9 10 15 12 14 12 13 13 13 16 14 12 14 13 14 15 17 17 16 17 19 18 17 18 17 16 16 14 17 13 14 19 20 21 21 21 20 21 23 20 20 20 20 20 20 21 20 11 23 22 22 20 20 20 23 23 22 22 23 28 26 26 26 26 26 30 28 29 26 26 29 27 27 27 27 28 28 28 31 28 30 30 29 29 29 30 29 27 29 27 29 28 28 28 26 29 29 -193 -193 30 34 32 32 33 0 0 0 0 0
    0 0 0 0 0 0 0 0 0 0 0 0 0 0 0 0 0 0 0 0 0 0 0 0 0 0 0 0 0 0 0 0 0 0 0 0 0 0 0 0 0 0 0 0 0 0 0 0 0 0 0 0 0 0 0 0 0 0 0 0 0 0 0 0 0 0 0 0 0 0 0 0 9 0 0 0 9 11 10 13 11 12 11 11 11 9 0 0 0 0 0 0 0 0 0 0 0 0 0 0 0 0 0 0 0 0 9 0 0 0 0 0 0 0 0 0 0 0 0 0 0 0 0 0 0 0 0 9 9 0 9 0 0 0 0 0 0 0 0 0 0 0 0 0 9 10 -193 12 -193 -193 13 15 13 14 13 13 14 14 12 13 10 10 -193 -193 -193 -193 -209 -193 -177 -193 -193 -193 -177 -193 -177 11 16 13 14 13 12 13 12 11 12 0 0 9 10 10 9 10 11 11 11 11 10 10 10 13 11 9 9 0 0 9 10 10 9 10 10 9 10 14 12 13 12 13 13 13 15 14 12 14 12 14 15 17 18 17 17 20 18 17 18 17 16 16 14 17 12 14 19 20 22 21 20 20 21 23 20 21 20 21 21 22 21 20 12 22 21 21 18 20 20 23 23 22 22 23 27 26 25 25 25 25 28 27 28 26 26 29 28 28 28 27 28 28 27 31 28 30 30 29 29 29 30 29 27 29 27 28 28 27 28 26 29 29 30 31 30 34 32 32 32 0 0 0 0 0
    0 0 0 0 0 0 0 0 0 0 0 0 0 0 0 0 0 0 0 0 0 0 0 0 0 0 0 0 0 0 0 0 0 0 0 0 0 0 0 0 0 0 0 0 0 0 0 0 0 0 0 0 0 0 0 0 0 0 0 0 0 0 0 0 0 0 0 0 0 0 0 0 9 0 0 0 9 10 10 13 12 12 11 11 11 9 0 0 0 0 0 0 0 0 0 0 0 0 0 0 0 0 0 0 0 0 9 9 0 0 0 0 0 0 0 0 0 0 0 0 0 0 0 0 0 0 0 9 9 -193 10 -193 0 0 0 0 0 0 0 0 0 0 0 0 9 11 13 14 19 -193 18 19 16 17 18 17 17 15 13 15 12 11 10 11 9 9 9 -193 -209 -209 -209 -193 -177 -209 -209 10 17 13 14 12 12 12 11 11 12 0 0 9 10 11 10 10 11 12 12 11 10 10 10 12 10 9 0 0 0 0 9 9 9 9 9 9 10 14 12 13 12 12 12 13 14 14 12 14 12 13 15 17 18 18 16 20 17 17 18 17 16 15 14 17 12 14 18 20 21 20 18 18 20 23 20 20 20 20 21 22 22 21 12 22 21 21 18 21 22 24 23 22 22 23 26 25 25 25 24 25 27 26 26 25 26 29 28 28 28 28 29 29 28 31 29 30 30 30 31 29 30 29 27 29 27 28 27 26 28 26 28 29 30 31 30 34 31 31 32 0 0 0 0 0
    0 0 0 0 0 0 0 0 0 0 0 0 0 0 0 0 0 0 0 0 0 0 0 0 0 0 0 0 0 0 0 0 0 0 0 0 0 0 0 0 0 0 0 0 0 0 0 0 0 0 0 0 0 0 0 0 0 0 0 0 0 0 0 0 0 0 0 0 0 0 0 0 9 9 8 9 10 11 10 14 13 12 11 11 11 9 0 0 0 0 0 0 0 0 0 0 0 0 0 0 0 0 0 0 0 9 9 9 9 9 0 0 0 0 0 0 0 0 0 0 0 0 0 0 0 0 0 9 10 -193 13 14 -193 0 0 0 0 0 0 0 0 0 0 0 0 10 14 -193 -193 30 -193 23 21 20 -209 -193 18 14 14 15 12 11 10 10 9 9 9 9 -193 -193 -209 280 284 -193 -193 -193 17 12 13 12 -193 -193 -193 11 12 0 0 9 11 11 10 10 11 12 12 11 10 10 9 10 10 0 0 0 0 0 0 0 0 9 0 0 10 14 12 12 12 12 12 13 14 13 11 13 12 12 14 17 18 18 16 20 17 17 18 17 16 15 14 17 11 16 19 20 21 19 18 18 20 23 21 21 21 21 22 22 22 21 13 23 22 22 20 23 25 25 24 23 23 24 25 25 24 24 24 24 25 25 25 25 26 29 29 28 28 28 30 29 29 31 29 31 31 30 31 29 30 29 27 29 28 28 28 27 29 27 29 30 31 31 30 33 31 31 31 0 0 0 0 0
    0 0 0 0 0 0 0 0 0 0 0 0 0 0 0 0 0 0 0 0 0 0 0 0 0 0 0 0 0 0 0 0 0 0 0 0 0 0 0 0 0 0 0 0 0 0 0 0 0 0 0 0 0 0 0 0 0 0 0 0 0 0 0 0 0 0 0 0 0 9 0 9 10 9 9 9 10 11 10 13 12 11 11 11 11 9 0 0 0 0 0 0 0 0 0 0 0 0 0 0 0 0 0 0 0 9 10 9 9 9 0 0 0 0 0 0 0 0 0 0 0 0 0 0 0 0 0 9 9 -193 9 10 0 0 0 0 0 0 0 0 0 0 0 0 0 9 13 -209 -209 30 -193 24 23 21 -209 -209 18 12 14 14 11 10 10 10 9 9 9 9 0 0 -193 281 286 -209 -209 -193 17 13 13 -193 -193 -193 -193 11 12 0 0 9 11 12 11 11 12 12 12 11 11 10 9 10 10 8 0 0 0 0 0 0 0 0 0 0 9 13 12 12 12 12 12 13 13 14 11 12 12 12 14 16 19 18 16 20 17 17 18 17 17 15 15 17 11 18 19 20 21 19 18 18 21 23 21 21 21 21 23 22 22 21 15 23 22 23 21 24 25 26 24 23 22 24 24 24 24 24 23 24 25 25 25 26 27 29 29 28 29 29 30 29 29 31 29 31 32 31 32 30 31 30 28 30 29 29 29 28 31 28 31 31 32 32 32 34 32 31 32 0 0 0 0 0
    0 0 0 0 0 0 0 0 0 0 0 0 0 0 0 0 0 0 0 0 0 0 0 0 0 0 0 0 0 0 0 0 0 0 0 0 0 0 0 0 0 0 0 0 0 0 0 0 0 0 0 0 0 0 0 0 0 0 0 0 0 0 0 0 0 0 0 0 0 9 0 10 10 10 9 9 10 10 10 12 11 10 10 10 10 0 0 0 0 0 0 0 0 0 0 0 0 0 0 0 0 0 0 0 9 9 10 9 9 9 0 0 0 0 0 0 0 0 0 0 0 0 -177 0 0 0 0 9 9 0 0 0 0 0 0 0 0 0 0 0 0 0 0 0 0 9 11 -209 -209 29 -209 25 24 23 26 24 19 12 14 14 11 10 10 10 9 9 9 0 0 0 -193 -193 287 -209 -209 -193 18 13 13 -193 -193 945 -193 11 12 0 9 9 11 12 11 12 12 12 12 11 11 11 10 10 10 9 9 0 0 0 0 0 0 0 0 0 9 12 11 11 11 11 11 12 12 14 11 12 11 11 13 17 19 18 16 20 17 17 18 17 17 15 15 17 11 19 19 20 21 19 18 19 21 23 22 22 22 22 23 23 23 22 16 23 22 23 21 24 25 26 23 22 22 23 24 23 23 23 22 24 25 25 25 27 29 30 30 29 29 29 30 30 29 30 29 30 32 31 32 29 31 30 28 30 29 29 30 28 32 29 32 33 33 33 33 35 33 32 33 0 0 0 0 0
    0 0 0 0 0 0 0 0 0 0 0 0 0 0 0 0 0 0 0 0 0 0 0 0 0 0 0 0 0 0 0 0 0 0 0 0 0 0 0 0 0 0 0 0 0 0 0 0 0 0 0 0 0 0 0 0 0 0 0 0 0 0 0 0 0 0 0 0 0 9 0 9 10 9 9 9 10 10 9 11 10 9 9 9 9 0 0 0 0 0 0 0 0 0 0 0 0 0 0 0 0 0 0 0 9 10 10 10 9 9 0 0 0 0 0 0 0 0 0 0 0 -177 -177 -177 0 0 0 9 9 0 0 0 0 0 0 0 0 0 0 0 0 0 0 0 0 9 11 8 18 28 -209 27 26 26 27 26 18 11 14 13 10 10 10 10 9 10 9 0 0 9 -193 -209 289 -209 -193 0 18 13 13 -193 944 945 945 11 12 0 0 9 11 12 11 12 12 12 12 11 12 11 12 11 10 9 10 0 0 0 0 0 0 0 0 0 0 10 10 10 10 10 10 11 13 13 11 12 12 12 14 18 19 17 16 20 17 17 18 17 16 15 16 18 11 21 20 20 21 20 20 20 22 23 22 22 22 23 23 23 -193 22 17 23 22 23 21 24 25 26 22 22 22 23 23 23 23 22 21 23 24 24 25 27 30 30 30 29 30 29 31 30 29 30 30 30 32 30 32 29 31 30 29 30 30 30 31 29 32 30 33 33 33 33 33 35 33 31 33 0 0 0 0 0
    0 0 0 0 0 0 0 0 0 0 0 0 0 0 0 0 0 0 0 0 0 0 0 0 0 0 0 0 0 0 0 0 0 0 0 0 0 0 0 0 0 0 0 0 0 0 0 0 0 0 0 0 0 0 0 0 0 0 0 0 0 0 0 0 0 0 0 0 0 10 0 0 9 0 9 9 9 9 9 10 10 9 9 9 9 0 0 0 0 0 0 0 0 0 0 0 0 0 0 0 0 0 0 0 10 11 11 10 10 9 0 0 0 0 0 0 0 0 0 0 0 -177 -177 -177 0 0 0 9 9 0 0 0 0 0 0 0 0 0 0 0 0 0 0 0 0 9 10 -177 12 27 -193 27 26 27 28 26 15 10 14 13 10 10 10 10 9 10 9 0 0 9 10 -209 -193 -209 -209 -193 -193 13 13 -193 944 946 945 12 12 0 9 9 11 12 11 12 12 12 12 12 12 12 13 11 10 9 10 0 0 0 0 0 0 0 0 0 0 9 10 9 10 9 11 11 14 14 12 13 13 13 14 18 18 16 16 20 17 17 17 17 16 15 16 18 13 24 24 24 23 23 23 23 23 -193 23 23 23 23 23 23 23 22 18 23 22 23 22 24 25 26 22 22 21 22 22 22 21 21 19 23 23 23 23 27 30 29 31 29 30 30 31 30 29 30 30 30 31 30 32 29 31 31 29 31 31 30 31 29 32 30 32 32 32 32 32 34 32 31 32 0 0 0 0 0
    0 0 0 0 0 0 0 0 0 0 0 0 0 0 0 0 0 0 0 0 0 0 0 0 0 0 0 0 0 0 0 0 0 0 0 0 0 0 0 0 0 0 0 0 0 0 0 0 0 0 0 0 0 0 0 0 0 0 0 0 0 0 0 0 0 0 0 0 0 10 0 0 0 0 0 0 9 9 9 10 9 9 9 9 9 0 0 0 0 0 0 0 0 0 0 0 0 0 0 0 0 0 0 0 10 12 11 11 11 10 0 0 0 0 0 0 0 0 0 0 0 -177 -177 0 0 0 0 9 9 0 0 0 0 0 0 0 0 0 0 0 0 0 0 0 0 9 11 9 11 26 -225 -225 -225 -225 -193 23 11 9 13 12 9 9 10 10 9 9 9 0 0 10 11 9 -193 17 -193 -193 -193 13 13 11 945 946 -193 11 12 0 9 9 12 12 11 12 12 12 12 11 12 12 14 10 9 9 10 0 0 0 0 0 0 0 0 0 0 9 9 9 9 9 11 11 16 14 13 14 14 13 14 18 18 15 15 20 16 16 17 16 15 16 17 19 14 26 28 28 25 26 26 26 25 26 23 23 23 24 22 22 22 21 18 23 23 23 23 25 26 27 22 22 21 22 21 21 21 21 17 22 22 22 21 -193 30 29 31 29 30 30 31 30 29 30 30 30 31 30 33 29 31 31 30 31 31 30 31 29 32 31 31 32 32 31 31 33 31 30 32 0 0 0 0 0
    0 0 0 0 0 0 0 0 0 0 0 0 0 0 0 0 0 0 0 0 0 0 0 0 0 0 0 0 0 0 0 0 0 0 0 0 0 0 0 0 0 0 0 0 0 0 0 0 0 0 0 0 0 0 0 0 0 0 0 0 0 0 0 0 0 0 0 0 0 10 0 0 0 0 0 0 9 9 9 11 10 9 9 9 9 9 0 0 0 0 0 0 0 0 0 0 0 0 0 0 0 0 0 0 10 12 11 11 11 10 0 0 0 0 0 0 0 0 0 0 0 0 -177 0 0 0 0 9 9 0 0 0 0 0 0 0 0 0 0 0 0 0 0 0 0 10 11 0 -225 -225 -225 -225 -225 -225 -193 15 10 9 12 11 9 -193 9 10 9 9 9 9 9 11 12 10 10 16 0 -193 -193 13 13 11 -193 946 -193 11 12 0 9 0 11 12 11 12 12 12 11 11 12 11 13 9 0 0 10 0 0 0 0 0 0 0 0 0 0 0 9 0 9 9 10 11 16 14 13 14 14 14 15 18 17 14 15 20 16 16 16 16 15 16 18 20 16 27 32 32 30 31 28 28 27 27 24 24 24 24 22 22 22 21 19 24 24 25 25 27 27 28 22 22 21 22 21 20 20 20 16 21 22 22 20 27 31 30 31 30 30 30 31 30 30 30 30 30 32 31 33 30 30 31 30 31 31 30 31 30 33 32 31 33 32 31 32 33 31 30 32 0 0 0 0 0
    0 0 0 0 0 0 0 0 0 0 0 0 0 0 0 0 0 0 0 0 0 0 0 0 0 0 0 0 0 0 0 0 0 0 0 0 0 0 0 0 0 0 0 0 0 0 0 0 0 0 0 0 0 0 0 0 0 0 0 0 0 0 0 0 0 0 0 0 0 9 0 0 0 0 0 0 9 10 9 11 10 10 10 9 10 10 0 0 0 0 0 0 0 0 0 0 0 0 0 0 0 0 0 0 9 11 10 10 10 9 0 0 0 0 0 0 0 0 0 0 0 0 -177 0 0 0 0 9 10 0 0 0 0 0 0 0 0 0 0 0 0 0 0 0 0 9 10 0 -225 -225 -225 -225 -225 -225 0 12 9 9 11 10 -193 -193 -193 9 -193 9 9 9 9 11 12 11 12 16 0 -193 -193 13 13 11 -193 946 -193 11 12 0 9 0 11 12 10 12 12 11 11 11 12 11 13 0 0 0 10 0 0 0 0 0 0 0 0 0 0 0 9 9 9 9 11 11 17 14 13 13 15 14 15 18 17 13 14 20 16 16 16 16 14 16 19 20 17 28 33 33 31 33 30 29 28 28 24 24 24 24 22 -193 22 21 20 25 24 26 26 27 27 28 22 22 21 22 20 20 19 20 16 22 22 23 21 28 32 30 31 30 31 30 31 30 30 30 30 30 32 31 32 29 30 31 30 31 32 31 32 31 34 33 32 34 33 33 33 33 31 31 33 0 0 0 0 0
    0 0 0 0 0 0 0 0 0 0 0 0 0 0 0 0 0 0 0 0 0 0 0 0 0 0 0 0 0 0 0 0 0 0 0 0 0 0 0 0 0 0 0 0 0 0 0 0 0 0 0 0 0 0 0 0 0 0 0 0 0 0 0 0 0 0 0 0 0 9 0 0 0 0 9 0 0 10 9 11 10 10 10 10 10 10 9 0 0 0 0 0 0 0 0 0 0 0 0 0 0 0 0 0 9 10 9 9 9 9 0 0 0 0 0 0 0 0 0 0 0 0 0 0 0 0 0 9 10 0 0 0 0 0 0 0 0 0 0 0 0 0 0 0 0 9 0 0 0 -225 -225 -225 -225 -225 0 10 0 0 11 10 9 -193 -193 -193 -193 9 9 -193 9 11 12 11 11 15 0 0 -193 12 13 10 -193 -177 -193 11 11 0 0 0 10 11 10 11 11 10 10 10 12 11 13 0 0 0 10 0 0 0 0 0 0 0 0 0 0 0 10 10 10 9 11 12 17 13 14 13 15 14 15 19 16 13 14 20 16 16 16 16 14 18 20 21 19 29 33 33 32 33 30 30 29 28 25 25 25 25 22 22 22 21 20 25 24 25 25 26 26 27 20 20 20 22 20 19 19 19 16 22 23 24 23 28 33 31 32 30 31 30 31 30 30 29 30 29 31 30 31 29 29 30 30 31 32 31 32 32 34 34 32 35 34 34 35 34 32 32 34 0 0 0 0 0
    0 0 0 0 0 0 0 0 0 0 0 0 0 0 0 0 0 0 0 0 0 0 0 0 0 0 0 0 0 0 0 0 0 0 0 0 0 0 0 0 0 0 0 0 0 0 0 0 0 0 0 0 0 0 0 0 0 0 0 0 0 0 0 0 0 0 0 0 0 9 0 0 0 0 9 0 0 10 9 11 10 9 10 9 10 10 9 0 0 0 0 0 0 0 0 0 0 0 0 0 0 0 0 0 0 9 0 0 9 9 0 0 0 0 0 0 0 0 0 0 0 0 0 0 0 0 0 9 9 0 0 9 0 0 0 0 0 0 0 0 0 0 0 0 0 9 0 0 0 -225 -225 -225 -225 0 0 0 0 0 11 10 9 9 9 9 -193 10 10 9 9 11 11 10 11 16 9 9 18 12 12 10 -193 -193 -193 10 11 0 0 0 10 10 10 10 10 9 10 10 12 11 13 0 0 0 10 0 0 0 0 0 0 0 0 0 9 9 11 10 10 10 12 13 18 13 14 13 15 15 16 19 16 12 14 20 16 15 15 16 -193 -193 -193 22 22 30 35 35 33 34 31 31 30 29 25 25 25 25 22 22 22 20 20 24 23 24 23 24 25 26 19 19 18 21 19 19 18 19 16 22 23 24 22 28 33 31 31 30 31 30 30 30 30 28 29 28 31 30 31 29 29 31 30 31 32 31 32 33 35 35 32 36 35 35 36 35 32 33 35 0 0 0 0 0
    0 0 0 0 0 0 0 0 0 0 0 0 0 0 0 0 0 0 0 0 0 0 0 0 0 0 0 0 0 0 0 0 0 0 0 0 0 0 0 0 0 0 0 0 0 0 0 0 0 0 0 0 0 0 0 0 0 0 0 0 0 0 0 0 0 0 0 0 0 8 0 0 0 0 9 0 0 10 9 11 10 9 10 9 10 10 9 0 0 0 0 0 0 0 0 0 0 0 0 0 0 0 0 0 0 0 0 0 0 0 0 0 0 0 0 0 0 0 0 0 0 0 0 0 0 0 0 9 9 0 0 9 0 0 0 0 0 0 0 0 0 0 0 0 0 9 0 0 0 -225 -225 0 0 0 0 0 0 0 10 9 9 0 9 9 9 9 9 9 9 10 11 10 11 16 11 10 17 12 12 10 -193 -193 9 10 10 0 0 0 10 10 9 10 10 9 9 10 11 10 12 0 0 0 9 0 0 0 0 0 0 0 0 0 10 9 12 11 11 11 12 13 18 13 14 13 16 16 16 20 16 12 15 20 15 15 16 17 -177 -177 -177 -193 25 31 35 35 34 35 31 32 30 29 24 24 24 24 21 21 21 19 19 23 23 23 22 23 24 26 18 18 18 21 19 18 18 18 15 22 23 24 21 27 32 30 31 30 30 29 29 30 30 28 29 28 30 29 30 29 29 31 30 31 31 31 31 33 34 35 31 36 35 35 36 35 32 33 35 0 0 0 0 0
    0 0 0 0 0 0 0 0 0 0 0 0 0 0 0 0 0 0 0 0 0 0 0 0 0 0 0 0 0 0 0 0 0 0 0 0 0 0 0 0 0 0 0 0 0 0 0 0 0 0 0 0 0 0 0 0 0 0 0 0 0 0 0 0 0 0 0 0 0 0 0 0 0 0 9 0 0 -193 9 11 10 9 10 10 10 10 9 0 0 0 0 0 0 0 0 0 0 0 0 0 0 0 0 0 0 0 0 0 0 0 0 0 0 0 0 0 0 0 0 0 0 0 0 0 0 0 0 9 10 0 0 9 0 0 9 0 0 0 0 0 0 0 0 0 0 9 9 0 0 0 0 0 0 0 0 0 0 0 10 10 9 9 9 9 9 9 9 9 9 -193 10 11 11 14 11 11 15 11 11 9 9 9 9 9 10 0 0 0 9 9 9 9 9 0 9 9 10 9 11 0 0 0 9 0 0 0 0 0 9 0 0 0 11 10 13 12 12 11 13 13 18 13 15 13 17 17 17 20 16 12 16 20 15 15 16 17 -177 -177 -177 -193 25 31 35 34 33 34 30 31 30 27 24 23 23 23 21 21 21 18 19 23 22 23 22 23 23 25 17 18 18 21 19 18 18 18 15 22 23 24 -193 26 30 30 30 29 30 29 28 29 30 28 28 28 29 29 29 28 28 31 30 31 31 31 31 34 34 34 31 35 34 35 35 34 31 32 34 0 0 0 0 0
    0 0 0 0 0 0 0 0 0 0 0 0 0 0 0 0 0 0 0 0 0 0 0 0 0 0 0 0 0 0 0 0 0 0 0 0 0 0 0 0 0 0 0 0 0 0 0 0 0 0 0 0 0 0 0 0 0 0 0 0 0 0 0 0 0 0 0 0 0 -193 -209 10 10 10 11 10 0 11 9 11 10 10 10 10 10 11 9 0 0 0 0 0 0 0 0 0 0 0 0 0 0 0 0 0 0 0 0 0 0 0 0 0 0 0 0 0 0 0 0 0 0 0 0 0 0 0 0 9 10 0 0 9 0 9 9 0 0 0 0 0 0 0 0 0 0 9 9 9 0 0 0 0 0 9 0 0 0 0 9 9 9 9 0 9 9 9 9 9 9 -193 10 11 11 14 11 11 13 10 11 9 9 9 0 9 9 0 0 0 9 0 0 0 0 0 0 0 9 9 10 0 0 0 0 0 0 0 0 0 9 0 0 0 12 11 14 12 12 11 13 13 18 13 15 14 18 18 18 20 17 13 17 21 16 15 16 17 -177 -177 -177 25 25 31 35 34 34 34 30 30 29 25 23 22 22 22 20 21 21 17 20 23 22 23 21 22 23 24 17 18 18 22 19 18 18 19 16 23 23 24 -193 26 29 30 29 29 29 29 28 29 30 27 27 27 28 29 28 28 28 31 30 31 31 31 31 34 34 34 30 35 34 34 34 33 31 32 34 0 0 0 0 0
    0 0 0 0 0 0 0 0 0 0 0 0 0 0 0 0 0 0 0 0 0 0 0 0 0 0 0 0 0 0 0 0 0 0 0 0 0 0 0 0 0 0 0 0 0 0 0 0 0 0 0 0 0 0 0 0 0 0 0 0 0 0 0 0 0 0 0 0 0 11 11 14 14 13 14 12 10 12 10 12 10 10 10 10 11 11 0 0 0 0 0 0 0 0 0 0 0 0 0 0 0 0 0 0 0 0 0 0 0 0 0 0 0 0 0 0 0 0 0 0 0 0 0 0 0 0 0 9 10 0 9 9 0 9 9 0 0 0 0 0 0 0 0 0 0 9 9 9 0 0 0 0 0 11 8 9 0 9 9 9 9 9 0 0 9 9 9 9 9 -193 10 11 11 13 11 11 11 9 10 0 9 0 0 0 9 0 0 0 9 0 0 0 0 0 0 0 0 0 9 0 0 0 0 0 0 0 0 0 10 0 0 0 12 11 14 12 12 12 13 13 18 13 15 14 19 18 19 21 18 14 19 21 16 15 16 17 -177 -177 -177 24 25 30 35 34 33 34 28 29 28 23 22 21 21 21 20 21 21 17 21 23 23 23 21 22 22 24 17 18 18 -193 20 19 19 19 16 23 24 25 -193 25 29 30 29 28 29 29 28 29 30 27 26 27 28 28 27 27 27 30 30 30 30 30 30 34 33 34 30 35 34 35 35 34 31 33 35 0 0 0 0 0
    0 0 0 0 0 0 0 0 0 0 0 0 0 0 0 0 0 0 0 0 0 0 0 0 0 0 0 0 0 0 0 0 0 0 0 0 0 0 0 0 0 0 0 0 0 0 0 0 0 0 0 0 0 0 0 0 0 0 0 0 0 0 0 0 0 0 0 0 0 12 13 15 15 14 15 13 11 13 10 12 10 10 10 10 11 11 0 0 0 0 0 0 0 0 0 0 0 0 0 0 0 0 0 0 0 0 0 0 0 0 0 0 0 0 0 0 0 0 0 0 0 0 0 0 0 0 0 0 9 0 0 9 0 9 0 0 0 0 0 0 0 0 0 0 0 9 0 0 0 0 0 9 9 11 10 10 0 9 0 9 9 9 0 0 9 9 9 9 9 -193 10 11 11 13 11 11 9 9 9 0 0 0 0 0 0 0 0 0 9 0 0 0 0 0 0 0 0 0 9 0 0 0 0 0 0 0 0 0 10 9 9 0 13 11 15 12 12 12 13 13 18 13 15 14 19 19 19 21 18 14 20 21 16 15 16 16 -193 -177 -193 23 -193 29 34 33 32 31 26 27 26 22 21 20 21 20 20 20 21 16 22 23 23 22 20 21 22 23 17 17 19 -193 -193 19 19 20 17 23 24 25 20 25 29 30 29 29 30 30 28 30 30 27 26 27 28 28 26 26 26 30 29 29 29 30 30 34 33 34 30 36 35 35 35 34 32 34 35 0 0 0 0 0
    0 0 0 0 0 0 0 0 0 0 0 0 0 0 0 0 0 0 0 0 0 0 0 0 0 0 0 0 0 0 0 0 0 0 0 0 0 0 0 0 0 0 0 0 0 0 0 0 0 0 0 0 0 0 0 0 0 0 0 0 0 0 0 0 0 0 0 0 0 12 13 14 14 13 14 12 11 12 10 12 11 10 10 10 11 11 0 0 0 0 0 0 0 0 0 0 0 0 0 0 0 0 0 0 0 0 0 0 0 0 0 0 0 0 0 0 0 0 0 0 0 0 0 0 0 0 0 0 0 0 0 9 0 0 0 0 0 0 0 0 0 0 0 0 0 9 0 0 0 0 0 9 0 10 10 10 0 9 0 9 9 9 9 0 9 9 9 10 9 -193 10 10 11 14 12 12 0 0 9 0 0 0 0 0 0 0 0 0 9 0 0 0 0 0 0 0 9 0 9 0 0 0 0 0 0 0 0 0 11 9 9 0 14 12 15 13 13 12 13 14 18 13 15 14 20 19 20 21 19 15 21 21 16 14 16 16 -193 -193 -193 22 21 27 31 30 29 27 23 23 24 20 20 19 20 19 20 20 20 15 22 23 23 22 20 20 22 23 17 18 19 355 -193 20 19 20 17 23 24 25 21 25 28 30 29 28 29 30 28 29 29 27 26 27 28 27 26 26 26 30 29 29 29 30 30 34 33 34 30 36 35 36 35 35 32 35 35 0 0 0 0 0
    0 0 0 0 0 0 0 0 0 0 0 0 0 0 0 0 0 0 0 0 0 0 0 0 0 0 0 0 0 0 0 0 0 0 0 0 0 0 0 0 0 0 0 0 0 0 0 0 0 0 0 0 0 0 0 0 0 0 0 0 0 0 0 0 0 0 0 0 0 12 13 14 14 13 13 12 11 12 11 12 11 10 10 10 11 11 9 0 0 0 0 0 0 0 0 0 0 0 0 0 0 0 0 0 0 0 0 0 0 0 0 0 0 0 0 0 0 0 0 0 0 0 0 0 0 0 0 0 0 0 0 8 0 0 0 0 0 0 0 0 0 0 0 0 9 9 0 0 0 0 0 0 0 0 0 0 0 0 0 0 0 9 9 0 0 9 9 9 9 9 9 10 11 14 12 12 0 0 0 0 0 0 0 0 0 0 0 0 9 0 0 0 0 0 0 0 9 0 9 0 0 0 0 0 0 0 0 0 11 10 10 0 14 12 15 13 14 13 14 14 18 14 15 15 20 20 20 21 19 16 21 21 17 15 16 16 14 -193 20 20 20 27 29 28 27 23 20 21 22 19 19 18 19 18 20 20 20 14 22 23 22 22 20 20 22 23 18 18 20 355 -193 20 20 20 17 23 23 25 20 25 27 29 28 28 28 29 27 29 28 27 25 27 28 27 26 26 27 30 29 30 29 30 30 34 33 33 31 35 35 35 35 34 31 34 35 0 0 0 0 0
    0 0 0 0 0 0 0 0 0 0 0 0 0 0 0 0 0 0 0 0 0 0 0 0 0 0 0 0 0 0 0 0 0 0 0 0 0 0 0 0 0 0 0 0 0 0 0 0 0 0 0 0 0 0 0 0 0 0 0 0 0 0 0 0 0 0 0 0 0 13 13 14 14 14 14 13 12 12 12 12 12 11 11 11 11 11 9 0 0 0 0 0 0 0 0 0 0 0 0 0 0 0 0 0 0 0 0 0 0 0 0 0 0 0 0 0 0 0 0 0 0 0 0 0 0 0 0 0 0 0 0 0 0 0 0 0 0 0 0 0 0 0 0 0 9 10 9 0 0 0 0 0 0 0 0 0 0 0 0 0 0 0 0 0 0 9 9 9 9 9 9 10 11 14 11 11 0 0 0 0 0 0 0 0 0 0 0 0 0 0 0 0 0 0 0 0 9 0 0 0 0 0 0 0 0 0 0 0 12 11 11 9 14 13 15 14 14 13 14 14 19 14 15 16 20 20 21 22 20 17 22 21 17 15 17 15 13 19 18 17 17 25 26 -209 24 21 18 19 22 18 18 17 18 16 19 19 19 13 22 23 22 22 20 20 23 23 19 19 20 356 21 20 20 20 17 22 22 24 19 24 26 28 28 27 28 29 27 29 28 27 26 27 28 27 26 26 27 30 29 29 29 30 30 34 32 32 30 34 34 34 34 33 31 33 34 0 0 0 0 0
    0 0 0 0 0 0 0 0 0 0 0 0 0 0 0 0 0 0 0 0 0 0 0 0 0 0 0 0 0 0 0 0 0 0 0 0 0 0 0 0 0 0 0 0 0 0 0 0 0 0 0 0 0 0 0 0 0 0 0 0 0 0 0 0 0 0 0 0 0 13 13 14 14 14 14 13 12 12 13 13 13 11 11 11 11 12 10 0 0 0 0 0 0 0 0 0 0 0 0 0 0 0 0 0 9 0 0 0 0 0 0 0 0 0 0 0 0 0 0 0 0 0 0 0 0 0 0 0 0 0 0 0 0 0 0 0 0 0 0 0 0 0 0 0 9 9 0 0 0 0 0 0 0 0 0 0 0 0 0 0 0 0 0 0 0 9 9 9 9 9 -193 10 11 14 11 11 0 0 0 0 0 0 0 0 0 0 0 0 0 0 0 0 0 0 0 0 9 0 0 0 0 0 0 0 0 0 0 0 13 11 11 9 13 13 15 14 13 12 14 14 18 14 15 16 20 20 21 22 20 17 23 21 18 16 17 15 13 18 17 15 15 22 22 -193 23 19 17 18 21 17 17 17 17 15 19 18 19 13 22 24 23 24 23 24 26 28 22 22 22 -177 22 21 21 21 18 22 22 24 19 23 26 28 27 27 27 29 27 29 28 27 26 27 28 27 26 26 27 30 29 29 29 30 30 33 32 32 30 33 33 33 33 32 31 33 35 0 0 0 0 0
    0 0 0 0 0 0 0 0 0 0 0 0 0 0 0 0 0 0 0 0 0 0 0 0 0 0 0 0 0 0 0 0 0 0 0 0 0 0 0 0 0 0 0 0 0 0 0 0 0 0 0 0 0 0 0 0 0 0 0 0 0 0 0 0 0 0 0 0 0 13 13 14 14 14 14 13 13 13 14 14 13 12 12 12 12 12 10 0 0 0 0 0 0 0 0 0 0 0 0 0 0 0 0 0 9 0 0 0 0 0 0 0 0 0 0 0 0 0 0 0 0 0 0 0 0 0 0 0 0 0 0 0 0 0 0 0 0 0 0 0 0 0 0 0 0 0 0 0 0 0 0 0 0 0 0 0 0 0 0 0 0 0 0 0 0 9 0 0 0 0 -193 10 11 14 11 10 0 0 0 0 0 0 0 0 0 0 0 0 0 0 0 0 0 0 0 0 8 0 0 0 0 0 0 0 0 0 0 9 15 13 13 11 14 15 15 14 14 12 13 14 19 14 14 17 20 20 21 22 20 18 23 21 19 16 17 14 12 16 15 12 12 16 17 -193 21 17 16 17 20 17 17 17 17 15 19 18 19 13 24 25 24 27 26 28 34 36 25 24 24 -193 22 22 22 21 19 23 23 24 21 24 26 28 27 27 28 29 27 29 28 27 26 27 27 27 25 26 27 29 29 29 28 30 30 32 31 31 31 32 33 34 34 33 32 34 35 0 0 0 0 0
    0 0 0 0 0 0 0 0 0 0 0 0 0 0 0 0 0 0 0 0 0 0 0 0 0 0 0 0 0 0 0 0 0 0 0 0 0 0 0 0 0 0 0 0 0 0 0 0 0 0 0 0 0 0 0 0 0 0 0 0 0 0 0 0 0 0 0 0 0 14 13 14 14 14 14 13 13 13 14 15 14 12 12 12 12 13 11 0 0 0 0 0 0 0 0 0 0 0 0 0 0 0 0 0 9 0 0 0 0 0 0 0 0 0 0 0 0 0 0 0 0 0 0 0 0 0 0 0 0 0 0 0 0 0 0 0 0 0 0 0 0 0 0 0 0 0 0 0 0 0 0 0 0 0 0 0 0 0 0 0 0 0 0 0 0 0 0 0 0 0 -193 9 11 14 11 10 0 0 0 0 0 0 0 0 0 0 0 0 0 0 0 0 0 0 0 0 0 0 0 0 0 0 9 0 0 9 9 10 16 15 14 12 14 16 15 15 14 12 13 13 19 14 14 17 19 20 21 22 20 18 23 21 18 17 17 14 12 14 14 11 11 13 13 12 20 16 15 17 20 17 17 17 17 15 19 19 19 13 25 26 25 30 32 37 39 39 30 26 25 -193 23 22 22 21 20 23 23 25 23 25 27 29 29 28 29 30 27 29 28 28 27 28 28 27 26 27 28 29 29 29 28 30 31 32 32 31 32 33 34 35 35 33 33 35 36 0 0 0 0 0
    0 0 0 0 0 0 0 0 0 0 0 0 0 0 0 0 0 0 0 0 0 0 0 0 0 0 0 0 0 0 0 0 0 0 0 0 0 0 0 0 0 0 0 0 0 0 0 0 0 0 0 0 0 0 0 0 0 0 0 0 0 0 0 0 0 0 0 0 0 14 13 14 14 14 14 13 13 13 14 15 14 13 13 13 13 13 11 9 0 0 0 0 0 0 0 0 0 0 0 0 0 0 0 0 0 0 0 0 0 0 0 0 0 0 0 0 0 0 0 0 0 0 0 0 0 0 0 0 0 0 0 0 0 0 0 0 0 0 0 0 0 9 0 0 0 0 0 0 0 0 0 0 0 0 0 0 0 0 0 0 0 0 0 0 0 0 0 0 0 0 -193 0 9 14 11 10 0 0 0 0 0 0 0 0 0 0 0 0 0 0 0 0 0 0 0 0 9 0 0 0 0 0 9 0 0 9 10 11 17 16 14 12 15 17 15 16 15 13 13 13 19 15 14 17 19 20 21 22 20 18 23 21 18 17 17 14 12 15 14 11 12 14 14 13 21 17 15 17 21 17 17 17 17 15 19 19 19 13 25 28 27 32 35 38 40 39 35 29 27 29 23 22 22 21 20 23 24 25 24 27 30 32 33 31 33 32 29 32 30 29 29 29 29 28 27 29 31 31 32 32 31 33 33 34 33 32 34 34 35 37 37 35 35 36 37 0 0 0 0 0
    0 0 0 0 0 0 0 0 0 0 0 0 0 0 0 0 0 0 0 0 0 0 0 0 0 0 0 0 0 0 0 0 0 0 0 0 0 0 0 0 0 0 0 0 0 0 0 0 0 0 0 0 0 0 0 0 0 0 0 0 0 0 0 0 0 0 0 0 0 14 13 14 14 14 14 13 13 13 14 15 14 13 13 13 13 13 12 10 9 0 0 0 0 0 0 0 0 0 0 0 0 0 0 0 0 0 0 0 0 0 0 0 0 0 0 0 0 0 0 0 0 0 0 0 0 0 0 0 0 0 0 0 0 0 0 0 0 0 0 0 0 9 9 0 0 9 0 0 0 0 0 0 0 0 0 0 0 0 0 0 0 0 0 0 0 0 0 0 0 0 0 0 0 13 10 10 0 0 0 0 0 0 0 0 0 0 0 0 0 0 0 0 0 0 0 10 10 9 0 0 0 0 9 0 0 10 10 11 18 17 15 13 15 18 16 16 15 13 13 14 19 15 14 18 18 20 21 22 20 18 23 20 18 17 17 15 13 16 15 11 15 16 16 16 21 17 16 18 21 17 17 17 17 15 19 19 19 14 25 28 28 33 36 39 40 40 36 30 29 29 23 22 22 21 20 23 24 25 25 28 33 35 36 35 35 34 30 34 31 31 30 30 30 30 29 33 35 34 36 36 35 37 36 36 35 33 36 35 36 37 37 35 36 37 38 0 0 0 0 0
    0 0 0 0 0 0 0 0 0 0 0 0 0 0 0 0 0 0 0 0 0 0 0 0 0 0 0 0 0 0 0 0 0 0 0 0 0 0 0 0 0 0 0 0 0 0 0 0 0 0 0 0 0 0 0 0 0 0 0 0 0 0 0 0 0 0 0 0 0 13 13 13 14 14 14 13 13 14 14 15 14 13 13 13 13 14 12 10 9 0 0 0 0 0 0 0 0 0 0 0 0 0 0 0 0 0 0 0 0 0 0 0 0 0 0 0 0 0 0 0 0 0 0 0 0 0 0 0 0 0 0 0 0 0 0 0 0 0 0 9 0 9 9 0 0 9 0 0 0 0 0 0 0 0 0 0 0 0 0 0 0 0 0 0 0 0 0 0 -193 -193 0 0 0 12 9 9 0 0 0 0 0 0 0 0 0 0 0 0 0 0 0 0 0 0 8 10 10 9 0 0 0 0 0 0 0 10 10 12 19 18 16 14 16 18 16 17 16 13 13 14 19 15 14 18 18 20 20 21 20 17 23 20 17 17 17 15 13 17 16 11 17 18 18 18 22 18 16 18 21 17 17 17 17 15 20 19 20 17 26 31 30 35 37 39 41 40 36 31 30 29 23 22 22 21 21 24 25 26 27 30 37 38 39 38 38 37 33 36 33 32 31 31 31 32 32 35 37 37 39 39 38 40 38 38 37 35 37 35 36 38 38 35 36 38 38 0 0 0 0 0
    0 0 0 0 0 0 0 0 0 0 0 0 0 0 0 0 0 0 0 0 0 0 0 0 0 0 0 0 0 0 0 0 0 0 0 0 0 0 0 0 0 0 0 0 0 0 0 0 0 0 0 0 0 0 0 0 0 0 0 0 0 0 0 0 0 0 0 0 0 14 13 14 15 15 15 14 13 14 14 15 14 13 13 13 13 13 12 11 9 0 0 0 0 0 0 0 0 0 0 0 0 0 0 0 0 0 0 0 0 0 0 0 0 0 0 0 0 0 0 0 0 0 0 0 0 0 0 0 0 0 0 0 0 0 9 0 0 9 9 9 9 9 9 0 0 9 0 0 0 0 0 0 0 0 0 0 0 0 0 0 0 0 0 0 0 0 -193 0 -193 -193 0 0 0 11 9 9 0 0 0 0 0 0 0 0 0 0 0 0 0 0 0 0 0 9 9 11 11 10 0 0 0 0 0 0 0 10 10 12 20 19 16 14 17 19 16 18 16 13 12 13 19 15 14 18 17 19 20 21 19 16 22 19 17 18 17 16 14 17 16 11 18 20 20 21 23 19 18 20 21 19 18 18 18 16 -193 21 21 21 27 33 32 36 38 40 41 41 37 32 32 32 23 23 23 22 22 25 26 29 28 34 41 42 43 42 42 40 37 39 38 35 33 32 33 34 35 37 38 38 40 40 40 41 39 39 38 36 38 36 36 38 38 36 37 38 39 0 0 0 0 0
    0 0 0 0 0 0 0 0 0 0 0 0 0 0 0 0 0 0 0 0 0 0 0 0 0 0 0 0 0 0 0 0 0 0 0 0 0 0 0 0 0 0 0 0 0 0 0 0 0 0 0 0 0 0 0 0 0 0 0 0 0 0 0 0 0 0 0 0 0 14 14 15 16 16 16 15 14 15 14 15 13 12 12 12 12 13 12 11 10 9 10 0 0 0 0 0 0 0 0 0 0 0 0 0 9 0 0 0 0 0 0 0 0 0 0 0 0 0 0 0 0 0 0 0 0 0 0 0 0 0 0 0 0 0 9 0 0 9 9 9 9 9 9 0 0 0 0 0 0 0 0 0 0 0 0 0 0 0 0 0 0 0 0 0 0 -193 -193 0 -193 0 0 0 0 10 9 9 0 0 0 0 0 0 0 0 0 0 0 0 0 0 0 0 0 9 9 10 10 9 0 0 0 0 0 0 0 11 10 13 20 19 17 15 17 19 17 18 16 13 12 13 20 15 14 18 16 19 19 20 19 16 22 19 16 17 17 16 15 18 17 12 21 23 23 24 25 20 19 21 22 20 19 19 19 18 -193 -193 23 24 28 34 33 36 39 40 41 41 38 34 34 36 24 24 23 22 23 26 28 34 32 38 42 45 45 44 44 43 41 42 40 37 35 33 35 36 38 38 39 40 43 43 42 43 41 40 40 38 39 37 37 39 39 37 38 39 39 0 0 0 0 0
    0 0 0 0 0 0 0 0 0 0 0 0 0 0 0 0 0 0 0 0 0 0 0 0 0 0 0 0 0 0 0 0 0 0 0 0 0 0 0 0 0 0 0 0 0 0 0 0 0 0 0 0 0 0 0 0 0 0 0 0 0 0 0 0 0 0 0 0 0 15 14 16 17 16 16 16 14 15 13 14 12 11 12 12 12 14 12 13 11 12 14 11 0 0 0 0 0 0 0 0 0 0 0 0 9 0 0 0 0 0 0 0 0 0 0 0 0 0 0 0 0 0 0 0 0 0 0 0 0 0 0 0 0 0 9 0 0 9 9 9 0 0 9 0 0 0 0 0 0 0 0 0 0 0 0 0 0 0 9 0 0 0 0 0 0 -193 -193 0 0 0 0 0 0 10 9 10 0 0 0 0 0 0 0 0 0 0 0 0 0 0 9 9 9 9 9 10 10 10 9 0 0 0 9 0 10 12 11 14 20 19 17 15 17 18 17 18 15 13 12 13 20 15 14 18 16 19 19 20 19 15 22 19 16 17 16 17 16 18 18 13 23 25 25 26 27 22 21 22 23 21 20 20 20 19 23 24 24 26 29 35 34 37 39 40 41 41 39 36 37 39 25 24 24 23 24 29 35 39 38 41 44 46 46 45 45 44 42 43 42 38 36 35 37 38 39 39 41 42 44 44 44 44 42 42 42 40 40 39 38 40 40 39 40 40 40 0 0 0 0 0
    0 0 0 0 0 0 0 0 0 0 0 0 0 0 0 0 0 0 0 0 0 0 0 0 0 0 0 0 0 0 0 0 0 0 0 0 0 0 0 0 0 0 0 0 0 0 0 0 0 0 0 0 0 0 0 0 0 0 0 0 0 0 0 0 0 0 0 0 0 16 15 17 17 17 16 16 14 14 12 14 12 11 12 12 13 15 14 16 14 17 20 17 9 0 0 0 0 0 0 0 0 0 0 0 9 0 0 0 0 0 0 0 0 0 0 0 0 0 0 0 0 0 0 0 0 0 0 0 0 0 0 0 0 0 0 0 0 0 0 9 0 0 0 0 0 0 9 0 0 0 0 0 0 0 0 0 0 0 10 0 0 0 -193 0 0 -193 -193 0 0 0 0 0 0 9 9 10 0 0 0 0 0 0 0 0 0 0 0 0 0 0 9 10 9 9 9 10 10 11 10 9 9 10 11 9 10 12 11 14 19 19 17 15 17 18 17 18 15 13 12 13 20 15 14 18 16 18 18 19 18 15 21 18 15 17 16 16 16 18 18 14 24 25 25 27 28 23 23 24 24 23 22 23 22 21 25 26 26 29 30 35 34 37 39 40 41 41 39 37 38 40 29 26 26 25 27 35 41 42 41 42 44 46 47 46 45 44 43 43 43 40 38 37 38 40 41 40 42 43 45 45 44 44 43 43 42 41 41 40 39 40 40 40 41 41 41 0 0 0 0 0
    0 0 0 0 0 0 0 0 0 0 0 0 0 0 0 0 0 0 0 0 0 0 0 0 0 0 0 0 0 0 0 0 0 0 0 0 0 0 0 0 0 0 0 0 0 0 0 0 0 0 0 0 0 0 0 0 0 0 0 0 0 0 0 0 0 0 0 0 0 17 15 17 18 17 17 16 14 14 11 12 11 10 12 12 13 16 16 20 18 22 24 23 9 0 0 0 0 0 0 0 0 0 0 0 9 0 0 0 0 0 0 0 0 0 0 0 0 9 0 0 0 0 0 0 0 0 0 0 0 0 0 0 0 0 0 0 0 0 0 0 0 0 0 0 0 9 9 0 0 0 0 0 0 0 0 0 0 0 11 9 0 -193 -193 0 0 -193 0 0 0 0 0 0 0 9 9 10 0 0 0 0 0 0 0 0 0 0 -193 9 12 11 11 12 11 9 10 10 11 11 11 10 10 11 11 9 10 12 11 15 18 18 16 15 16 17 16 17 14 13 12 12 20 16 14 18 16 18 18 19 18 14 21 18 14 17 15 16 16 18 18 13 23 25 25 28 29 28 26 27 26 26 25 26 -193 24 27 28 28 32 32 36 35 37 39 40 41 41 38 37 38 41 35 33 32 28 35 40 42 43 42 43 45 46 47 46 45 44 44 44 44 41 39 39 40 42 42 42 43 43 45 45 44 45 43 43 42 41 41 40 39 40 40 40 41 42 42 0 0 0 0 0
    0 0 0 0 0 0 0 0 0 0 0 0 0 0 0 0 0 0 0 0 0 0 0 0 0 0 0 0 0 0 0 0 0 0 0 0 0 0 0 0 0 0 0 0 0 0 0 0 0 0 0 0 0 0 0 0 0 0 0 0 0 0 0 0 0 0 0 0 0 17 16 18 18 18 17 16 14 13 11 11 10 9 12 13 14 18 19 23 22 25 26 25 10 0 0 0 0 0 0 0 0 0 9 9 9 0 0 0 0 0 0 0 0 0 0 0 0 9 0 0 0 0 0 0 0 0 0 0 0 0 0 0 0 0 0 0 0 0 0 0 0 0 0 0 0 0 0 0 0 0 0 0 0 0 0 0 0 0 11 0 0 -193 -193 0 0 0 0 0 0 0 0 0 0 0 9 10 0 0 0 0 0 0 0 0 0 -209 -209 12 22 18 15 16 14 10 12 11 11 11 11 11 10 11 11 9 10 11 10 15 17 18 15 14 16 17 16 17 14 14 12 13 21 16 15 18 16 18 18 18 17 14 21 17 14 17 14 15 16 18 18 13 23 25 24 29 30 31 28 30 29 30 28 29 27 28 29 31 31 36 34 37 37 38 38 39 40 40 35 37 38 41 37 40 40 38 39 41 43 44 43 44 45 46 46 45 45 44 44 43 44 42 41 41 41 42 43 43 43 43 44 45 44 44 43 43 43 42 42 41 40 40 40 41 42 42 42 0 0 0 0 0
    0 0 0 0 0 0 0 0 0 0 0 0 0 0 0 0 0 0 0 0 0 0 0 0 0 0 0 0 0 0 0 0 0 0 0 0 0 0 0 0 0 0 0 0 0 0 0 0 0 0 0 0 0 0 0 0 0 0 0 0 0 0 0 0 0 0 0 0 0 17 16 18 18 18 17 16 15 14 11 10 9 9 12 14 16 20 21 25 24 26 27 26 11 9 0 0 0 0 0 0 0 0 0 0 9 0 0 0 0 0 0 0 0 0 0 0 0 9 0 0 0 0 0 0 0 0 0 0 0 0 0 0 0 0 0 0 0 0 0 0 0 0 0 0 0 0 0 0 0 0 0 0 0 0 0 0 0 0 -193 0 -193 -193 -193 -193 0 0 0 0 0 0 0 0 9 0 0 10 0 0 0 0 0 0 0 0 0 -209 -193 -193 25 24 20 21 19 13 14 13 12 12 12 11 11 11 11 9 10 10 9 15 15 16 14 14 15 17 16 17 14 14 12 13 21 16 14 18 15 18 17 17 17 13 20 17 14 17 14 15 16 17 17 14 22 24 24 29 31 32 30 32 31 33 31 33 30 31 31 34 34 38 -193 -193 38 39 39 39 40 40 35 38 39 41 40 41 41 41 41 43 44 45 44 45 46 46 47 46 46 44 45 43 44 43 42 42 42 42 43 43 43 43 43 44 43 44 43 -193 43 43 42 42 41 41 41 42 42 42 42 0 0 0 0 0
    0 0 0 0 0 0 0 0 0 0 0 0 0 0 0 0 0 0 0 0 0 0 0 0 0 0 0 0 0 0 0 0 0 0 0 0 0 0 0 0 0 0 0 0 0 0 0 0 0 0 0 0 0 0 0 0 0 0 0 0 0 0 0 0 0 0 0 0 0 16 16 17 18 17 17 16 15 14 11 10 9 9 13 16 19 22 -193 27 27 27 28 26 10 0 0 0 0 0 0 0 0 0 0 0 0 0 0 0 0 0 0 0 0 0 0 0 0 9 0 0 0 0 0 0 0 0 0 0 0 0 0 0 0 0 0 0 0 0 0 0 0 0 0 0 0 0 0 0 0 0 0 0 0 0 0 0 0 0 -193 0 -193 -193 -193 -193 0 0 0 0 0 0 0 0 9 9 9 11 0 0 0 0 -193 0 0 0 0 -209 -193 -209 26 26 23 24 22 15 16 14 13 13 12 12 11 11 11 9 11 11 10 15 15 16 14 14 14 16 16 16 13 14 13 13 20 16 14 17 15 17 17 17 16 13 20 17 14 17 14 15 16 17 17 14 22 24 24 30 31 33 32 34 33 35 33 35 34 35 35 37 37 39 -193 -177 -193 -193 40 40 40 41 36 40 40 43 41 42 42 43 43 44 44 46 45 47 47 47 47 47 47 45 45 44 44 43 43 43 42 42 43 43 -193 -193 -193 -193 -193 -193 -193 -193 43 43 43 43 42 42 41 43 43 42 42 0 0 0 0 0
    0 0 0 0 0 0 0 0 0 0 0 0 0 0 0 0 0 0 0 0 0 0 0 0 0 0 0 0 0 0 0 0 0 0 0 0 0 0 0 0 0 0 0 0 0 0 0 0 0 0 0 0 0 0 0 0 0 0 0 0 0 0 0 0 0 0 0 0 0 17 16 16 18 17 17 16 15 14 12 11 -193 10 16 20 21 24 26 28 30 28 29 26 21 14 0 0 0 0 0 0 0 0 0 0 0 0 0 0 0 0 0 0 0 0 0 0 0 9 0 0 0 0 0 0 0 0 0 0 0 0 0 0 0 0 9 0 0 0 0 9 0 0 0 0 0 0 0 0 0 0 0 0 0 0 0 0 0 0 -193 -193 -209 -209 -193 9 9 0 0 0 0 0 0 0 10 9 9 13 9 9 -193 -193 -193 0 0 0 0 -209 -209 -209 27 27 25 25 23 18 17 14 14 13 12 12 11 12 12 10 11 11 10 16 14 16 15 13 13 15 16 16 13 15 13 13 20 17 14 16 15 17 17 17 16 13 19 17 15 18 14 14 16 17 17 14 22 25 25 31 32 34 33 35 34 36 35 36 36 37 37 38 38 40 -193 -177 -209 -193 40 40 40 41 36 41 42 45 42 44 44 44 44 45 45 46 45 47 47 47 47 47 47 44 45 43 -177 -177 -177 -177 43 43 43 -193 177 176 176 178 178 -193 -193 -193 44 44 44 44 44 43 42 44 44 43 43 0 0 0 0 0
    0 0 0 0 0 0 0 0 0 0 0 0 0 0 0 0 0 0 0 0 0 0 0 0 0 0 0 0 0 0 0 0 0 0 0 0 0 0 0 0 0 0 0 0 0 0 0 0 0 0 0 0 0 0 0 0 0 0 0 0 0 0 0 0 0 0 0 0 0 17 16 16 18 17 17 16 16 16 15 14 -193 14 21 25 25 26 28 29 32 29 29 27 25 21 9 0 0 0 0 0 0 0 0 0 0 0 0 0 0 0 0 0 0 0 0 0 0 8 0 0 0 0 0 0 0 0 0 0 0 0 0 0 0 0 10 0 0 0 0 9 9 9 9 0 9 9 9 0 0 0 0 0 0 0 0 0 0 0 -193 -209 -209 -209 -193 -193 10 9 9 0 0 0 0 0 11 9 10 14 10 10 -193 -193 -193 -193 9 10 10 19 -209 -209 27 29 26 27 24 20 19 15 14 13 12 12 12 12 12 11 12 12 11 17 14 15 15 13 13 15 16 16 13 15 14 13 19 18 14 16 15 17 17 16 16 14 19 17 15 18 14 14 16 17 18 15 23 25 25 32 33 35 34 36 35 37 36 37 37 38 38 39 39 41 -193 -177 -177 41 40 40 40 41 36 42 43 46 43 44 44 44 44 44 44 46 45 47 47 47 47 47 46 44 45 43 -177 -177 -177 -177 42 42 43 -193 178 177 176 177 178 -193 -193 -193 44 45 44 44 44 45 43 46 44 43 43 0 0 0 0 0
    0 0 0 0 0 0 0 0 0 0 0 0 0 0 0 0 0 0 0 0 0 0 0 0 0 0 0 0 0 0 0 0 0 0 0 0 0 0 0 0 0 0 0 0 0 0 0 0 0 0 0 0 0 0 0 0 0 0 0 0 0 0 0 0 0 0 0 0 0 17 16 16 18 17 17 17 18 18 18 17 21 21 25 28 27 28 29 30 33 30 30 27 25 23 14 10 9 9 0 0 0 0 0 0 0 0 0 0 0 0 0 0 0 0 0 0 0 0 0 0 0 0 0 0 0 0 0 0 0 0 0 0 0 0 11 0 0 0 9 10 10 10 10 0 10 10 11 0 0 0 0 0 0 0 0 0 -193 -193 -193 -193 -209 -209 -193 -193 -193 11 11 0 10 11 12 10 13 10 10 15 10 10 -193 -193 -193 10 11 12 12 22 26 26 29 30 28 29 26 21 21 16 15 14 13 12 12 12 12 12 13 12 11 17 14 15 15 14 13 15 16 16 13 16 14 14 19 18 14 16 15 16 17 16 16 14 18 16 15 18 14 14 16 17 18 15 24 26 26 33 34 36 36 36 36 37 37 38 37 39 39 -193 40 42 -193 -177 -177 41 40 40 40 41 36 42 42 45 42 44 44 44 44 44 44 46 45 47 47 47 47 47 46 44 45 43 44 43 -177 43 42 42 43 -193 -193 -193 177 178 -193 -193 -193 45 44 45 44 45 45 46 44 47 44 44 44 0 0 0 0 0
    0 0 0 0 0 0 0 0 0 0 0 0 0 0 0 0 0 0 0 0 0 0 0 0 0 0 0 0 0 0 0 0 0 0 0 0 0 0 0 0 0 0 0 0 0 0 0 0 0 0 0 0 0 0 0 0 0 0 0 0 0 0 0 0 0 0 0 0 0 17 17 15 18 18 18 18 20 20 21 21 25 25 28 32 29 29 30 32 34 31 30 26 23 21 17 11 10 10 9 10 11 11 9 0 0 0 0 0 0 0 0 0 0 0 0 0 0 0 0 0 0 0 0 0 0 0 0 0 0 0 0 0 0 0 11 9 0 0 9 10 10 11 11 9 11 12 13 10 11 -193 -193 27 28 -193 -209 -193 -193 -193 -193 -209 -209 -209 -193 -193 14 15 14 11 16 24 22 19 19 11 10 14 11 11 -193 -193 11 11 12 14 16 25 27 28 30 32 30 32 28 23 22 17 15 14 12 12 12 11 12 12 12 12 11 17 14 15 16 14 13 16 16 16 14 16 15 14 19 19 15 15 15 16 16 16 15 14 17 16 16 19 -193 -177 -177 17 18 15 25 26 27 34 35 36 36 37 36 37 37 38 37 39 39 -193 40 -193 -193 -177 -193 41 40 40 40 41 36 42 42 45 42 44 43 43 43 44 44 46 45 47 47 47 47 47 47 45 45 43 44 43 43 42 42 42 43 -193 -193 -193 -193 -193 -193 44 44 45 44 45 45 45 46 46 44 48 45 44 44 0 0 0 0 0
    0 0 0 0 0 0 0 0 0 0 0 0 0 0 0 0 0 0 0 0 0 0 0 0 0 0 0 0 0 0 0 0 0 0 0 0 0 0 0 0 0 0 0 0 0 0 0 0 0 0 0 0 0 0 0 0 0 0 0 0 0 0 0 0 0 0 0 0 0 17 17 15 19 18 19 20 21 22 22 23 27 27 30 33 30 29 31 32 34 31 31 27 25 26 23 14 11 12 11 13 15 16 13 10 12 9 10 9 11 9 0 0 0 0 0 0 0 0 0 0 0 0 0 0 0 0 0 0 0 0 0 0 0 9 13 12 10 10 11 12 12 13 13 11 12 16 18 15 22 29 30 30 30 29 29 -193 -177 -193 -193 -209 -209 -209 -193 -193 17 20 20 17 23 26 26 -193 21 13 10 15 12 12 11 11 12 13 15 18 20 26 28 29 31 32 31 35 31 -209 -209 18 16 14 12 12 12 11 11 12 12 11 11 17 14 15 16 14 13 16 17 16 14 17 16 14 19 19 15 15 15 16 16 15 15 14 17 16 16 19 16 -177 -177 18 19 17 25 27 27 35 35 36 36 36 36 38 37 38 37 39 39 -193 40 42 -193 -193 -193 41 -193 40 41 41 36 42 42 45 42 43 43 43 43 44 44 46 45 47 47 46 47 47 47 45 45 43 43 42 -193 -193 -193 -209 -193 -193 -193 -193 -193 -193 44 44 44 46 45 46 46 46 47 47 45 49 45 44 44 0 0 0 0 0
    0 0 0 0 0 0 0 0 0 0 0 0 0 0 0 0 0 0 0 0 0 0 0 0 0 0 0 0 0 0 0 0 0 0 0 0 0 0 0 0 0 0 0 0 0 0 0 0 0 0 0 0 0 0 0 0 0 0 0 0 0 0 0 0 0 0 0 0 0 17 16 15 19 18 19 21 -193 -193 23 24 28 29 32 34 30 29 32 32 35 33 33 31 29 32 28 24 16 18 15 17 21 21 19 14 20 24 17 18 20 -193 9 0 -193 0 9 0 9 -193 0 0 0 -193 -193 -193 -193 0 0 0 0 0 0 0 10 11 17 18 14 14 15 16 17 18 17 14 16 21 22 23 25 32 33 32 32 30 30 -193 -193 -193 -193 -209 -209 -193 -193 -193 19 22 23 23 25 28 27 26 22 17 11 17 13 13 13 12 13 16 19 21 21 27 29 29 32 33 32 35 32 30 -209 19 17 15 13 12 12 10 11 12 11 11 11 17 14 15 16 14 13 17 17 16 14 17 16 14 18 19 15 14 15 15 16 15 15 15 16 16 17 19 16 -177 -193 19 20 19 25 27 28 35 34 36 36 36 36 38 37 38 37 39 39 -209 -193 42 -177 -177 42 42 -177 41 41 41 37 42 43 45 42 43 44 44 43 44 44 47 45 47 47 46 46 46 46 45 44 43 42 -193 -209 -209 -209 -209 -193 -193 -193 -193 -193 44 44 45 45 46 45 47 47 47 48 48 46 49 44 44 43 0 0 0 0 0
    0 0 0 0 0 0 0 0 0 0 0 0 0 0 0 0 0 0 0 0 0 0 0 0 0 0 0 0 0 0 0 0 0 0 0 0 0 0 0 0 0 0 0 0 0 0 0 0 0 0 0 0 0 0 0 0 0 0 0 0 0 0 0 0 0 0 0 0 0 17 15 14 18 -193 19 -193 190 -193 -193 25 30 32 34 35 32 31 34 34 35 34 35 33 34 36 30 26 25 21 20 21 23 24 23 21 25 -193 -193 -193 -193 -193 -193 -193 -193 -193 14 -193 15 -209 -193 0 -209 -193 -193 -193 784 -193 0 9 9 0 9 0 11 14 21 23 20 21 21 21 22 22 21 19 21 24 24 25 27 34 34 33 33 32 31 30 -193 -193 -193 -193 -193 -193 15 -193 21 24 25 26 27 29 28 27 23 20 12 18 15 15 14 14 14 19 22 23 23 28 30 30 32 33 32 34 33 30 -209 19 18 15 13 12 12 10 11 12 12 11 12 18 14 15 17 14 13 17 17 16 14 17 16 14 17 19 15 14 15 15 16 15 15 15 16 16 18 18 17 -177 20 20 21 21 26 27 29 35 34 37 36 36 37 38 37 38 37 39 38 -193 -193 -193 -177 -177 -193 -193 -177 41 42 42 39 44 43 45 42 44 44 44 44 45 44 47 45 47 46 45 46 46 46 44 44 42 -193 -209 -209 -209 -193 -193 319 -193 -193 -193 44 44 45 45 45 46 45 47 47 47 48 48 46 48 44 44 44 0 0 0 0 0
    0 0 0 0 0 0 0 0 0 0 0 0 0 0 0 0 0 0 0 0 0 0 0 0 0 0 0 0 0 0 0 0 0 0 0 0 0 0 0 0 0 0 0 0 0 0 0 0 0 0 0 0 0 0 0 0 0 0 0 0 0 0 0 0 0 0 0 0 0 17 16 14 19 -193 20 -193 189 -193 -193 28 32 34 35 36 35 33 35 34 36 35 35 35 36 36 32 27 26 24 23 24 25 25 25 25 26 -193 -193 -193 -193 33 35 29 33 35 30 -193 39 -193 -209 -209 -209 -193 -193 -193 785 -193 0 9 9 0 9 0 12 21 23 26 24 25 25 24 25 25 25 25 24 26 26 28 30 35 35 34 34 33 33 32 30 30 26 22 19 17 20 21 24 26 27 27 28 30 29 28 24 21 12 19 16 16 15 15 15 22 25 25 25 28 31 31 32 34 32 34 33 31 -209 20 19 16 13 12 12 10 12 12 12 12 13 18 15 15 18 15 13 17 18 16 15 18 16 14 17 20 15 14 16 15 17 16 16 16 15 15 18 18 17 -177 20 21 22 22 26 27 30 35 34 37 36 36 37 38 37 38 37 39 38 39 -193 -193 -177 -193 -193 -177 -177 42 42 42 40 45 44 46 43 44 44 44 44 44 43 46 44 46 45 44 45 45 45 44 43 42 -193 -209 -209 -209 -193 317 319 -193 44 44 45 45 45 45 46 46 46 47 47 47 47 48 46 48 44 45 45 0 0 0 0 0
    0 0 0 0 0 0 0 0 0 0 0 0 0 0 0 0 0 0 0 0 0 0 0 0 0 0 0 0 0 0 0 0 0 0 0 0 0 0 0 0 0 0 0 0 0 0 0 0 0 0 0 0 0 0 0 0 0 0 0 0 0 0 0 0 0 0 0 0 0 19 16 15 20 -193 21 -193 189 -193 31 32 34 36 36 37 36 34 36 35 36 35 36 36 37 37 34 30 27 25 25 26 26 26 27 27 29 33 -193 -193 33 35 36 33 36 37 37 40 42 -193 -209 -209 -193 -193 -193 -193 785 785 0 0 0 0 0 0 14 24 25 28 27 26 26 26 27 26 26 27 26 28 29 31 33 36 36 34 35 34 34 34 32 32 28 26 24 24 23 24 25 27 28 28 30 31 29 29 24 21 13 19 17 17 16 17 17 25 27 28 28 29 33 32 33 34 32 34 33 32 -193 21 19 17 13 12 12 10 13 12 13 12 13 19 15 15 18 15 14 18 18 17 15 18 17 14 17 20 15 15 16 16 17 16 16 16 16 16 18 18 17 -177 20 22 22 23 26 28 30 35 34 37 36 36 37 38 37 38 37 39 38 39 40 -193 -193 -209 -209 -193 -177 41 42 42 41 45 44 46 43 44 44 44 44 44 43 46 44 45 44 44 44 44 45 -193 43 -193 -193 -193 -209 -209 -193 -193 -193 -193 44 44 45 45 45 46 46 47 46 47 48 48 49 49 48 49 46 47 46 0 0 0 0 0
    0 0 0 0 0 0 0 0 0 0 0 0 0 0 0 0 0 0 0 0 0 0 0 0 0 0 0 0 0 0 0 0 0 0 0 0 0 0 0 0 0 0 0 0 0 0 0 0 0 0 0 0 0 0 0 0 0 0 0 0 0 0 0 0 0 0 0 0 0 19 17 16 20 -193 22 -193 -193 31 34 35 36 37 38 38 38 36 38 36 37 36 37 37 38 37 35 30 27 26 26 27 27 28 28 28 31 33 33 33 33 34 35 34 37 36 38 41 41 -193 -193 -209 -193 -193 -193 787 785 -177 -193 0 0 0 0 0 14 -193 26 29 29 29 28 28 29 28 28 28 27 30 31 35 36 37 36 35 36 35 35 35 34 34 31 29 26 26 26 26 26 29 30 30 32 33 31 30 -193 22 14 19 18 17 17 18 20 27 29 30 29 30 34 33 33 35 33 35 34 35 31 -193 20 18 14 12 13 10 13 12 13 12 13 19 15 15 18 15 15 18 18 17 15 18 17 14 17 20 15 15 17 17 18 17 17 17 16 16 19 17 17 -193 20 22 22 23 26 27 30 35 33 37 36 36 37 38 38 38 38 39 38 38 40 40 -193 40 40 -193 -193 41 41 41 41 45 44 46 43 44 44 44 44 44 43 46 44 45 44 44 44 44 45 44 43 -193 -193 -209 -209 -209 -193 -193 -193 -193 44 44 45 45 46 46 47 47 47 48 49 49 49 50 49 49 47 48 47 0 0 0 0 0
    0 0 0 0 0 0 0 0 0 0 0 0 0 0 0 0 0 0 0 0 0 0 0 0 0 0 0 0 0 0 0 0 0 0 0 0 0 0 0 0 0 0 0 0 0 0 0 0 0 0 0 0 0 0 0 0 0 0 0 0 0 0 0 0 0 0 0 0 0 20 17 17 21 -193 23 27 -193 34 36 36 37 38 38 39 39 37 38 38 38 37 37 38 39 37 34 29 27 26 27 28 28 29 29 29 32 33 33 33 32 34 34 35 37 36 38 42 42 44 45 -193 41 -209 791 787 786 -177 -193 0 0 0 0 -193 -193 -193 27 31 32 31 30 30 31 30 29 30 28 30 33 36 37 38 37 36 37 36 36 36 35 35 34 33 31 30 29 30 29 32 33 32 34 34 33 31 -193 22 15 19 19 18 18 19 22 29 32 32 31 31 34 34 34 35 33 35 35 36 34 -209 -193 20 14 12 13 10 13 12 12 12 13 19 15 15 19 15 15 19 18 17 16 18 17 14 17 20 16 15 17 17 18 18 18 18 16 16 19 17 17 -193 21 22 23 23 27 28 30 35 33 36 36 35 36 38 38 38 37 39 37 38 40 40 39 40 39 40 39 41 41 41 41 45 45 46 43 44 44 44 44 44 43 46 43 45 44 43 44 44 44 44 42 -193 -193 -193 -193 -209 -193 -193 -193 42 44 44 46 46 46 47 47 47 47 48 49 49 49 50 49 49 48 48 47 0 0 0 0 0
    0 0 0 0 0 0 0 0 0 0 0 0 0 0 0 0 0 0 0 0 0 0 0 0 0 0 0 0 0 0 0 0 0 0 0 0 0 0 0 0 0 0 0 0 0 0 0 0 0 0 0 0 0 0 0 0 0 0 0 0 0 0 0 0 0 0 0 0 0 20 17 18 22 -193 24 29 34 35 36 37 38 38 39 39 39 37 39 39 38 38 38 38 40 37 34 29 26 27 28 29 30 30 31 31 33 34 33 33 33 33 34 34 36 34 37 41 41 44 45 42 42 -209 -177 -177 -177 -177 -193 0 0 0 0 -193 -193 -193 29 32 35 33 33 33 33 31 31 30 29 30 35 37 38 38 38 37 38 37 37 37 36 37 36 36 36 34 35 36 35 35 36 34 35 35 34 32 -209 21 16 20 20 19 20 21 24 31 34 33 32 32 34 34 34 35 33 35 36 36 35 -193 -209 -193 14 12 13 10 14 11 12 12 13 20 15 16 19 15 16 19 19 17 16 18 17 14 17 20 15 15 17 17 18 18 18 18 16 16 19 17 17 -193 21 22 23 -193 27 27 30 35 32 36 35 34 36 37 37 38 37 39 37 38 40 39 -193 40 40 40 40 41 41 41 42 46 46 46 43 44 44 44 44 45 43 45 43 44 43 -193 -193 -193 -193 -193 42 -193 -193 -193 -193 -209 -193 -193 -193 43 45 44 46 46 46 46 47 47 47 48 49 48 48 50 49 48 48 48 47 0 0 0 0 0
    0 0 0 0 0 0 0 0 0 0 0 0 0 0 0 0 0 0 0 0 0 0 0 0 0 0 0 0 0 0 0 0 0 0 0 0 0 0 0 0 0 0 0 0 0 0 0 0 0 0 0 0 0 0 0 0 0 0 0 0 0 0 0 0 0 0 0 0 0 22 19 19 23 -193 25 30 35 36 37 38 38 38 38 39 39 37 39 38 38 38 38 38 39 36 34 29 26 28 29 29 30 31 31 32 34 34 33 33 33 33 34 35 36 33 37 40 40 41 43 42 42 -209 -193 -193 -177 -177 -193 0 0 0 0 -193 -193 -209 30 33 35 34 34 33 34 32 31 31 29 31 35 36 37 38 37 37 38 37 37 37 37 37 36 36 37 35 36 37 37 36 37 35 36 36 35 -193 -193 21 18 20 21 20 21 21 25 30 34 33 32 32 35 35 35 36 33 34 36 36 35 31 28 -209 16 13 13 11 15 11 12 12 13 20 15 16 19 16 16 19 19 18 16 18 17 14 17 20 16 16 18 18 19 18 18 19 17 16 19 16 17 -193 21 -193 -193 -193 26 27 30 34 31 35 35 34 36 37 37 37 37 38 37 38 40 39 39 40 40 40 40 41 41 41 42 46 46 46 44 45 44 44 44 45 43 45 43 44 43 -193 -193 -193 -193 -193 -193 -193 -193 -193 -209 -209 42 42 -193 43 45 44 47 46 46 46 47 47 47 48 48 47 48 50 50 48 48 48 47 0 0 0 0 0
    0 0 0 0 0 0 0 0 0 0 0 0 0 0 0 0 0 0 0 0 0 0 0 0 0 0 0 0 0 0 0 0 0 0 0 0 0 0 0 0 0 0 0 0 0 0 0 0 0 0 0 0 0 0 0 0 0 0 0 0 0 0 0 0 0 0 0 0 0 24 23 23 25 -193 27 32 35 36 37 37 38 38 38 39 39 38 39 39 38 37 37 37 38 34 31 28 26 27 29 30 31 31 31 33 34 34 34 33 34 34 35 36 37 34 37 38 39 40 41 41 42 -209 -193 -193 -193 -193 -193 0 0 0 0 -193 -193 -193 31 34 36 34 35 35 35 34 32 33 32 33 37 37 37 38 37 37 39 38 37 37 37 37 37 36 37 -193 35 36 37 36 37 35 37 36 36 -193 -209 21 19 20 21 20 21 21 25 30 34 33 32 32 35 34 35 36 33 34 35 36 35 32 30 27 19 17 14 11 17 12 13 13 14 21 16 16 20 16 18 20 19 18 17 19 18 15 17 20 16 17 19 19 20 19 19 19 17 17 19 16 17 -193 21 -193 -193 -193 26 27 30 34 31 34 34 33 35 36 37 37 37 38 38 38 40 39 39 40 40 40 40 40 40 40 42 45 45 45 44 44 44 44 43 44 43 44 43 44 43 44 -193 -193 -193 -193 -193 -193 -193 -193 -209 -193 43 42 43 43 46 45 48 46 45 46 47 46 46 47 48 46 48 50 50 48 49 49 48 0 0 0 0 0
    0 0 0 0 0 0 0 0 0 0 0 0 0 0 0 0 0 0 0 0 0 0 0 0 0 0 0 0 0 0 0 0 0 0 0 0 0 0 0 0 0 0 0 0 0 0 0 0 0 0 0 0 0 0 0 0 0 0 0 0 0 0 0 0 0 0 0 0 0 31 31 29 32 36 31 34 36 36 37 37 38 38 38 38 39 38 39 39 38 36 36 35 36 30 29 27 25 27 30 30 32 31 32 33 34 34 34 32 34 33 35 36 37 35 36 38 38 39 40 41 41 -209 -209 -193 -193 -193 -209 0 0 0 0 -209 -209 35 33 34 36 35 35 35 36 35 35 35 36 36 39 39 39 39 38 38 39 38 38 38 37 37 37 36 38 35 37 38 38 37 38 37 38 37 37 -193 -209 -193 20 20 20 20 21 20 25 30 34 33 32 33 35 35 35 36 34 34 35 36 35 34 32 29 22 22 17 13 20 15 18 16 18 22 18 18 21 18 20 21 20 19 18 20 19 16 18 21 17 19 -193 20 21 21 20 20 18 18 20 17 17 19 21 23 -193 -193 27 27 30 34 31 34 34 32 35 36 37 37 37 38 38 39 40 39 39 39 39 40 39 39 40 39 42 44 45 44 44 44 43 43 43 44 43 44 43 44 44 44 44 44 43 44 -193 -193 -193 -193 42 42 43 42 43 44 46 45 49 46 45 45 46 46 46 47 48 46 48 51 50 49 50 49 48 0 0 0 0 0
    0 0 0 0 0 0 0 0 0 0 0 0 0 0 0 0 0 0 0 0 0 0 0 0 0 0 0 0 0 0 0 0 0 0 0 0 0 0 0 0 0 0 0 0 0 0 0 0 0 0 0 0 0 0 0 0 0 0 0 0 0 0 0 0 0 0 0 0 0 36 35 34 36 37 35 36 37 37 36 37 38 38 38 38 39 37 38 38 38 36 35 34 35 29 29 28 26 28 32 31 33 32 33 33 33 34 33 31 33 31 34 36 37 35 36 37 38 38 41 42 42 -193 -209 -209 -193 -209 -209 -209 -193 -193 -209 -209 -209 37 35 36 37 36 37 37 38 37 38 38 39 39 42 41 41 40 39 38 39 38 38 38 38 38 38 37 39 36 39 40 39 38 39 38 38 38 39 -193 -193 -193 -193 20 20 19 20 19 25 30 34 34 33 34 35 35 36 36 34 34 36 36 35 36 34 32 25 -193 21 17 22 19 22 21 22 24 20 20 22 20 22 22 22 20 19 21 20 17 19 22 -193 -193 -193 23 24 23 22 22 21 20 21 18 18 19 21 22 23 -193 27 27 29 32 30 32 33 31 33 35 36 37 37 38 38 39 40 39 39 39 39 39 39 39 39 37 41 43 44 43 44 44 43 43 43 44 43 44 43 44 44 45 45 44 44 45 -193 -193 -193 42 42 43 44 43 44 44 46 45 49 46 45 45 46 45 46 47 48 45 48 51 50 49 50 49 48 0 0 0 0 0
    0 0 0 0 0 0 0 0 0 0 0 0 0 0 0 0 0 0 0 0 0 0 0 0 0 0 0 0 0 0 0 0 0 0 0 0 0 0 0 0 0 0 0 0 0 0 0 0 0 0 0 0 0 0 0 0 0 0 0 0 0 0 0 0 0 0 0 0 0 37 36 35 36 37 35 36 37 37 36 36 37 38 38 38 38 37 38 38 37 36 36 35 35 29 30 29 27 29 34 32 33 32 33 32 33 33 33 30 32 30 33 35 36 35 36 36 38 38 41 43 44 45 44 -193 -209 -209 -209 -209 -209 -209 -209 -209 -209 41 39 39 39 38 39 39 39 39 40 41 41 41 43 42 41 40 39 38 39 38 38 37 38 38 38 37 39 37 40 41 41 39 39 38 39 39 39 36 -193 -193 -193 21 20 20 21 19 26 31 33 34 33 35 35 35 36 36 34 35 37 37 36 38 37 36 33 41 -193 24 25 27 30 31 34 -209 25 26 26 25 24 25 24 22 22 22 22 20 21 24 -193 -193 -193 27 28 27 26 25 24 23 22 20 18 18 20 22 22 23 27 27 28 30 30 30 32 31 32 34 36 37 37 38 38 39 40 39 38 38 39 38 38 38 38 35 40 42 44 42 44 44 43 43 43 44 44 45 44 45 45 46 46 46 45 45 -193 -193 -193 -193 42 42 43 42 44 45 46 45 49 46 45 45 46 45 46 47 47 45 47 51 50 49 49 48 48 0 0 0 0 0</data></disparity>
</opencv_storage>
