<?xml version="1.0"?>
<opencv_storage>
<gps_time_stamp>26440</gps_time_stamp>
<gps_x>-5.6928029060363770e+000</gps_x>
<gps_y>8.2752627134323120e-001</gps_y>
<gps_z>-1.4377518892288208e+000</gps_z>
<image_time_stamp>14367</image_time_stamp>
<disparity type_id="opencv-matrix">
  <rows>77</rows>
  <cols>320</cols>
  <dt>s</dt>
  <data>
    0 0 0 0 0 0 0 0 0 0 0 0 0 0 0 0 0 0 0 0 0 0 0 0 0 0 0 0 0 0 0 0 0 0 0 0 0 0 0 0 0 0 0 0 0 0 0 0 0 0 0 0 0 0 0 0 0 0 0 0 0 0 0 0 0 0 0 0 0 160 161 160 161 149 149 152 147 140 143 147 148 147 152 154 153 156 159 161 159 -193 -193 -193 -193 -193 -193 -193 162 -193 160 159 159 159 158 158 157 157 157 156 155 -193 -193 -193 -193 -193 -193 -209 146 150 154 -193 -209 -209 -209 -209 143 -209 -209 -209 -209 -193 165 166 -193 -209 165 -193 -209 -209 -209 -209 148 152 154 150 153 -209 153 154 154 -193 -209 -209 -209 -193 -209 -209 152 152 -193 146 146 140 139 142 140 140 142 140 141 140 141 141 138 139 138 137 -193 -193 139 140 141 147 152 155 157 159 162 165 165 164 162 162 163 163 162 163 163 163 160 161 156 157 157 162 165 159 156 157 159 159 153 153 149 139 -193 -209 -209 -193 150 153 153 154 155 154 153 153 -209 -209 -209 -193 -209 -209 154 157 157 158 160 161 159 160 159 158 153 151 150 148 143 140 138 138 138 140 137 137 139 143 150 154 155 163 160 157 156 157 156 155 155 154 147 147 147 147 143 142 142 142 141 142 145 146 149 151 153 154 153 153 153 153 153 154 159 158 161 159 161 162 162 162 161 159 161 157 164 161 158 158 161 163 164 162 162 158 156 157 156 0 0 0 0 0
    0 0 0 0 0 0 0 0 0 0 0 0 0 0 0 0 0 0 0 0 0 0 0 0 0 0 0 0 0 0 0 0 0 0 0 0 0 0 0 0 0 0 0 0 0 0 0 0 0 0 0 0 0 0 0 0 0 0 0 0 0 0 0 0 0 0 0 0 0 162 162 161 162 154 154 155 -193 146 148 153 153 153 155 158 157 160 163 163 162 164 164 166 166 166 163 164 164 162 162 161 160 161 159 160 159 159 159 158 159 -193 -193 -193 -193 -193 155 -193 -193 154 157 -193 -193 -193 -193 -209 155 164 167 -193 167 167 166 166 165 166 166 166 167 165 -209 -193 156 156 158 155 156 155 156 157 157 158 -209 156 -193 -193 -193 -209 -193 153 -209 148 148 144 141 147 149 147 150 147 148 145 147 145 -209 140 138 138 138 139 141 143 147 151 157 158 161 162 162 164 164 164 162 162 162 163 162 163 163 162 162 162 160 163 162 165 165 164 160 160 162 160 157 155 155 154 153 156 157 157 156 157 158 159 158 158 156 155 -193 -193 -193 155 155 155 157 158 159 159 161 162 160 160 159 158 156 154 154 153 152 150 141 141 142 147 142 138 142 150 154 161 157 164 162 160 159 159 158 157 156 156 153 150 150 149 145 143 143 144 142 144 146 148 151 153 155 156 154 154 154 154 154 154 159 158 160 159 161 161 161 161 161 158 160 157 163 161 159 160 163 163 164 163 162 158 156 157 156 0 0 0 0 0
    0 0 0 0 0 0 0 0 0 0 0 0 0 0 0 0 0 0 0 0 0 0 0 0 0 0 0 0 0 0 0 0 0 0 0 0 0 0 0 0 0 0 0 0 0 0 0 0 0 0 0 0 0 0 0 0 0 0 0 0 0 0 0 0 0 0 0 0 0 164 164 162 164 159 158 159 158 156 155 157 157 156 158 159 159 162 164 164 163 165 165 166 166 166 164 164 163 163 162 161 161 162 161 162 160 160 160 159 160 158 155 155 155 155 158 158 158 157 159 160 160 160 162 161 158 165 165 164 167 167 166 166 165 166 165 166 166 164 164 160 159 159 162 158 158 158 158 159 160 160 160 158 162 161 162 158 156 155 154 151 151 153 149 153 155 153 155 154 155 154 154 -193 -209 -193 -209 139 142 145 147 150 152 157 162 161 163 163 162 163 164 163 161 162 162 163 162 163 163 162 163 162 161 163 163 164 165 164 162 161 163 162 161 160 160 159 158 162 163 161 160 159 161 162 159 159 158 157 157 157 158 157 157 158 160 160 160 159 161 162 160 160 160 158 157 156 156 156 155 155 152 149 150 153 154 154 153 154 157 162 159 164 163 161 160 160 159 158 158 157 155 153 153 151 148 146 146 145 144 143 145 146 149 154 157 158 156 155 155 155 155 155 160 158 159 159 160 161 161 160 161 158 160 158 162 160 158 160 163 160 161 161 161 157 156 157 157 0 0 0 0 0
    0 0 0 0 0 0 0 0 0 0 0 0 0 0 0 0 0 0 0 0 0 0 0 0 0 0 0 0 0 0 0 0 0 0 0 0 0 0 0 0 0 0 0 0 0 0 0 0 0 0 0 0 0 0 0 0 0 0 0 0 0 0 0 0 0 0 0 0 0 165 165 164 165 163 163 163 162 161 160 160 160 160 162 162 162 163 165 165 164 165 165 166 166 166 164 164 163 163 162 162 162 163 161 162 161 161 161 160 161 159 156 157 157 158 162 161 161 160 161 161 161 161 162 161 160 165 165 163 166 166 165 165 164 165 165 165 166 163 164 162 161 161 163 160 161 160 161 160 161 162 162 158 162 162 163 160 159 157 154 153 154 156 155 156 159 156 158 157 158 158 157 157 157 155 157 151 -209 156 155 157 159 165 165 163 164 163 162 163 163 163 161 162 162 163 161 163 163 163 163 162 162 163 163 164 164 164 163 162 163 163 163 162 164 163 162 164 165 163 162 161 162 163 160 160 160 160 159 160 161 160 158 160 162 160 161 160 161 162 160 160 160 159 159 158 159 158 158 158 156 154 156 156 157 157 158 158 159 162 159 163 162 162 161 161 159 159 159 159 156 155 154 153 151 151 152 150 149 146 148 149 153 158 161 161 158 157 156 158 158 158 163 159 160 159 160 161 161 160 161 157 160 157 161 158 155 157 159 157 157 160 159 158 157 158 158 0 0 0 0 0
    0 0 0 0 0 0 0 0 0 0 0 0 0 0 0 0 0 0 0 0 0 0 0 0 0 0 0 0 0 0 0 0 0 0 0 0 0 0 0 0 0 0 0 0 0 0 0 0 0 0 0 0 0 0 0 0 0 0 0 0 0 0 0 0 0 0 0 0 0 165 165 164 165 163 163 163 162 161 160 161 160 160 162 162 163 164 165 165 164 165 165 165 166 165 164 164 163 163 162 162 163 163 161 162 161 161 161 161 161 160 157 159 159 160 163 162 161 161 162 161 162 160 162 160 162 166 165 163 166 166 165 165 164 165 164 164 165 162 163 162 161 161 163 161 161 160 162 161 161 162 162 158 161 160 161 159 157 156 154 153 155 157 156 157 160 158 159 158 159 159 158 159 158 156 159 155 160 162 157 161 162 166 166 163 164 163 161 162 162 162 160 162 162 163 162 163 164 164 164 163 162 163 164 164 164 163 163 161 163 162 163 161 163 162 161 163 164 162 161 160 161 163 160 160 160 160 160 161 161 161 159 161 162 160 161 160 160 162 160 160 161 160 161 160 161 160 160 160 159 158 160 159 160 160 162 160 161 162 159 163 162 162 162 161 160 160 160 161 158 157 156 156 155 156 156 155 155 153 153 155 156 160 162 163 161 159 158 160 161 160 165 159 160 160 161 161 161 160 161 156 160 157 160 158 157 158 161 161 163 164 164 163 162 162 162 0 0 0 0 0
    0 0 0 0 0 0 0 0 0 0 0 0 0 0 0 0 0 0 0 0 0 0 0 0 0 0 0 0 0 0 0 0 0 0 0 0 0 0 0 0 0 0 0 0 0 0 0 0 0 0 0 0 0 0 0 0 0 0 0 0 0 0 0 0 0 0 0 0 0 165 165 164 164 163 163 163 161 161 160 160 160 160 163 163 164 164 165 165 164 165 165 165 165 164 164 164 163 163 163 162 163 163 161 163 161 161 161 161 161 159 157 159 158 160 164 162 161 161 162 161 161 160 162 160 162 166 164 163 166 166 165 165 164 165 164 164 165 162 163 162 161 162 163 161 162 160 162 161 161 162 162 158 160 159 160 158 157 157 156 155 156 158 157 158 161 158 159 158 159 159 158 159 158 157 160 156 161 161 157 160 159 166 165 162 163 163 161 161 162 162 160 161 162 163 161 163 164 164 164 162 162 163 164 164 164 163 162 161 162 161 162 159 162 161 160 162 163 162 160 159 160 162 159 160 160 159 160 161 161 161 158 161 162 160 161 160 160 162 160 160 160 160 161 160 161 160 160 161 160 159 161 160 161 160 163 160 161 161 159 163 162 162 162 161 161 161 160 162 158 159 157 157 158 158 158 157 156 155 156 156 158 160 161 163 161 161 159 160 160 160 165 159 160 160 161 161 161 160 160 156 160 156 158 156 157 159 165 166 167 168 168 168 169 169 169 0 0 0 0 0
    0 0 0 0 0 0 0 0 0 0 0 0 0 0 0 0 0 0 0 0 0 0 0 0 0 0 0 0 0 0 0 0 0 0 0 0 0 0 0 0 0 0 0 0 0 0 0 0 0 0 0 0 0 0 0 0 0 0 0 0 0 0 0 0 0 0 0 0 0 165 165 163 164 163 163 162 161 161 160 160 160 160 163 163 164 165 165 165 165 165 165 164 165 165 165 164 164 164 164 163 164 164 162 163 161 161 161 161 161 159 157 160 158 160 164 162 161 161 161 161 161 160 161 159 160 164 164 163 165 165 165 164 163 164 163 163 164 161 162 161 161 161 163 161 161 160 162 161 161 162 161 159 160 160 160 159 158 158 157 156 158 159 159 160 162 159 160 159 160 160 159 160 159 158 161 158 162 162 158 160 157 165 164 161 162 162 160 160 160 161 159 160 162 162 161 162 164 163 164 162 163 163 164 164 164 163 163 161 162 160 162 159 162 161 159 161 162 161 160 159 160 162 159 160 160 159 160 161 161 161 158 161 162 159 160 160 160 161 160 160 160 160 161 160 161 160 160 161 160 160 162 160 161 160 162 159 159 160 159 163 161 162 162 161 161 161 161 162 158 159 157 156 158 158 158 156 156 154 155 155 157 159 160 163 162 161 160 160 160 161 164 159 160 160 160 160 160 160 160 155 160 157 158 158 163 165 170 179 174 173 173 172 173 172 172 0 0 0 0 0
    0 0 0 0 0 0 0 0 0 0 0 0 0 0 0 0 0 0 0 0 0 0 0 0 0 0 0 0 0 0 0 0 0 0 0 0 0 0 0 0 0 0 0 0 0 0 0 0 0 0 0 0 0 0 0 0 0 0 0 0 0 0 0 0 0 0 0 0 0 165 164 163 163 163 163 162 161 161 160 160 160 160 163 163 164 165 165 165 165 165 165 164 165 165 165 165 165 165 164 164 165 164 162 163 161 161 161 161 161 159 158 161 158 161 164 162 162 162 162 161 161 160 162 158 160 163 163 162 164 164 164 163 162 163 162 162 163 160 162 160 160 161 162 161 161 160 162 161 162 162 162 159 161 160 161 160 159 160 159 158 160 162 162 162 163 160 161 160 160 161 160 161 159 159 162 159 163 163 159 160 157 165 164 161 162 162 160 160 160 161 159 160 161 162 160 162 163 163 164 162 163 163 164 164 164 163 163 161 162 160 161 158 161 160 159 160 161 161 160 159 160 162 159 160 160 160 160 161 161 161 158 161 162 160 160 160 160 161 160 160 160 159 161 160 161 160 160 161 159 160 162 160 160 160 162 159 159 160 159 163 161 162 162 161 161 161 161 162 158 159 157 156 158 158 158 156 155 153 155 155 157 159 160 162 162 160 160 160 160 160 164 159 159 159 160 160 160 160 159 155 161 158 160 163 168 170 173 179 176 177 175 174 174 173 173 0 0 0 0 0
    0 0 0 0 0 0 0 0 0 0 0 0 0 0 0 0 0 0 0 0 0 0 0 0 0 0 0 0 0 0 0 0 0 0 0 0 0 0 0 0 0 0 0 0 0 0 0 0 0 0 0 0 0 0 0 0 0 0 0 0 0 0 0 0 0 0 0 0 0 165 164 162 162 162 162 162 160 160 160 160 160 160 163 162 163 164 164 164 165 164 164 163 164 164 165 164 164 164 164 164 165 164 162 163 161 161 161 161 161 159 159 161 158 161 165 162 162 162 162 161 161 160 162 158 160 163 162 161 164 164 164 163 162 163 162 162 163 160 161 160 159 161 162 160 160 160 161 160 161 162 161 159 161 161 160 160 160 161 160 160 162 163 163 163 163 160 161 160 160 161 160 161 159 160 162 160 163 162 159 159 156 165 164 161 162 163 160 161 160 161 159 159 161 162 160 161 163 163 164 162 164 163 164 163 163 163 163 161 162 159 161 158 161 160 159 160 161 161 160 159 160 162 159 160 160 160 160 161 161 161 159 162 161 160 160 160 160 161 159 160 159 159 160 160 160 160 160 161 159 160 163 160 161 161 163 160 159 160 159 163 161 162 162 161 161 161 161 162 158 159 157 155 157 157 156 155 155 153 155 155 157 158 159 161 161 159 159 159 159 160 163 159 159 159 160 160 160 160 159 156 163 161 163 166 171 171 174 179 177 178 176 175 175 174 175 0 0 0 0 0
    0 0 0 0 0 0 0 0 0 0 0 0 0 0 0 0 0 0 0 0 0 0 0 0 0 0 0 0 0 0 0 0 0 0 0 0 0 0 0 0 0 0 0 0 0 0 0 0 0 0 0 0 0 0 0 0 0 0 0 0 0 0 0 0 0 0 0 0 0 164 164 162 161 161 161 161 160 160 160 159 160 160 163 163 164 165 164 165 165 163 163 162 163 163 164 163 162 164 162 163 165 163 161 163 161 161 161 161 161 159 159 161 158 161 165 162 161 161 162 161 160 159 161 158 160 163 162 161 163 164 164 163 162 163 162 162 163 160 162 160 159 161 161 160 160 160 161 159 161 162 161 159 162 160 160 160 160 160 160 159 161 162 162 163 162 160 160 159 159 160 160 161 158 160 162 160 162 162 158 159 156 165 163 160 162 163 161 161 160 161 159 159 162 162 159 161 163 163 165 162 164 162 164 163 163 162 162 160 161 158 160 157 160 160 158 160 161 160 159 159 160 161 159 160 160 160 160 161 161 161 159 162 161 159 160 160 159 161 159 160 159 159 160 160 160 160 160 161 160 162 163 161 161 162 163 160 159 160 159 162 161 162 161 160 160 161 160 162 158 159 157 155 157 158 157 156 155 153 156 155 158 158 159 161 162 160 160 160 160 161 164 159 159 159 160 160 160 160 159 156 164 164 165 168 174 173 175 179 178 178 177 175 175 174 177 0 0 0 0 0
    0 0 0 0 0 0 0 0 0 0 0 0 0 0 0 0 0 0 0 0 0 0 0 0 0 0 0 0 0 0 0 0 0 0 0 0 0 0 0 0 0 0 0 0 0 0 0 0 0 0 0 0 0 0 0 0 0 0 0 0 0 0 0 0 0 0 0 0 0 163 163 161 160 161 160 160 160 161 160 160 162 162 164 163 164 165 164 165 165 162 162 160 162 162 163 162 161 163 161 163 166 163 161 163 161 161 161 161 161 159 159 161 157 161 165 161 161 161 162 161 161 160 161 158 160 163 163 161 163 164 163 163 163 163 162 162 163 160 163 161 160 162 162 160 160 160 161 159 160 161 160 158 161 159 159 160 160 160 159 158 160 162 162 163 161 160 159 159 158 160 159 161 158 160 162 161 163 163 160 160 157 165 163 161 162 163 161 161 160 161 158 159 162 162 159 161 164 164 165 163 165 162 164 163 163 162 162 160 161 158 160 156 160 159 158 159 160 159 159 159 160 161 159 160 160 159 160 161 160 161 158 162 160 159 159 160 159 161 159 160 158 159 160 160 160 160 160 161 160 162 162 161 161 161 162 160 158 159 158 161 159 161 160 159 159 160 160 162 158 160 157 155 158 159 157 156 156 154 157 156 159 159 160 162 163 161 162 161 160 163 164 159 159 160 161 160 160 160 158 155 165 165 166 170 176 174 175 179 179 179 177 176 176 175 179 0 0 0 0 0
    0 0 0 0 0 0 0 0 0 0 0 0 0 0 0 0 0 0 0 0 0 0 0 0 0 0 0 0 0 0 0 0 0 0 0 0 0 0 0 0 0 0 0 0 0 0 0 0 0 0 0 0 0 0 0 0 0 0 0 0 0 0 0 0 0 0 0 0 0 161 162 160 159 159 158 159 159 160 159 160 162 163 164 164 164 164 164 165 165 161 161 160 161 162 163 161 162 163 162 164 166 164 161 163 161 162 161 161 161 159 159 162 158 162 165 161 161 161 162 161 161 160 162 158 162 164 164 163 164 164 164 163 163 164 162 163 163 161 163 161 160 162 161 160 160 160 160 159 160 161 159 158 160 159 158 159 159 160 159 159 160 163 162 163 160 160 159 159 158 160 160 161 158 161 163 162 163 164 162 161 159 166 163 161 162 163 161 161 161 161 158 159 162 162 158 161 163 164 165 163 165 162 164 162 162 161 161 159 160 157 159 156 159 158 157 159 160 159 159 159 160 160 159 160 159 159 160 160 160 160 158 161 159 159 159 160 159 160 158 160 158 159 160 160 159 160 160 161 159 162 162 161 161 161 162 160 158 159 158 160 159 160 160 158 158 160 159 161 158 159 157 154 157 157 156 156 156 155 158 157 161 160 161 163 164 162 163 162 160 164 164 160 159 159 161 160 159 160 157 155 165 166 167 170 175 174 175 179 179 179 178 177 176 176 179 0 0 0 0 0
    0 0 0 0 0 0 0 0 0 0 0 0 0 0 0 0 0 0 0 0 0 0 0 0 0 0 0 0 0 0 0 0 0 0 0 0 0 0 0 0 0 0 0 0 0 0 0 0 0 0 0 0 0 0 0 0 0 0 0 0 0 0 0 0 0 0 0 0 0 161 162 160 158 158 156 156 158 159 159 160 163 163 164 165 165 164 164 164 165 162 162 161 162 163 164 162 163 164 164 165 166 164 161 163 161 162 161 161 161 159 159 162 158 162 164 161 161 161 162 161 161 160 162 159 162 165 165 164 165 165 164 164 164 165 163 163 163 162 164 161 159 162 161 159 160 160 160 159 160 161 159 159 161 159 159 160 159 160 160 159 160 162 161 163 161 161 159 159 159 160 160 162 159 162 163 162 163 163 162 161 160 165 163 160 161 163 161 161 161 161 158 159 162 162 158 161 163 163 165 163 165 -193 -193 162 162 161 161 159 159 157 158 156 158 158 157 159 160 159 158 159 161 160 159 161 160 159 160 160 159 160 158 161 158 158 158 159 158 160 158 160 158 160 161 160 159 160 160 161 159 163 161 162 161 161 162 160 159 159 158 160 159 159 159 158 158 160 159 161 157 159 157 153 156 156 154 155 155 154 158 157 161 160 161 163 164 161 162 162 160 164 163 160 159 159 161 160 159 160 157 155 165 166 167 169 174 174 176 179 179 179 178 177 177 176 179 0 0 0 0 0
    0 0 0 0 0 0 0 0 0 0 0 0 0 0 0 0 0 0 0 0 0 0 0 0 0 0 0 0 0 0 0 0 0 0 0 0 0 0 0 0 0 0 0 0 0 0 0 0 0 0 0 0 0 0 0 0 0 0 0 0 0 0 0 0 0 0 0 0 0 160 162 160 158 157 154 -193 157 158 159 161 164 164 165 165 165 164 164 165 165 162 162 162 162 164 164 163 164 164 164 165 166 164 161 163 161 161 161 161 161 159 159 162 158 161 164 161 161 160 161 160 160 160 162 158 161 164 164 163 164 165 164 164 164 165 164 164 164 163 164 161 159 163 160 159 160 160 159 159 160 161 159 160 162 161 160 161 160 161 160 160 160 162 161 163 161 161 160 160 159 161 161 162 159 162 163 162 163 163 162 161 160 165 162 160 161 162 160 161 160 160 158 158 162 161 157 159 160 160 163 161 165 -193 -193 160 160 160 160 158 158 156 158 156 159 158 157 159 160 159 159 160 161 160 159 161 159 159 160 161 159 160 158 161 158 158 158 159 158 160 158 160 158 160 161 160 160 160 160 161 159 163 162 162 161 161 162 160 159 160 158 160 159 159 159 158 158 159 158 159 157 158 157 154 155 155 154 154 155 154 158 158 162 161 161 163 163 161 162 162 160 164 162 160 160 159 161 160 159 160 157 157 166 166 167 169 174 174 176 179 179 179 178 178 177 177 180 0 0 0 0 0
    0 0 0 0 0 0 0 0 0 0 0 0 0 0 0 0 0 0 0 0 0 0 0 0 0 0 0 0 0 0 0 0 0 0 0 0 0 0 0 0 0 0 0 0 0 0 0 0 0 0 0 0 0 0 0 0 0 0 0 0 0 0 0 0 0 0 0 0 0 161 164 162 160 158 154 -193 157 158 159 160 163 164 163 164 164 163 163 164 165 162 161 162 163 165 166 163 164 165 165 166 166 164 161 162 161 162 161 161 161 160 159 162 158 161 163 161 160 159 160 160 159 159 161 157 159 163 163 162 163 164 164 164 164 165 164 164 164 164 164 161 158 163 160 159 159 160 159 159 160 161 159 161 162 161 160 162 161 161 160 159 160 162 160 163 161 161 160 160 159 160 160 162 159 162 162 160 163 163 162 161 161 164 162 160 161 162 160 161 160 160 157 158 161 161 157 158 158 159 163 161 164 -193 -193 160 160 159 159 158 158 156 157 156 159 159 158 160 160 159 158 160 160 159 159 161 159 160 160 161 159 160 159 161 158 159 158 159 158 160 158 160 158 160 161 161 160 161 160 162 159 164 162 163 161 161 161 160 159 160 159 160 159 160 159 158 158 159 159 158 157 158 157 156 157 157 157 156 156 157 159 159 163 162 162 163 163 162 162 162 161 164 162 160 160 160 161 160 160 161 157 159 167 168 167 170 174 175 176 178 179 179 177 178 177 176 179 0 0 0 0 0
    0 0 0 0 0 0 0 0 0 0 0 0 0 0 0 0 0 0 0 0 0 0 0 0 0 0 0 0 0 0 0 0 0 0 0 0 0 0 0 0 0 0 0 0 0 0 0 0 0 0 0 0 0 0 0 0 0 0 0 0 0 0 0 0 0 0 0 0 0 161 163 162 159 157 154 155 157 156 158 158 162 162 162 163 163 162 162 164 -193 161 160 161 161 163 165 164 164 165 163 166 165 164 160 162 162 162 161 162 161 160 160 163 160 161 162 160 159 158 160 159 159 158 160 158 158 163 163 162 163 164 164 165 165 165 164 165 165 164 164 161 159 163 160 159 160 160 159 159 159 161 158 160 162 160 160 161 160 161 159 159 160 161 160 162 160 160 160 160 158 159 159 160 158 160 161 158 161 163 163 161 162 164 162 161 162 163 161 161 161 160 158 158 161 161 158 161 160 161 163 163 164 -193 -193 159 159 159 158 157 157 155 157 156 159 158 158 160 160 159 159 161 160 159 160 161 160 160 161 161 159 161 160 162 159 159 159 159 158 160 157 160 158 160 161 161 161 162 161 163 161 165 164 164 161 162 162 161 160 160 160 160 160 160 160 159 159 159 159 158 158 158 157 156 157 157 157 155 154 155 156 157 161 160 161 163 163 162 163 163 162 164 162 160 159 160 161 160 160 160 157 160 167 167 166 170 172 173 174 177 178 178 177 177 176 176 179 0 0 0 0 0
    0 0 0 0 0 0 0 0 0 0 0 0 0 0 0 0 0 0 0 0 0 0 0 0 0 0 0 0 0 0 0 0 0 0 0 0 0 0 0 0 0 0 0 0 0 0 0 0 0 0 0 0 0 0 0 0 0 0 0 0 0 0 0 0 0 0 0 0 0 160 162 161 159 156 153 154 156 156 157 157 160 160 161 163 163 -193 -193 -193 -193 -193 -193 -193 159 160 163 162 -193 -193 161 164 164 164 160 161 162 162 161 162 161 160 159 163 161 161 161 160 158 158 160 160 159 158 159 158 158 164 164 -193 -193 165 166 166 166 166 165 165 165 164 164 162 160 163 161 160 160 160 159 158 160 161 158 160 162 160 159 161 160 160 158 158 158 159 158 161 160 160 160 160 158 159 159 160 158 160 160 158 161 163 163 162 163 164 163 161 163 163 161 161 161 160 158 159 162 161 158 164 162 164 164 164 -193 -193 -193 159 158 158 157 157 156 155 156 156 159 158 158 161 160 159 159 161 160 159 160 161 160 160 161 161 159 161 160 161 159 159 159 159 158 160 157 160 158 160 161 161 161 162 162 164 163 166 164 165 162 162 162 161 160 161 161 160 160 160 160 159 159 160 160 158 159 158 158 156 156 157 156 155 153 153 155 156 160 159 160 164 163 163 164 165 162 165 162 159 159 159 160 159 159 160 157 160 166 165 165 169 172 172 175 176 178 178 177 178 177 178 179 0 0 0 0 0
    0 0 0 0 0 0 0 0 0 0 0 0 0 0 0 0 0 0 0 0 0 0 0 0 0 0 0 0 0 0 0 0 0 0 0 0 0 0 0 0 0 0 0 0 0 0 0 0 0 0 0 0 0 0 0 0 0 0 0 0 0 0 0 0 0 0 0 0 0 160 162 162 160 156 154 155 156 156 157 157 159 160 160 163 164 -209 -209 -209 -209 161 -193 -209 -193 -193 160 161 -193 -209 159 163 164 164 160 161 162 162 161 162 161 160 158 162 162 160 160 160 158 158 160 160 159 157 159 157 -193 -209 -209 -209 -209 166 166 167 167 166 165 165 165 164 165 163 161 163 161 160 160 160 159 158 160 161 159 160 162 160 159 161 159 159 157 157 157 157 157 160 159 159 160 160 158 159 159 160 159 160 161 158 161 163 163 162 164 164 163 162 163 163 161 161 161 160 158 159 162 161 159 165 162 164 163 164 -193 -193 -193 159 158 159 157 157 156 155 156 156 159 158 157 161 160 159 159 161 160 159 160 161 159 160 161 161 159 161 160 161 158 159 158 159 158 159 157 159 158 160 161 161 161 162 162 164 164 166 164 165 162 162 161 161 160 160 161 160 160 160 160 160 160 160 160 158 159 158 158 156 156 157 157 155 153 153 155 156 160 159 159 164 162 163 164 165 162 165 161 159 158 159 160 159 159 159 157 159 165 164 164 168 171 172 176 177 178 178 178 178 178 179 180 0 0 0 0 0
    0 0 0 0 0 0 0 0 0 0 0 0 0 0 0 0 0 0 0 0 0 0 0 0 0 0 0 0 0 0 0 0 0 0 0 0 0 0 0 0 0 0 0 0 0 0 0 0 0 0 0 0 0 0 0 0 0 0 0 0 0 0 0 0 0 0 0 0 0 161 163 162 161 158 156 157 157 156 157 156 158 158 159 162 -193 -209 -209 -209 -209 -193 -209 -209 -209 -193 159 160 -209 -209 158 162 163 164 161 161 162 162 161 163 162 161 158 163 163 161 160 160 158 158 159 160 158 157 158 156 -193 -193 -193 -209 -209 165 166 167 167 166 165 165 166 164 165 163 162 164 162 161 161 160 159 159 160 161 159 161 161 160 159 160 159 158 157 157 157 157 157 159 159 159 161 160 158 159 159 160 159 160 160 157 161 163 163 162 164 164 163 162 163 163 161 161 161 160 159 159 162 161 159 165 163 165 163 164 163 -193 160 158 158 158 156 157 156 155 156 156 159 158 157 161 160 159 159 162 159 159 160 161 159 160 161 161 159 161 161 161 159 159 158 159 157 159 157 159 158 159 161 161 162 163 163 164 164 166 164 165 163 163 161 161 160 161 161 160 161 161 160 160 160 160 160 158 159 158 157 156 156 156 157 155 152 153 154 157 160 160 161 165 161 162 163 164 160 164 160 159 158 159 160 159 159 160 157 160 164 163 163 168 170 171 175 176 178 178 178 179 178 177 178 0 0 0 0 0
    0 0 0 0 0 0 0 0 0 0 0 0 0 0 0 0 0 0 0 0 0 0 0 0 0 0 0 0 0 0 0 0 0 0 0 0 0 0 0 0 0 0 0 0 0 0 0 0 0 0 0 0 0 0 0 0 0 0 0 0 0 0 0 0 0 0 0 0 0 162 163 163 162 159 158 158 158 156 157 156 157 157 158 160 -209 -209 -209 -209 -209 -193 -193 -209 -209 -193 158 160 -209 -209 158 161 162 163 160 160 162 162 161 163 162 161 159 164 165 163 160 161 158 158 159 159 157 156 157 156 -193 -193 -193 -209 -209 165 166 167 166 166 165 165 165 163 164 163 162 164 162 161 161 160 160 159 161 162 159 161 161 160 159 160 159 158 157 157 158 158 157 160 160 160 162 161 159 159 160 161 160 160 160 157 160 162 163 162 164 164 163 162 163 163 161 161 162 160 159 159 162 162 160 165 164 165 163 164 162 -193 159 158 157 158 156 156 155 155 155 156 159 159 157 161 160 159 159 162 159 159 160 161 160 160 161 161 159 162 162 161 160 160 159 159 158 159 157 160 158 160 162 162 163 164 164 165 166 167 166 166 164 164 162 161 160 161 163 161 162 162 161 161 161 161 161 159 159 158 157 156 156 156 157 155 153 154 154 157 159 159 161 165 161 161 162 163 160 163 160 158 157 159 159 159 159 159 157 161 165 165 163 168 170 171 175 176 177 178 178 179 178 177 177 0 0 0 0 0
    0 0 0 0 0 0 0 0 0 0 0 0 0 0 0 0 0 0 0 0 0 0 0 0 0 0 0 0 0 0 0 0 0 0 0 0 0 0 0 0 0 0 0 0 0 0 0 0 0 0 0 0 0 0 0 0 0 0 0 0 0 0 0 0 0 0 0 0 0 163 164 164 163 159 158 159 158 157 157 155 156 157 157 160 -209 -209 -209 -209 -209 -177 -177 -177 -209 -209 158 -193 -209 -209 -193 159 162 163 160 160 162 162 162 164 163 162 160 165 166 164 161 161 158 158 158 158 156 155 155 155 -193 -177 -177 -209 -209 165 165 166 165 165 164 164 165 162 163 162 162 164 162 162 162 161 160 160 161 162 160 162 161 161 160 160 159 158 157 157 158 158 157 160 161 160 162 161 159 159 159 161 159 158 158 155 157 160 162 162 164 163 163 163 164 163 162 161 161 159 160 159 162 162 161 166 165 166 163 164 162 161 159 158 157 158 155 157 155 155 155 156 159 159 157 161 159 158 159 162 159 159 160 161 160 161 162 162 159 163 163 162 162 161 161 161 160 161 159 161 160 162 163 164 164 165 166 166 168 168 167 167 164 164 161 160 160 160 163 161 162 162 161 162 161 161 162 159 160 158 158 157 156 157 157 156 153 153 154 156 158 157 159 165 160 161 162 164 159 163 160 158 157 159 160 160 160 161 159 163 167 167 166 170 171 172 178 178 178 179 178 179 178 178 177 0 0 0 0 0
    0 0 0 0 0 0 0 0 0 0 0 0 0 0 0 0 0 0 0 0 0 0 0 0 0 0 0 0 0 0 0 0 0 0 0 0 0 0 0 0 0 0 0 0 0 0 0 0 0 0 0 0 0 0 0 0 0 0 0 0 0 0 0 0 0 0 0 0 0 163 163 163 161 158 158 158 157 156 156 154 154 -193 -193 -193 -209 -209 -209 -209 -193 -193 -177 -209 -209 -209 -193 -193 -209 -209 -193 158 162 162 161 160 162 163 162 165 164 163 163 167 168 165 160 160 158 158 158 157 155 154 155 -193 -193 -177 390 -209 -209 -193 -193 -193 -193 164 163 164 164 161 163 162 162 164 162 163 162 161 161 160 162 163 161 -193 162 161 160 160 160 158 156 158 158 158 158 160 162 160 162 161 158 158 158 160 159 157 157 -209 -209 -193 162 162 165 163 164 163 164 164 162 161 162 159 161 159 161 162 -193 167 166 167 164 165 163 163 160 159 157 158 155 157 155 155 155 156 158 159 158 162 159 158 159 162 158 159 160 160 160 161 162 162 160 164 163 163 164 164 164 164 -193 -193 162 162 162 -193 163 164 165 -193 166 166 169 168 168 168 164 164 160 160 160 160 164 162 163 163 162 162 162 161 162 159 160 158 158 156 155 156 157 -193 -193 152 153 154 154 154 156 166 160 162 164 167 163 165 163 161 159 163 163 164 162 163 162 166 169 169 169 174 175 176 181 180 181 181 180 180 179 179 178 0 0 0 0 0
    0 0 0 0 0 0 0 0 0 0 0 0 0 0 0 0 0 0 0 0 0 0 0 0 0 0 0 0 0 0 0 0 0 0 0 0 0 0 0 0 0 0 0 0 0 0 0 0 0 0 0 0 0 0 0 0 0 0 0 0 0 0 0 0 0 0 0 0 0 162 161 161 158 157 158 158 156 155 154 151 151 -193 -209 -209 -209 -209 -209 -209 -177 -209 -209 -209 -225 -209 -209 -193 -209 -209 -209 -209 -193 -193 -193 161 162 -193 162 -193 -209 -209 -209 -209 -209 -209 160 162 158 158 158 158 156 155 155 -193 -209 -209 -193 -193 -193 -209 -209 -193 -193 -193 161 163 163 160 162 161 163 164 163 163 163 161 162 161 164 163 -193 -193 160 159 157 158 159 158 156 158 160 -193 159 160 162 161 162 161 158 158 158 160 160 159 -193 -225 -225 -225 -225 164 -193 164 165 164 165 165 164 163 163 161 163 -209 -209 -193 -193 -193 -209 -193 -193 -193 -209 -193 -193 -193 -209 -209 -209 -209 -209 -193 -177 -177 -209 -193 156 162 160 158 160 161 158 159 161 160 160 161 161 161 160 164 163 163 165 -193 -193 -193 543 -193 -209 -193 -193 -209 -193 -193 -193 -193 -193 -193 170 169 170 170 -209 -193 161 158 159 161 -193 -193 -193 -193 -177 -177 -177 -193 163 160 162 -193 159 -193 -193 156 -193 -193 -193 149 151 152 153 152 -193 -209 158 163 166 171 -209 -193 -209 -193 165 167 167 169 165 166 165 168 169 173 178 182 184 183 184 182 183 183 182 181 180 179 177 0 0 0 0 0
    0 0 0 0 0 0 0 0 0 0 0 0 0 0 0 0 0 0 0 0 0 0 0 0 0 0 0 0 0 0 0 0 0 0 0 0 0 0 0 0 0 0 0 0 0 0 0 0 0 0 0 0 0 0 0 0 0 0 0 0 0 0 0 0 0 0 0 0 0 -193 160 159 158 156 -193 -193 -193 -193 153 151 150 152 -209 478 482 484 -193 -209 -225 -225 -225 311 317 -209 -209 -193 -177 -177 -177 -177 -177 -177 -193 -209 -193 -209 -209 -209 -209 -209 -209 -209 -193 -225 -225 -209 -193 -193 161 161 -209 -209 -209 -209 -209 -209 940 -193 -193 -193 -193 -209 -193 -193 162 163 163 160 163 162 164 163 164 166 165 164 164 162 166 167 166 -209 159 -209 -209 -209 -209 -209 -209 -193 -209 -209 -209 -193 -209 160 162 160 158 158 158 161 163 163 -193 -225 -225 -225 -225 -225 915 -193 -193 165 167 -209 -209 -209 -209 -209 -209 -209 -209 -193 770 -209 -209 173 -193 -193 764 -193 -193 -209 -209 -209 -209 -209 37 35 34 35 37 -209 -209 -209 -209 -177 -177 -177 158 159 161 160 160 160 161 161 160 164 164 161 -193 545 -209 -193 -193 -177 -209 -193 -209 -209 -193 -209 -209 -209 -209 -209 177 -193 184 183 -209 -209 188 195 -209 -193 -209 -177 -177 -177 -177 -177 -177 -177 -193 -193 166 -209 -209 -209 -209 -209 -209 -209 -193 142 148 -193 152 151 153 -209 -209 -193 -209 -209 -193 -193 -193 -193 -193 170 169 171 167 169 167 169 171 184 186 186 187 186 186 183 184 184 183 182 181 180 177 0 0 0 0 0
    0 0 0 0 0 0 0 0 0 0 0 0 0 0 0 0 0 0 0 0 0 0 0 0 0 0 0 0 0 0 0 0 0 0 0 0 0 0 0 0 0 0 0 0 0 0 0 0 0 0 0 0 0 0 0 0 0 0 0 0 0 0 0 0 0 0 0 0 0 208 210 -209 -209 -209 -193 -209 -193 -209 151 153 151 154 -225 -225 -225 -225 -225 -225 -225 -225 314 -209 -209 -209 -209 -177 -177 -177 -177 -177 -177 -177 -209 -209 -193 -209 -193 -209 -193 713 714 -209 -209 -209 -193 197 -193 -209 -209 -209 -209 -209 -209 -193 -193 -193 -209 -209 -193 -193 -209 -209 184 187 -193 -209 165 -193 -193 -209 -209 -209 -193 -193 -209 -193 188 -209 -193 -193 187 -193 -193 -209 -193 -193 188 190 -209 -209 -209 -225 -177 585 588 -209 -209 -209 -209 -209 -209 -209 -209 -209 -193 -193 -193 193 192 -209 -209 -209 -209 -209 -193 994 995 994 -193 -209 -193 -209 -209 -209 -193 -209 191 -209 -193 -193 -193 -193 45 -193 -193 45 45 -193 -209 -193 37 -193 -193 190 -177 187 186 -193 -193 159 156 159 160 159 161 160 162 161 161 165 164 161 -193 -209 -209 464 -193 196 198 198 196 195 193 193 193 194 191 190 187 189 -193 -193 -193 -225 191 -193 -193 928 -193 -193 -177 -209 -209 -193 -193 -209 -209 -193 -193 -177 -209 189 190 -209 -193 -193 -209 -193 148 -209 -209 -209 -209 -209 -209 -193 -193 -209 -193 -193 -193 -209 -193 175 175 178 174 175 174 177 183 187 189 189 188 187 188 184 185 184 183 181 181 178 176 0 0 0 0 0
    0 0 0 0 0 0 0 0 0 0 0 0 0 0 0 0 0 0 0 0 0 0 0 0 0 0 0 0 0 0 0 0 0 0 0 0 0 0 0 0 0 0 0 0 0 0 0 0 0 0 0 0 0 0 0 0 0 0 0 0 0 0 0 0 0 0 0 0 0 204 204 -193 198 198 200 198 198 202 -209 -209 -193 -193 -209 -209 -209 -209 -209 -209 -193 313 -209 -193 -209 -193 -193 -193 -193 -193 -193 -193 -193 -193 199 198 -193 -193 -193 -209 -193 -193 -193 -209 -193 -193 -193 199 198 197 -193 -193 191 192 195 190 191 -193 -193 -193 189 192 187 181 185 188 184 -209 -209 214 -209 206 -193 199 199 194 195 196 195 196 193 196 196 417 -193 -193 196 196 194 196 195 196 196 -225 198 197 198 197 199 199 -209 -209 -209 -209 -209 198 -209 -193 -193 194 194 -193 -193 -193 191 190 187 191 -193 -209 -209 -209 -193 198 194 195 195 195 195 197 199 198 -209 -193 -177 -177 -193 -193 203 202 -193 196 194 194 193 193 193 191 190 193 192 192 -193 -193 -193 -209 -209 -193 -193 -193 166 -209 -209 -209 -193 -209 -209 -209 197 197 198 198 195 195 194 193 193 193 192 191 188 191 -225 -225 -193 191 189 190 -193 -209 -209 -209 -209 -209 -193 -209 197 197 198 197 195 196 191 191 192 -193 -193 192 192 191 188 -193 -209 -209 196 196 197 194 194 194 195 192 -193 -209 -193 180 180 181 181 180 180 182 186 188 191 190 188 187 188 186 187 187 186 184 185 181 178 0 0 0 0 0
    0 0 0 0 0 0 0 0 0 0 0 0 0 0 0 0 0 0 0 0 0 0 0 0 0 0 0 0 0 0 0 0 0 0 0 0 0 0 0 0 0 0 0 0 0 0 0 0 0 0 0 0 0 0 0 0 0 0 0 0 0 0 0 0 0 0 0 0 0 204 203 200 200 201 202 200 199 202 -193 -209 -193 196 197 195 195 197 195 -193 196 197 -193 -193 -193 198 198 199 198 199 198 -193 -193 194 199 197 196 195 -193 194 194 193 196 191 198 197 199 200 199 197 197 194 191 192 195 191 191 192 191 191 190 194 190 186 189 191 189 199 197 202 198 200 197 196 198 195 195 196 195 196 194 197 197 -193 199 198 197 198 196 197 196 196 196 193 197 195 196 196 198 198 198 198 200 199 200 198 200 199 198 195 195 192 191 192 192 190 192 192 194 195 195 194 195 197 195 195 196 196 196 198 199 198 -209 -193 -177 -193 -193 203 202 201 200 197 196 196 195 194 195 193 191 193 192 193 192 191 192 189 190 191 188 -193 -209 184 -209 -209 -209 -209 -209 -193 197 197 198 198 195 195 194 194 194 193 193 192 188 192 187 189 187 188 187 189 187 -209 -193 196 -209 -209 -193 199 196 196 197 197 196 196 193 192 194 -193 -193 193 192 191 189 190 195 -193 195 196 196 194 195 195 195 193 191 188 -193 181 182 183 183 181 182 184 187 189 192 192 189 188 188 188 188 188 187 186 186 184 179 0 0 0 0 0
    0 0 0 0 0 0 0 0 0 0 0 0 0 0 0 0 0 0 0 0 0 0 0 0 0 0 0 0 0 0 0 0 0 0 0 0 0 0 0 0 0 0 0 0 0 0 0 0 0 0 0 0 0 0 0 0 0 0 0 0 0 0 0 0 0 0 0 0 0 203 201 200 199 200 201 199 199 200 200 198 197 197 196 195 195 196 196 197 197 198 197 198 200 198 198 198 198 198 197 199 198 194 198 197 196 195 194 194 193 193 196 193 198 198 199 200 198 197 198 195 192 192 195 192 191 193 192 191 190 194 191 188 190 192 191 196 197 200 198 200 197 197 198 195 195 196 195 195 193 197 196 194 198 198 197 198 196 196 195 196 196 194 196 195 196 196 198 197 198 198 199 198 199 198 199 198 197 195 195 193 193 194 193 193 194 193 194 195 195 194 194 197 195 194 196 195 196 197 199 198 196 201 -193 201 201 201 200 199 198 196 195 196 195 194 195 194 192 193 193 192 191 190 192 189 189 191 188 190 187 187 186 185 193 190 196 -193 197 197 198 198 195 195 195 194 195 194 194 193 189 193 188 189 188 188 187 189 187 -193 190 195 -209 -193 200 197 195 195 196 196 195 195 193 192 193 -193 193 192 192 190 189 191 194 199 196 196 196 194 195 195 195 194 192 190 188 184 183 183 184 182 183 185 189 191 194 194 191 190 189 189 189 189 189 187 187 188 186 0 0 0 0 0
    0 0 0 0 0 0 0 0 0 0 0 0 0 0 0 0 0 0 0 0 0 0 0 0 0 0 0 0 0 0 0 0 0 0 0 0 0 0 0 0 0 0 0 0 0 0 0 0 0 0 0 0 0 0 0 0 0 0 0 0 0 0 0 0 0 0 0 0 0 201 199 199 198 198 199 198 198 199 198 198 196 196 198 197 196 197 196 197 197 198 196 197 199 198 198 197 197 198 197 198 197 194 197 196 196 195 193 194 193 193 196 194 197 198 199 199 198 197 198 195 192 192 194 193 191 193 193 191 191 195 192 190 191 194 193 196 197 198 198 200 197 197 198 195 195 196 195 195 193 196 196 193 198 197 196 197 195 196 194 195 195 193 196 194 195 195 197 197 197 197 199 197 198 198 199 197 197 195 196 193 195 195 194 194 195 194 195 195 195 194 194 196 195 194 195 194 195 196 198 197 195 199 -193 199 199 199 199 199 197 195 194 196 194 194 195 194 192 193 193 193 191 190 192 189 188 190 188 190 187 188 188 187 192 191 195 196 197 197 198 198 195 195 195 195 195 195 195 194 190 195 190 -193 189 189 188 190 188 188 191 196 -193 199 199 197 195 194 196 195 194 194 193 191 193 195 193 192 192 191 190 192 195 199 196 196 196 195 195 195 195 194 192 190 188 184 184 184 184 182 183 185 190 193 195 195 192 192 191 191 191 191 190 188 188 189 186 0 0 0 0 0
    0 0 0 0 0 0 0 0 0 0 0 0 0 0 0 0 0 0 0 0 0 0 0 0 0 0 0 0 0 0 0 0 0 0 0 0 0 0 0 0 0 0 0 0 0 0 0 0 0 0 0 0 0 0 0 0 0 0 0 0 0 0 0 0 0 0 0 0 0 200 199 199 198 198 199 197 198 199 198 198 195 197 198 197 196 197 196 197 197 198 196 197 198 197 198 197 197 197 196 198 197 195 197 196 196 195 193 195 193 194 196 194 197 198 199 199 197 196 197 195 192 192 194 193 191 193 193 192 191 195 193 190 192 194 194 196 196 197 197 199 197 197 198 195 195 196 195 195 193 196 196 192 197 197 196 197 195 195 193 194 195 193 195 193 194 194 195 196 196 196 198 196 197 197 198 197 196 195 195 193 195 195 194 194 195 194 195 195 195 194 195 196 195 194 195 194 195 196 198 196 193 198 197 199 198 198 199 198 197 196 194 196 194 194 196 194 193 194 193 194 191 191 193 189 188 190 189 190 188 189 189 188 192 191 194 195 196 196 197 197 195 195 195 195 195 195 195 194 191 196 192 -193 192 191 189 191 189 189 192 196 198 198 199 197 194 194 195 195 194 193 193 191 193 195 193 192 192 192 191 193 196 199 196 196 197 195 195 195 194 193 191 190 188 185 184 184 185 183 184 185 190 191 194 195 192 192 191 191 191 191 192 189 190 190 187 0 0 0 0 0
    0 0 0 0 0 0 0 0 0 0 0 0 0 0 0 0 0 0 0 0 0 0 0 0 0 0 0 0 0 0 0 0 0 0 0 0 0 0 0 0 0 0 0 0 0 0 0 0 0 0 0 0 0 0 0 0 0 0 0 0 0 0 0 0 0 0 0 0 0 200 199 199 198 198 199 198 199 199 198 198 195 197 198 197 196 197 197 197 197 198 197 197 198 198 198 197 197 198 196 198 197 195 197 195 196 195 193 194 193 194 196 195 197 198 199 199 197 196 196 195 192 192 194 193 192 193 193 192 191 195 193 191 191 194 193 195 195 196 196 198 196 196 198 195 194 196 195 194 193 196 196 192 197 197 196 197 195 195 193 194 195 193 194 193 193 193 195 196 195 195 197 195 197 197 198 197 196 195 195 194 195 195 194 194 195 195 196 195 195 194 195 196 195 195 195 195 196 196 198 196 193 198 197 198 197 197 197 197 196 196 195 196 195 195 196 195 193 194 193 193 192 191 192 189 189 190 188 191 188 189 189 188 190 190 192 193 194 195 196 197 195 195 194 194 195 194 195 194 191 195 193 -193 192 192 190 192 189 190 192 195 198 198 198 196 194 193 194 194 194 193 194 191 194 196 194 194 194 192 191 192 195 199 196 196 197 195 194 194 193 192 191 190 189 185 184 185 184 183 183 185 190 190 193 194 192 192 192 191 192 191 192 190 191 191 187 0 0 0 0 0
    0 0 0 0 0 0 0 0 0 0 0 0 0 0 0 0 0 0 0 0 0 0 0 0 0 0 0 0 0 0 0 0 0 0 0 0 0 0 0 0 0 0 0 0 0 0 0 0 0 0 0 0 0 0 0 0 0 0 0 0 0 0 0 0 0 0 0 0 0 199 198 199 198 199 199 198 199 199 199 198 195 197 198 197 196 197 197 197 198 198 197 197 198 198 198 197 197 198 196 198 197 195 196 195 196 195 193 194 193 194 196 195 197 198 199 199 198 197 197 196 193 193 194 194 192 193 193 192 192 195 193 191 191 193 193 194 194 195 195 198 195 196 198 194 194 196 194 194 193 196 196 192 197 197 196 197 195 195 193 193 194 192 194 192 193 193 194 195 195 194 196 195 196 196 198 197 196 195 196 195 196 195 195 194 195 195 196 195 195 194 195 196 194 194 195 194 195 195 197 195 192 196 196 196 196 195 196 196 195 195 195 196 195 195 196 195 193 194 193 193 191 191 192 188 189 189 188 190 188 189 189 188 190 191 192 192 193 194 196 197 194 195 194 194 194 194 194 193 190 195 191 -193 192 192 189 191 188 190 191 194 197 196 197 195 193 193 194 195 195 194 196 193 196 197 197 196 195 193 193 191 194 198 196 196 196 194 194 194 193 192 190 190 189 185 185 185 184 182 184 186 191 190 191 192 191 191 191 190 191 191 191 190 191 191 188 0 0 0 0 0
    0 0 0 0 0 0 0 0 0 0 0 0 0 0 0 0 0 0 0 0 0 0 0 0 0 0 0 0 0 0 0 0 0 0 0 0 0 0 0 0 0 0 0 0 0 0 0 0 0 0 0 0 0 0 0 0 0 0 0 0 0 0 0 0 0 0 0 0 0 199 198 199 198 199 199 198 199 199 199 198 196 198 198 198 197 197 197 197 198 198 197 197 197 198 197 196 197 197 195 197 196 195 196 195 195 195 193 195 193 195 196 196 197 198 199 199 198 198 198 196 194 194 195 194 193 193 194 193 192 195 194 192 192 194 194 193 194 194 194 197 194 194 197 194 194 195 194 194 193 195 195 192 197 197 196 196 195 195 193 194 194 192 194 192 193 192 193 194 194 193 196 194 196 196 197 196 196 195 196 195 196 195 195 194 195 195 196 194 194 193 194 195 194 194 194 193 195 194 196 194 190 193 194 194 194 193 194 194 195 195 195 195 196 195 197 195 194 194 192 192 191 190 191 188 188 189 188 190 189 189 189 189 191 192 192 193 194 194 196 196 194 194 193 194 194 194 194 193 191 195 191 195 193 192 191 192 190 193 193 195 197 196 196 194 193 193 193 194 194 193 195 193 195 196 196 195 194 192 192 190 192 196 195 196 196 194 194 194 193 192 190 190 188 186 185 185 185 184 186 189 194 193 193 193 192 193 192 192 193 193 193 192 193 194 191 0 0 0 0 0
    0 0 0 0 0 0 0 0 0 0 0 0 0 0 0 0 0 0 0 0 0 0 0 0 0 0 0 0 0 0 0 0 0 0 0 0 0 0 0 0 0 0 0 0 0 0 0 0 0 0 0 0 0 0 0 0 0 0 0 0 0 0 0 0 0 0 0 0 0 198 197 199 198 198 199 198 199 199 198 198 197 198 198 198 197 197 197 197 198 198 197 197 196 197 197 196 196 196 194 196 195 194 195 195 195 195 193 195 193 196 196 196 197 198 198 198 198 198 198 197 195 194 195 194 193 193 194 193 193 195 194 193 193 194 195 193 194 194 194 196 194 194 197 194 194 196 194 194 193 195 195 192 197 196 195 196 195 195 193 193 194 192 193 192 192 192 192 193 192 192 194 193 195 195 196 196 195 195 196 196 197 196 195 194 195 195 196 194 194 192 193 195 193 193 193 192 194 194 196 194 189 193 194 194 194 193 194 194 195 196 196 196 196 195 197 195 194 194 192 191 190 190 191 188 188 189 189 192 191 192 192 191 193 194 193 193 193 194 195 195 193 194 192 194 194 194 194 194 192 196 194 195 193 193 192 193 191 193 192 195 198 195 196 193 192 193 192 193 193 192 194 193 194 195 194 194 193 193 193 192 192 196 196 196 197 195 194 194 192 192 190 189 187 186 185 187 187 188 191 193 195 195 195 195 194 195 195 195 195 196 196 195 196 197 195 0 0 0 0 0
    0 0 0 0 0 0 0 0 0 0 0 0 0 0 0 0 0 0 0 0 0 0 0 0 0 0 0 0 0 0 0 0 0 0 0 0 0 0 0 0 0 0 0 0 0 0 0 0 0 0 0 0 0 0 0 0 0 0 0 0 0 0 0 0 0 0 0 0 0 198 197 199 198 198 199 197 198 198 198 197 196 198 198 198 197 198 197 197 198 198 198 197 196 198 197 196 196 196 194 196 194 195 194 195 196 195 194 195 194 196 196 196 197 198 198 198 199 198 198 197 195 195 195 195 194 194 194 193 193 196 195 194 193 195 195 193 194 194 194 196 194 195 197 194 195 196 195 194 194 195 195 191 196 196 195 195 195 194 193 193 194 193 192 192 191 191 192 193 191 191 193 192 194 195 197 196 196 196 197 197 198 196 196 195 196 195 196 194 194 192 192 195 193 193 193 192 194 193 196 195 190 194 195 194 194 193 194 194 195 195 196 196 196 195 197 195 194 194 193 192 190 190 191 188 189 190 190 192 191 192 193 192 192 195 192 192 193 194 194 195 193 194 192 194 194 194 194 194 193 197 195 193 194 193 193 193 191 191 190 193 197 193 195 192 192 193 192 194 193 192 194 193 193 194 194 193 193 194 195 194 194 197 197 197 198 196 194 194 192 191 190 189 188 187 187 189 190 191 194 195 195 195 196 195 195 195 195 195 194 196 196 195 197 198 197 0 0 0 0 0
    0 0 0 0 0 0 0 0 0 0 0 0 0 0 0 0 0 0 0 0 0 0 0 0 0 0 0 0 0 0 0 0 0 0 0 0 0 0 0 0 0 0 0 0 0 0 0 0 0 0 0 0 0 0 0 0 0 0 0 0 0 0 0 0 0 0 0 0 0 198 197 199 198 198 198 197 198 197 197 197 196 198 198 199 197 198 197 197 198 198 198 198 196 198 197 196 197 197 195 196 195 195 195 195 196 196 195 196 194 196 197 197 197 198 198 198 199 198 198 198 196 195 195 196 195 194 195 194 194 196 195 194 193 194 195 193 194 193 193 195 195 196 198 195 195 197 196 194 194 195 195 191 195 195 194 195 195 194 193 194 193 193 192 192 191 190 191 193 192 192 193 193 195 196 197 197 196 197 198 198 199 197 197 197 197 196 196 194 195 192 192 195 193 192 193 193 195 194 197 196 193 194 196 194 193 193 193 194 194 194 196 195 196 195 196 195 194 193 193 192 190 190 190 188 189 190 189 190 190 192 193 192 192 195 193 193 194 194 195 194 193 193 191 193 193 193 193 193 193 196 195 193 195 194 193 193 191 191 189 192 196 192 194 191 192 193 193 194 192 191 193 193 192 193 194 193 194 195 195 195 195 198 198 198 198 196 194 195 191 191 190 189 188 188 190 191 191 193 195 196 195 195 195 194 195 195 196 196 195 197 197 -193 199 200 199 0 0 0 0 0
    0 0 0 0 0 0 0 0 0 0 0 0 0 0 0 0 0 0 0 0 0 0 0 0 0 0 0 0 0 0 0 0 0 0 0 0 0 0 0 0 0 0 0 0 0 0 0 0 0 0 0 0 0 0 0 0 0 0 0 0 0 0 0 0 0 0 0 0 0 198 198 199 198 198 198 196 197 197 197 197 196 198 198 199 197 198 197 197 198 198 198 198 197 198 197 197 197 197 195 196 195 195 195 195 196 196 196 196 194 197 197 196 197 198 198 198 199 198 197 198 197 196 196 196 196 195 196 195 194 196 195 194 193 194 195 193 193 193 192 194 195 196 197 195 196 197 196 195 195 195 195 192 195 195 194 195 195 194 194 194 193 193 191 192 191 190 191 193 191 191 192 193 195 196 198 198 197 197 198 199 199 197 197 197 197 197 196 194 195 192 192 195 193 193 193 194 195 194 197 196 192 193 196 193 192 193 193 194 194 195 196 195 196 195 196 195 194 193 193 191 189 189 189 188 189 189 189 190 189 192 194 194 193 195 193 193 194 195 195 194 193 193 190 192 192 192 192 192 193 196 195 193 195 195 194 193 191 191 189 192 196 191 194 191 192 193 193 194 192 191 193 193 192 193 194 193 194 195 196 196 195 199 198 198 199 196 194 195 191 191 190 190 189 189 191 192 192 194 194 195 194 194 195 194 194 194 196 196 195 198 199 198 201 203 202 0 0 0 0 0
    0 0 0 0 0 0 0 0 0 0 0 0 0 0 0 0 0 0 0 0 0 0 0 0 0 0 0 0 0 0 0 0 0 0 0 0 0 0 0 0 0 0 0 0 0 0 0 0 0 0 0 0 0 0 0 0 0 0 0 0 0 0 0 0 0 0 0 0 0 198 198 199 198 198 198 197 197 198 198 197 197 198 198 198 197 198 197 197 198 198 199 199 198 199 198 198 198 198 196 196 195 196 195 195 196 196 196 196 195 197 197 197 197 198 198 198 199 198 197 198 197 196 196 197 196 195 196 195 195 196 195 194 192 193 194 193 193 192 192 194 194 195 197 195 196 197 196 195 196 195 195 192 195 195 194 194 195 194 194 194 193 193 192 192 192 190 191 192 191 191 192 193 195 196 198 198 197 198 198 199 199 197 197 197 197 197 196 194 195 192 192 195 193 193 193 194 195 194 198 197 193 194 197 193 193 193 193 194 194 195 197 195 196 196 196 195 194 193 193 190 189 189 189 188 189 190 189 190 190 192 194 194 194 196 193 193 194 195 195 193 192 192 190 191 191 192 191 191 192 196 194 193 195 195 194 193 191 191 188 191 195 190 193 191 192 194 193 194 193 191 193 194 192 194 194 194 194 195 196 196 195 199 199 199 201 197 195 196 192 192 192 191 190 190 192 193 192 192 193 194 192 193 194 193 194 194 196 197 196 199 199 199 202 204 205 0 0 0 0 0
    0 0 0 0 0 0 0 0 0 0 0 0 0 0 0 0 0 0 0 0 0 0 0 0 0 0 0 0 0 0 0 0 0 0 0 0 0 0 0 0 0 0 0 0 0 0 0 0 0 0 0 0 0 0 0 0 0 0 0 0 0 0 0 0 0 0 0 0 0 198 198 199 198 198 198 197 197 198 198 197 197 198 197 198 197 198 197 197 198 198 200 200 198 200 199 198 199 198 196 196 195 196 195 196 196 196 196 196 195 197 197 197 197 198 198 198 200 199 198 199 198 197 197 197 197 195 196 195 195 196 195 194 192 193 194 192 193 192 192 194 194 195 197 195 196 197 197 196 196 195 195 193 195 195 195 194 195 195 195 195 194 193 192 193 192 190 191 192 191 191 192 193 196 196 198 198 198 198 199 199 200 197 198 197 198 197 196 194 194 191 191 194 192 192 193 194 195 195 198 198 194 194 197 194 193 193 193 194 194 195 197 195 196 195 196 195 194 193 192 190 188 188 188 188 190 189 189 190 190 192 195 194 194 196 193 194 195 195 195 193 192 192 189 191 191 191 190 190 191 195 193 192 194 194 193 192 190 190 188 191 195 189 192 190 191 194 194 195 193 192 193 194 192 194 195 194 194 195 196 196 195 200 199 200 202 198 196 197 194 193 192 192 190 191 192 192 191 191 192 193 192 193 194 193 194 195 196 197 197 200 200 200 203 206 208 0 0 0 0 0
    0 0 0 0 0 0 0 0 0 0 0 0 0 0 0 0 0 0 0 0 0 0 0 0 0 0 0 0 0 0 0 0 0 0 0 0 0 0 0 0 0 0 0 0 0 0 0 0 0 0 0 0 0 0 0 0 0 0 0 0 0 0 0 0 0 0 0 0 0 198 198 199 198 198 197 197 196 197 198 196 197 198 197 199 197 198 197 197 198 198 200 200 198 200 198 198 198 198 196 195 195 196 195 196 197 197 197 197 196 197 197 197 197 197 198 198 200 199 199 199 199 198 198 198 197 196 197 196 196 197 196 195 193 194 195 193 193 192 191 193 194 196 197 196 197 198 197 196 197 195 194 193 194 195 194 194 195 195 195 196 194 194 192 193 192 191 191 193 192 191 192 194 -193 196 198 199 199 199 200 200 200 198 198 197 198 197 196 193 193 189 189 193 191 191 192 193 194 194 198 198 194 194 197 194 194 193 193 194 194 194 196 195 196 195 195 195 193 192 191 189 187 187 187 188 189 189 189 189 190 193 195 195 195 197 194 195 196 196 195 193 192 192 189 191 191 191 190 190 192 195 193 191 194 194 193 191 190 190 188 190 194 188 191 190 192 195 194 195 193 192 193 194 192 193 194 193 194 195 196 196 195 199 199 199 203 199 197 198 196 195 193 192 190 191 192 193 191 191 192 194 192 193 194 194 195 195 196 196 196 200 200 201 204 207 209 0 0 0 0 0
    0 0 0 0 0 0 0 0 0 0 0 0 0 0 0 0 0 0 0 0 0 0 0 0 0 0 0 0 0 0 0 0 0 0 0 0 0 0 0 0 0 0 0 0 0 0 0 0 0 0 0 0 0 0 0 0 0 0 0 0 0 0 0 0 0 0 0 0 0 199 199 199 198 198 196 196 195 197 197 196 197 197 198 199 198 199 197 197 198 198 201 201 198 200 199 199 199 198 196 195 195 196 195 197 197 197 198 197 196 198 197 197 197 198 198 198 200 199 198 199 199 198 198 198 198 196 197 196 197 198 197 196 193 195 195 194 194 193 192 194 195 197 197 197 198 199 199 198 198 196 194 193 193 194 193 193 194 195 196 197 194 194 192 193 192 190 191 193 192 192 192 195 -193 197 199 200 -193 200 204 203 204 198 198 198 198 197 195 193 193 188 188 193 190 190 191 194 194 194 199 199 196 195 198 195 195 194 194 194 195 194 197 195 196 195 195 195 193 191 192 189 187 187 187 187 189 189 190 189 190 193 196 196 196 197 195 195 196 196 195 192 192 192 189 190 190 190 -193 -193 193 195 194 191 194 194 193 191 190 190 187 190 193 188 190 189 191 195 195 195 193 191 192 195 191 193 194 193 -193 196 -193 196 195 199 198 198 203 200 197 199 196 196 195 194 191 193 193 193 191 190 191 194 192 193 194 192 194 194 196 196 194 199 199 200 204 207 210 0 0 0 0 0
    0 0 0 0 0 0 0 0 0 0 0 0 0 0 0 0 0 0 0 0 0 0 0 0 0 0 0 0 0 0 0 0 0 0 0 0 0 0 0 0 0 0 0 0 0 0 0 0 0 0 0 0 0 0 0 0 0 0 0 0 0 0 0 0 0 0 0 0 0 200 200 199 198 198 196 196 195 197 197 196 197 197 197 198 197 198 197 197 197 198 202 201 200 200 200 200 200 199 198 196 196 197 196 197 198 198 199 198 197 198 197 197 197 198 198 197 199 198 197 199 198 -193 197 198 198 197 198 197 198 199 197 197 193 195 195 195 195 194 192 195 197 199 198 200 201 201 201 201 200 198 196 196 193 195 193 193 195 195 196 197 194 196 192 194 193 189 190 194 194 193 193 197 -193 -193 -193 -209 -209 200 206 -209 -209 -193 -193 198 199 198 196 194 195 189 189 193 192 191 192 195 195 195 200 200 198 197 199 197 197 196 196 196 195 194 197 196 196 195 195 195 193 191 193 190 186 186 186 188 189 190 191 190 190 194 197 196 196 196 195 196 197 197 195 191 192 191 189 189 189 -193 -177 -177 -193 195 194 190 194 194 192 191 190 189 186 188 190 185 185 187 190 196 200 198 195 192 192 196 -193 -193 -209 -209 -209 -193 -193 -193 -209 -209 -193 -209 204 -209 200 200 197 197 196 195 192 194 193 193 191 189 190 192 191 191 192 191 193 194 196 196 194 198 199 200 203 207 210 0 0 0 0 0
    0 0 0 0 0 0 0 0 0 0 0 0 0 0 0 0 0 0 0 0 0 0 0 0 0 0 0 0 0 0 0 0 0 0 0 0 0 0 0 0 0 0 0 0 0 0 0 0 0 0 0 0 0 0 0 0 0 0 0 0 0 0 0 0 0 0 0 0 0 201 201 200 199 198 196 196 195 197 198 196 197 197 197 197 197 198 196 196 197 199 204 203 202 202 203 203 203 202 202 198 199 198 198 197 199 199 201 199 198 199 198 198 198 198 198 198 200 198 -193 -193 -193 404 197 200 200 199 -209 -193 200 200 198 198 192 193 194 194 194 192 191 195 198 199 198 201 200 201 201 201 200 197 195 198 194 196 -193 -193 -193 -193 197 -193 -193 -193 -193 194 -193 -209 -193 -193 314 -209 -225 308 -209 -193 -193 -209 -209 -209 -209 -177 -209 659 -193 -209 -209 -209 -209 -193 -193 -209 -209 -209 -193 190 194 197 197 -193 201 202 201 198 199 199 196 196 196 196 193 189 197 197 196 195 195 196 194 192 195 -193 -193 187 187 188 189 189 189 187 188 191 196 196 195 195 195 196 199 198 197 191 -193 -193 -193 -193 -193 -177 -177 455 -193 195 193 190 195 194 -193 -193 189 187 185 187 188 -225 -209 -209 -225 -225 -225 -225 -225 -209 -209 -209 -209 -209 -209 -209 -209 39 -177 -177 -177 -177 -209 -209 -209 -209 -193 202 198 198 198 196 194 194 195 194 191 189 190 192 190 191 192 190 193 194 196 196 195 198 199 199 203 205 207 0 0 0 0 0
    0 0 0 0 0 0 0 0 0 0 0 0 0 0 0 0 0 0 0 0 0 0 0 0 0 0 0 0 0 0 0 0 0 0 0 0 0 0 0 0 0 0 0 0 0 0 0 0 0 0 0 0 0 0 0 0 0 0 0 0 0 0 0 0 0 0 0 0 0 201 201 200 199 199 196 197 194 197 198 197 197 197 197 197 196 198 195 194 195 198 205 203 202 202 203 203 203 202 202 198 199 199 199 197 -193 -193 203 200 -177 -177 199 197 198 -193 198 197 -193 198 -193 -193 201 -209 199 202 202 -193 -193 -209 -193 -193 -193 -209 -193 -193 -193 -177 -209 -193 190 195 199 197 197 199 199 200 -193 201 200 -193 -209 -209 -193 657 -209 963 963 962 -209 -225 -225 -193 -225 -225 -225 -225 -225 -225 -225 -225 -225 -225 -225 -225 -225 -209 985 -193 -193 971 970 -193 -209 17 23 -209 -209 -177 839 836 837 -209 -209 190 195 -177 -193 -193 202 204 202 197 -193 -225 -225 -225 -225 -225 -225 -225 -225 -225 -225 -225 -225 -225 -225 -225 -209 -209 130 -209 184 -177 -177 188 188 -177 188 191 196 -177 196 195 197 198 201 201 -193 -209 470 -209 457 -193 457 458 454 454 -193 195 194 -193 -193 -193 -225 -225 -225 -225 -225 -225 -225 -225 -225 -225 -225 -225 -225 -225 -225 -209 -177 -209 -209 -209 -209 -209 -209 -193 27 29 37 -193 -193 -209 -209 -209 -209 204 201 201 199 199 196 196 196 195 190 188 191 192 190 191 192 191 195 196 198 198 198 199 201 201 203 205 207 0 0 0 0 0
    0 0 0 0 0 0 0 0 0 0 0 0 0 0 0 0 0 0 0 0 0 0 0 0 0 0 0 0 0 0 0 0 0 0 0 0 0 0 0 0 0 0 0 0 0 0 0 0 0 0 0 0 0 0 0 0 0 0 0 0 0 0 0 0 0 0 0 0 0 201 201 200 200 199 197 197 194 198 199 197 198 197 197 196 195 197 -225 194 196 199 208 205 204 204 205 -193 203 203 202 198 197 199 199 -225 -225 -225 -225 -225 -225 -225 -225 -225 -193 -225 -225 -225 -225 -225 -225 -225 -225 -225 -225 -225 -225 -225 -225 429 -209 -209 436 -225 -225 -225 954 -225 -225 -225 -225 -225 198 197 196 -193 -193 -193 -193 -193 -225 -225 -225 -225 -225 -225 -225 -225 -225 -225 -225 -225 -225 -225 -225 -225 -225 -225 -225 -225 -225 -225 -225 -225 -225 -225 -225 -225 -225 -225 -225 -225 -225 -225 -225 -225 -225 -225 -225 -225 -225 -225 839 853 -209 -209 -209 -193 1008 1008 1008 -225 -225 -225 -225 -225 -225 -225 -225 -225 -225 -225 -225 -225 -225 -225 -225 -225 -225 -225 -225 -225 -225 -225 -225 -225 -193 186 185 186 188 194 199 200 -225 -225 -225 -225 -225 -225 -225 -225 -225 -225 -225 -225 -225 -225 -225 -225 -225 -225 -225 -225 -225 -225 -225 -225 -225 -225 -225 -225 -225 -225 -225 -225 -225 -225 -225 -225 -225 -225 -193 60 -209 -209 -209 -209 -209 -209 -209 -209 -177 -209 -209 -209 -209 -209 -209 208 208 209 204 201 198 196 194 191 188 187 192 193 192 194 192 191 197 199 198 198 200 -193 201 202 207 209 211 0 0 0 0 0
    0 0 0 0 0 0 0 0 0 0 0 0 0 0 0 0 0 0 0 0 0 0 0 0 0 0 0 0 0 0 0 0 0 0 0 0 0 0 0 0 0 0 0 0 0 0 0 0 0 0 0 0 0 0 0 0 0 0 0 0 0 0 0 0 0 0 0 0 0 202 -225 -225 -225 -225 -225 -225 -225 -225 -225 -225 -225 -225 -225 -225 -225 -225 -225 -225 -225 -225 -225 -225 -225 -177 -177 -177 -193 203 -225 -225 -225 -225 -225 -225 -225 -225 -225 -225 -225 -225 -225 -225 -225 -225 -225 -225 -225 -225 -225 -225 -225 -225 -225 -225 -225 -225 -225 -225 -225 -225 -225 -225 -225 -225 -225 -225 -225 -225 -225 -225 -225 -225 -225 -225 -225 -225 -225 -225 -225 -225 -225 -225 -225 -225 -225 -225 -225 -225 -225 -225 -225 -225 -225 -225 -225 -225 -225 -225 -225 -225 -225 -225 -225 -225 -225 -225 -225 -225 -225 -225 -225 -225 -225 -225 -225 -225 -225 -225 -225 -225 -225 -225 -225 -225 -225 -225 -225 -225 -225 -225 -225 -225 -225 -225 -225 -225 -225 -225 -225 -225 -225 -225 -225 -225 -225 -225 -225 -225 -225 -225 -225 -225 -225 -225 -225 -225 -225 -225 -225 -225 -225 -225 -225 -225 -225 -225 -225 -225 -225 -225 -225 -225 -225 -225 -225 -225 -225 -225 -225 -225 -225 -225 -225 -225 -225 -225 -225 -225 -225 -225 -225 -225 -225 -225 -225 -225 -225 -225 -225 -225 63 67 65 -209 -209 -209 -209 -209 15 -209 -209 -209 -209 -209 -193 -193 -209 -209 -209 215 212 -209 196 195 192 -209 -209 189 197 197 196 198 195 194 198 200 198 198 200 -193 201 203 211 213 214 0 0 0 0 0
    0 0 0 0 0 0 0 0 0 0 0 0 0 0 0 0 0 0 0 0 0 0 0 0 0 0 0 0 0 0 0 0 0 0 0 0 0 0 0 0 0 0 0 0 0 0 0 0 0 0 0 0 0 0 0 0 0 0 0 0 0 0 0 0 0 0 0 0 0 -225 -225 -225 -225 -225 -225 -225 -225 -225 -225 -225 -225 -225 -225 -225 -225 -225 -225 -225 -225 -225 -225 -225 -225 -225 -225 -225 -225 -225 -225 -225 -225 -225 -225 -225 -225 -225 -225 -225 -225 -225 -225 -225 -225 -225 -225 -225 -225 -225 -225 -225 -225 -225 -225 -225 -225 -225 -225 -225 -225 -225 -225 -225 -225 -225 -225 -225 -225 -225 -225 -225 -225 -225 -225 -225 -225 -225 -225 -225 -225 -225 -225 -225 -225 -225 -225 -225 -225 -225 -225 -225 -225 -225 -225 -225 -225 -225 -225 -225 -225 -225 -225 -225 -225 -225 -225 -225 -225 -225 -225 -225 -225 -225 -225 -225 -225 -225 -225 -225 -225 -225 -225 -225 -225 -225 -225 -225 -225 -225 -225 -225 -225 -225 -225 -225 -225 -225 -225 -225 -225 -225 -225 -225 -225 -225 -225 -225 -225 -225 -225 -225 -225 -225 -225 -225 -225 -225 -225 -225 -225 -225 -225 -225 -225 -225 -225 -225 -225 -225 -225 -225 -225 -225 -225 -225 -225 -225 -225 -225 -225 -225 -225 -225 -225 -225 -225 -225 -225 -225 -225 -225 -225 -225 -225 -225 -225 -225 -225 -225 -225 -225 69 73 -193 -209 -209 -209 -209 -209 15 22 -209 -209 -209 -193 121 124 -209 -209 -209 218 -193 -209 -209 -209 -209 -209 -209 193 199 199 197 199 195 193 197 198 197 197 198 -193 200 203 214 217 217 0 0 0 0 0
    0 0 0 0 0 0 0 0 0 0 0 0 0 0 0 0 0 0 0 0 0 0 0 0 0 0 0 0 0 0 0 0 0 0 0 0 0 0 0 0 0 0 0 0 0 0 0 0 0 0 0 0 0 0 0 0 0 0 0 0 0 0 0 0 0 0 0 0 0 -225 -225 -225 -225 -225 -225 -225 -225 -225 -225 -225 -225 -225 -225 -225 -225 -225 -225 -225 -225 -225 -225 -225 -225 -225 -225 -225 -225 -225 -225 -225 -225 -225 -225 -225 -225 -225 -225 -225 -225 -225 -225 -225 -225 -225 -225 -225 -225 -225 -225 -225 -225 -225 -225 -225 -225 -225 -225 -225 -225 -225 -225 -225 -225 -225 -225 -225 -225 -225 -225 -225 -225 -225 -225 -225 -225 -225 -225 -225 -225 -225 -225 -225 -225 -225 -225 -225 -225 -225 -225 -225 -225 -225 -225 -225 -225 -225 -225 -225 -225 -225 -225 -225 -225 -225 -225 -225 -225 -225 -225 -225 -225 -225 -225 -225 -225 -225 -225 -225 -225 -225 -225 -225 -225 -225 -225 -225 -225 -225 -225 -225 -225 -225 -225 -225 -225 -225 -225 -225 -225 -225 -225 -225 -225 -225 -225 -225 -225 -225 -225 -225 -225 -225 -225 -225 -225 -225 -225 -225 -225 -225 -225 -225 -225 -225 -225 -225 -225 -225 -225 -225 -225 -225 -225 -225 -225 -225 -225 -225 -225 -225 -225 -225 -225 -225 -225 -225 -225 -225 -225 -225 -225 -225 -225 -225 -225 -225 -225 -225 -225 -225 -225 77 77 -209 -209 -193 -193 9 11 14 -209 -209 -209 -209 -209 -193 -209 -209 -209 220 221 -209 -193 -193 -193 -209 -209 -193 200 -193 198 199 194 190 194 196 198 197 197 -209 -209 203 215 221 232 0 0 0 0 0
    0 0 0 0 0 0 0 0 0 0 0 0 0 0 0 0 0 0 0 0 0 0 0 0 0 0 0 0 0 0 0 0 0 0 0 0 0 0 0 0 0 0 0 0 0 0 0 0 0 0 0 0 0 0 0 0 0 0 0 0 0 0 0 0 0 0 0 0 0 -225 -225 -225 -225 -225 -225 -225 -225 -225 -225 -225 -225 -225 -225 -225 -225 -225 -225 -225 -225 -225 -225 -225 -225 -225 -225 -225 -225 -225 -225 -225 -225 -225 -225 -225 -225 -225 -225 -225 -225 -225 -225 -225 -225 -225 -225 -225 -225 -225 -225 -225 -225 -225 -225 -225 -225 -225 -225 -225 -225 -225 -225 -225 -225 -225 -225 -225 -225 -225 -225 -225 -225 -225 -225 -225 -225 -225 -225 -225 -225 -225 -225 -225 -225 -225 -225 -225 -225 -225 -225 -225 -225 -225 -225 -225 -225 -225 -225 -225 -225 -225 -225 -225 -225 -225 -225 -225 -225 -225 -225 -225 -225 -225 -225 -225 -225 -225 -225 -225 -225 -225 -225 -225 -225 -225 -225 -225 -225 -225 -225 -225 -225 -225 -225 -225 -225 -225 -225 -225 -225 -225 -225 -225 -225 -225 -225 -225 -225 -225 -225 -225 -225 -225 -225 -225 -225 -225 -225 -225 -225 -225 -225 -225 -225 -225 -225 -225 -225 -225 -225 -225 -225 -225 -225 -225 -225 -225 -225 -225 -225 -225 -225 -225 -225 -225 -225 -225 -225 -225 -225 -225 -225 -225 -225 -225 -225 -225 -225 -225 -225 -225 -225 78 81 -193 -209 -193 -177 9 9 -177 -209 -209 -209 -209 -209 -209 -209 -209 -209 -193 220 -193 221 223 223 -209 -209 -193 215 -193 -193 -209 -209 186 193 198 201 -209 -209 -209 -209 201 216 230 235 0 0 0 0 0
    0 0 0 0 0 0 0 0 0 0 0 0 0 0 0 0 0 0 0 0 0 0 0 0 0 0 0 0 0 0 0 0 0 0 0 0 0 0 0 0 0 0 0 0 0 0 0 0 0 0 0 0 0 0 0 0 0 0 0 0 0 0 0 0 0 0 0 0 0 -225 -225 -225 -225 -225 -225 -225 -225 -225 -225 -225 -225 -225 -225 -225 -225 -225 -225 -225 -225 -225 -225 -225 -225 -225 -225 -225 -225 -225 -225 -225 -225 -225 -225 -225 -225 -225 -225 -225 -225 -225 -225 -225 -225 -225 -225 -225 -225 -225 -225 -225 -225 -225 -225 -225 -225 -225 -225 -225 -225 -225 -225 -225 -225 -225 -225 -225 -225 -225 -225 -225 -225 -225 -225 -225 -225 -225 -225 -225 -225 -225 -225 -225 -225 -225 -225 -225 -225 -225 -225 -225 -225 -225 -225 -225 -225 -225 -225 -225 -225 -225 -225 -225 -225 -225 -225 -225 -225 -225 -225 -225 -225 -225 -225 -225 -225 -225 -225 -225 -225 -225 -225 -225 -225 -225 -225 -225 -225 -225 -225 -225 -225 -225 -225 -225 -225 -225 -225 -225 -225 -225 -225 -225 -225 -225 -225 -225 -225 -225 -225 -225 -225 -225 -225 -225 -225 -225 -225 -225 -225 -225 -225 -225 -225 -225 -225 -225 -225 -225 -225 -225 -225 -225 -225 -225 -225 -225 -225 -225 -225 -225 -225 -225 -225 -225 -225 -225 -225 -225 -225 -225 -225 -225 -225 -225 -225 -225 -225 -225 -225 -225 -225 78 81 73 72 -209 -177 -177 -177 -177 -209 -209 -177 -177 -209 -209 -209 -209 225 226 227 223 226 230 230 232 232 230 230 230 -209 -209 -209 186 -209 -209 -209 -209 -209 -209 -209 -209 228 234 239 0 0 0 0 0
    0 0 0 0 0 0 0 0 0 0 0 0 0 0 0 0 0 0 0 0 0 0 0 0 0 0 0 0 0 0 0 0 0 0 0 0 0 0 0 0 0 0 0 0 0 0 0 0 0 0 0 0 0 0 0 0 0 0 0 0 0 0 0 0 0 0 0 0 0 -225 -225 -225 -225 -225 -225 -225 -225 -225 -225 -225 -225 -225 -225 -225 -225 -225 -225 -225 -225 -225 -225 -225 -225 -225 -225 -225 -225 -225 -225 -225 -225 -225 -225 -225 -225 -225 -225 -225 -225 -225 -225 -225 -225 -225 -225 -225 -225 -225 -225 -225 -225 -225 -225 -225 -225 -225 -225 -225 -225 -225 -225 -225 -225 -225 -225 -225 -225 -225 -225 -225 -225 -225 -225 -225 -225 -225 -225 -225 -225 -225 -225 -225 -225 -225 -225 -225 -225 -225 -225 -225 -225 -225 -225 -225 -225 -225 -225 -225 -225 -225 -225 -225 -225 -225 -225 -225 -225 -225 -225 -225 -225 -225 -225 -225 -225 -225 -225 -225 -225 -225 -225 -225 -225 -225 -225 -225 -225 -225 -225 -225 -225 -225 -225 -225 -225 -225 -225 -225 -225 -225 -225 -225 -225 -225 -225 -225 -225 -225 -225 -225 -225 -225 -225 -225 -225 -225 -225 -225 -225 -225 -225 -225 -225 -225 -225 -225 -225 -225 -225 -225 -225 -225 -225 -225 -225 -225 -225 -225 -225 -225 -225 -225 -225 -225 -225 -225 -225 -225 -225 -225 -225 -225 -225 -225 -225 -225 -225 -225 -225 -225 -225 -209 -209 70 -193 -209 -209 -209 -209 -209 -209 -209 -177 122 -209 -209 225 227 230 232 232 230 231 232 233 235 234 234 237 239 242 243 241 -209 -209 -209 -209 -193 235 233 235 -209 233 236 244 0 0 0 0 0
    0 0 0 0 0 0 0 0 0 0 0 0 0 0 0 0 0 0 0 0 0 0 0 0 0 0 0 0 0 0 0 0 0 0 0 0 0 0 0 0 0 0 0 0 0 0 0 0 0 0 0 0 0 0 0 0 0 0 0 0 0 0 0 0 0 0 0 0 0 -225 -225 -225 -225 -225 -225 -225 -225 -225 -225 -225 -225 -225 -225 -225 -225 -225 -225 -225 -225 -225 -225 -225 -225 -225 -225 -225 -225 -225 -225 -225 -225 -225 -225 -225 -225 -225 -225 -225 -225 -225 -225 -225 -225 -225 -225 -225 -225 -225 -225 -225 -225 -225 -225 -225 -225 -225 -225 -225 -225 -225 -225 -225 -225 -225 -225 -225 -225 -225 -225 -225 -225 -225 -225 -225 -225 -225 -225 -225 -225 -225 -225 -225 -225 -225 -225 -225 -225 -225 -225 -225 -225 -225 -225 -225 -225 -225 -225 -225 -225 -225 -225 -225 -225 -225 -225 -225 -225 -225 -225 -225 -225 -225 -225 -225 -225 -225 -225 -225 -225 -225 -225 -225 -225 -225 -225 -225 -225 -225 -225 -225 -225 -225 -225 -225 -225 -225 -225 -225 -225 -225 -225 -225 -225 -225 -225 -225 -225 -225 -225 -225 -225 -225 -225 -225 -225 -225 -225 -225 -225 -225 -225 -225 -225 -225 -225 -225 -225 -225 -225 -225 -225 -225 -225 -225 -225 -225 -225 -225 -225 -225 -225 -225 -225 -225 -225 -225 -225 -225 -225 -225 -225 -225 -225 -225 -225 -225 -225 -225 -225 260 256 254 251 250 -209 -209 -209 -209 -209 -209 -209 -209 -193 -209 -209 -209 233 -193 -193 236 238 236 235 233 236 236 235 236 242 246 246 248 248 -193 -209 -209 240 241 241 238 239 238 235 238 245 0 0 0 0 0
    0 0 0 0 0 0 0 0 0 0 0 0 0 0 0 0 0 0 0 0 0 0 0 0 0 0 0 0 0 0 0 0 0 0 0 0 0 0 0 0 0 0 0 0 0 0 0 0 0 0 0 0 0 0 0 0 0 0 0 0 0 0 0 0 0 0 0 0 0 -225 -225 -225 -225 -225 -225 -225 -225 -225 -225 -225 -225 -225 -225 -225 -225 -225 -225 -225 -225 -225 -225 -225 -225 -225 -225 -225 -225 -225 -225 -225 -225 -225 -225 -225 -225 -225 -225 -225 -225 -225 -225 -225 -225 -225 -225 -225 -225 -225 -225 -225 -225 -225 -225 -225 -225 -225 -225 -225 -225 -225 -225 -225 -225 -225 -225 -225 -225 -225 -225 -225 -225 -225 -225 -225 -225 -225 -225 -225 -225 -225 -225 -225 -225 -225 -225 -225 -225 -225 -225 -225 -225 -225 -225 -225 -225 -225 -225 -225 -225 -225 -225 -225 -225 -225 -225 -225 -225 -225 -225 -225 -225 -225 -225 -225 -225 -225 -225 -225 -225 -225 -225 -225 -225 -225 -225 -225 -225 -225 -225 -225 -225 -225 -225 -225 -225 -225 -225 -225 -225 -225 -225 -225 -225 -225 -225 -225 -225 -225 -225 -225 -225 -225 -225 -225 -225 -225 -225 -225 -225 -225 -225 -225 -225 -225 -225 -225 -225 -225 -225 -225 -225 -225 -225 -225 -225 -225 -225 -225 -225 -225 -225 -225 -225 -225 -225 -225 -225 -225 -225 -225 -225 -225 -225 -225 -225 -225 -225 232 247 259 254 253 251 250 253 -209 -209 100 -209 -209 -209 -209 -209 -209 -209 -209 238 -193 -193 241 245 -209 239 -209 238 237 239 238 246 248 248 251 250 -193 -209 -209 -193 246 -193 242 242 243 242 242 247 0 0 0 0 0
    0 0 0 0 0 0 0 0 0 0 0 0 0 0 0 0 0 0 0 0 0 0 0 0 0 0 0 0 0 0 0 0 0 0 0 0 0 0 0 0 0 0 0 0 0 0 0 0 0 0 0 0 0 0 0 0 0 0 0 0 0 0 0 0 0 0 0 0 0 -225 -225 -225 -225 -225 -225 -225 -225 -225 -225 -225 -225 -225 -225 -225 -225 -225 -225 -225 -225 -225 -225 -225 -225 -225 -225 -225 -225 -225 -225 -225 -225 -225 -225 -225 -225 -225 -225 -225 -225 -225 -225 -225 -225 -225 -225 -225 -225 -225 -225 -225 -225 -225 -225 -225 -225 -225 -225 -225 -225 -225 -225 -225 -225 -225 -225 -225 -225 -225 -225 -225 -225 -225 -225 -225 -225 -225 -225 -225 -225 -225 -225 -225 -225 -225 -225 -225 -225 -225 -225 -225 -225 -225 -225 -225 -225 -225 -225 -225 -225 -225 -225 -225 -225 -225 -225 -225 -225 -225 -225 -225 -225 -225 -225 -225 -225 -225 -225 -225 -225 -225 -225 -225 -225 -225 -225 -225 -225 -225 -225 -225 -225 -225 -225 -225 -225 -225 -225 -225 -225 -225 -225 -225 -225 -225 -225 -225 -225 -225 -225 -225 -225 -225 -225 -225 -225 -225 -225 -225 -225 -225 -225 -225 -225 -225 -225 -225 -225 -225 -225 -225 -225 -225 -225 -225 -225 -225 -225 -225 -225 -225 -225 -225 -225 -225 -225 -225 -225 -225 -225 -225 -225 -225 -225 -225 -225 -225 234 234 246 259 253 252 251 251 253 255 258 -209 -209 -209 -209 -209 -209 -209 -209 -209 244 -209 -209 -193 249 -209 -209 -209 -209 -209 -193 -193 251 254 253 254 -193 -209 -209 -209 -209 -193 -193 -209 244 246 247 246 249 0 0 0 0 0
    0 0 0 0 0 0 0 0 0 0 0 0 0 0 0 0 0 0 0 0 0 0 0 0 0 0 0 0 0 0 0 0 0 0 0 0 0 0 0 0 0 0 0 0 0 0 0 0 0 0 0 0 0 0 0 0 0 0 0 0 0 0 0 0 0 0 0 0 0 -225 -225 -225 -225 -225 -225 -225 -225 -225 -225 -225 -225 -225 -225 -225 -225 -225 -225 -225 -225 -225 -225 -225 -225 -225 -225 -225 -225 -225 -225 -225 -225 -225 -225 -225 -225 -225 -225 -225 -225 -225 -225 -225 -225 -225 -225 -225 -225 -225 -225 -225 -225 -225 -225 -225 -225 -225 -225 -225 -225 -225 -225 -225 -225 -225 -225 -225 -225 -225 -225 -225 -225 -225 -225 -225 -225 -225 -225 -225 -225 -225 -225 -225 -225 -225 -225 -225 -225 -225 -225 -225 -225 -225 -225 -225 -225 -225 -225 -225 -225 -225 -225 -225 -225 -225 -225 -225 -225 -225 -225 -225 -225 -225 -225 -225 -225 -225 -225 -225 -225 -225 -225 -225 -225 -225 -225 -225 -225 -225 -225 -225 -225 -225 -225 -225 -225 -225 -225 -225 -225 -225 -225 -225 -225 -225 -225 -225 -225 -225 -225 -225 -225 -225 -225 -225 -225 -225 -225 -225 -225 -225 -225 -225 -225 -225 -225 -225 -225 -225 -225 -225 -225 -225 -225 -225 -225 -225 -225 -225 -225 -225 -225 -225 -225 -225 -225 -225 -225 -225 -225 -225 -225 -225 -225 -225 -225 236 240 244 248 259 255 254 254 254 256 258 261 262 257 262 262 262 260 261 258 -209 250 -209 -209 -209 -193 -209 -193 -193 -209 -193 253 257 257 261 259 259 260 263 -209 -209 -209 -209 -209 -209 247 248 249 248 250 0 0 0 0 0
    0 0 0 0 0 0 0 0 0 0 0 0 0 0 0 0 0 0 0 0 0 0 0 0 0 0 0 0 0 0 0 0 0 0 0 0 0 0 0 0 0 0 0 0 0 0 0 0 0 0 0 0 0 0 0 0 0 0 0 0 0 0 0 0 0 0 0 0 0 -225 -225 -225 -225 -225 -225 -225 -225 -225 -225 -225 -225 -225 -225 -225 -225 -225 -225 -225 -225 -225 -225 -225 -225 -225 -225 -225 -225 -225 -225 -225 -225 -225 -225 -225 -225 -225 -225 -225 -225 -225 -225 -225 -225 -225 -225 -225 -225 -225 -225 -225 -225 -225 -225 -225 -225 -225 -225 -225 -225 -225 -225 -225 -225 -225 -225 -225 -225 -225 -225 -225 -225 -225 -225 -225 -225 -225 -225 -225 -225 -225 -225 -225 -225 -225 -225 -225 -225 -225 -225 -225 -225 -225 -225 -225 -225 -225 -225 -225 -225 -225 -225 -225 -225 -225 -225 -225 -225 -225 -225 -225 -225 -225 -225 -225 -225 -225 -225 -225 -225 -225 -225 -225 -225 -225 -225 -225 -225 -225 -225 -225 -225 -225 -225 -225 -225 -225 -225 -225 -225 -225 -225 -225 -225 -225 -225 -225 -225 -225 -225 -225 -225 -225 -225 -225 -225 -225 -225 -225 -225 -225 -225 -225 -225 -225 -225 -225 -225 -225 -225 -225 -225 -225 -225 -225 -225 -225 -225 -225 -225 -225 -225 -225 -225 -225 -225 -225 -225 -225 -225 -225 -225 -225 -225 -225 -225 236 240 244 248 259 255 254 254 256 257 259 261 262 260 263 263 263 262 264 263 -209 -209 -209 -209 -209 -193 -209 -193 -193 -193 256 256 260 260 262 261 260 261 264 265 -209 -209 -209 -209 -193 250 251 251 250 252 0 0 0 0 0
    0 0 0 0 0 0 0 0 0 0 0 0 0 0 0 0 0 0 0 0 0 0 0 0 0 0 0 0 0 0 0 0 0 0 0 0 0 0 0 0 0 0 0 0 0 0 0 0 0 0 0 0 0 0 0 0 0 0 0 0 0 0 0 0 0 0 0 0 0 -225 -225 -225 -225 -225 -225 -225 -225 -225 -225 -225 -225 -225 -225 -225 -225 -225 -225 -225 -225 -225 -225 -225 -225 -225 -225 -225 -225 -225 -225 -225 -225 -225 -225 -225 -225 -225 -225 -225 -225 -225 -225 -225 -225 -225 -225 -225 -225 -225 -225 -225 -225 -225 -225 -225 -225 -225 -225 -225 -225 -225 -225 -225 -225 -225 -225 -225 -225 -225 -225 -225 -225 -225 -225 -225 -225 -225 -225 -225 -225 -225 -225 -225 -225 -225 -225 -225 -225 -225 -225 -225 -225 -225 -225 -225 -225 -225 -225 -225 -225 -225 -225 -225 -225 -225 -225 -225 -225 -225 -225 -225 -225 -225 -225 -225 -225 -225 -225 -225 -225 -225 -225 -225 -225 -225 -225 -225 -225 -225 -225 -225 -225 -225 -225 -225 -225 -225 -225 -225 -225 -225 -225 -225 -225 -225 -225 -225 -225 -225 -225 -225 -225 -225 -225 -225 -225 -225 -225 -225 -225 -225 -225 -225 -225 -225 -225 -225 -225 -225 -225 -225 -225 -225 -225 -225 -225 -225 -225 -225 -225 -225 -225 -225 -225 -225 -225 -225 -225 -225 -225 -225 -225 -225 -225 -225 -209 236 240 244 248 259 255 254 254 256 257 258 261 262 259 262 263 263 262 265 263 -209 -209 -209 -209 -209 -193 -209 -193 -193 256 258 257 261 260 262 261 260 261 264 266 270 -209 -209 -209 -209 -193 252 251 251 253 0 0 0 0 0
    0 0 0 0 0 0 0 0 0 0 0 0 0 0 0 0 0 0 0 0 0 0 0 0 0 0 0 0 0 0 0 0 0 0 0 0 0 0 0 0 0 0 0 0 0 0 0 0 0 0 0 0 0 0 0 0 0 0 0 0 0 0 0 0 0 0 0 0 0 -225 -225 -225 -225 -225 -225 -225 -225 -225 -225 -225 -225 -225 -225 -225 -225 -225 -225 -225 -225 -225 -225 -225 -225 -225 -225 -225 -225 -225 -225 -225 -225 -225 -225 -225 -225 -225 -225 -225 -225 -225 -225 -225 -225 -225 -225 -225 -225 -225 -225 -225 -225 -225 -225 -225 -225 -225 -225 -225 -225 -225 -225 -225 -225 -225 -225 -225 -225 -225 -225 -225 -225 -225 -225 -225 -225 -225 -225 -225 -225 -225 -225 -225 -225 -225 -225 -225 -225 -225 -225 -225 -225 -225 -225 -225 -225 -225 -225 -225 -225 -225 -225 -225 -225 -225 -225 -225 -225 -225 -225 -225 -225 -225 -225 -225 -225 -225 -225 -225 -225 -225 -225 -225 -225 -225 -225 -225 -225 -225 -225 -225 -225 -225 -225 -225 -225 -225 -225 -225 -225 -225 -225 -225 -225 -225 -225 -225 -225 -225 -225 -225 -225 -225 -225 -225 -225 -225 -225 -225 -225 -225 -225 -225 -225 -225 -225 -225 -225 -225 -225 -225 -225 -225 -225 -225 -225 -225 -225 -225 -225 -225 -225 -225 -225 -225 -225 -225 -225 -225 -225 -225 -225 -225 -225 -209 -209 -209 240 244 248 259 255 254 254 256 257 258 261 262 259 262 262 263 261 263 261 257 254 -209 -193 -193 -209 -209 -209 -193 -193 260 259 263 260 262 261 260 261 264 266 269 -209 -209 -209 253 255 255 251 251 253 0 0 0 0 0
    0 0 0 0 0 0 0 0 0 0 0 0 0 0 0 0 0 0 0 0 0 0 0 0 0 0 0 0 0 0 0 0 0 0 0 0 0 0 0 0 0 0 0 0 0 0 0 0 0 0 0 0 0 0 0 0 0 0 0 0 0 0 0 0 0 0 0 0 0 -225 -225 -225 -225 -225 -225 -225 -225 -225 -225 -225 -225 -225 -225 -225 -225 -225 -225 -225 -225 -225 -225 -225 -225 -225 -225 -225 -225 -225 -225 -225 -225 -225 -225 -225 -225 -225 -225 -225 -225 -225 -225 -225 -225 -225 -225 -225 -225 -225 -225 -225 -225 -225 -225 -225 -225 -225 -225 -225 -225 -225 -225 -225 -225 -225 -225 -225 -225 -225 -225 -225 -225 -225 -225 -225 -225 -225 -225 -225 -225 -225 -225 -225 -225 -225 -225 -225 -225 -225 -225 -225 -225 -225 -225 -225 -225 -225 -225 -225 -225 -225 -225 -225 -225 -225 -225 -225 -225 -225 -225 -225 -225 -225 -225 -225 -225 -225 -225 -225 -225 -225 -225 -225 -225 -225 -225 -225 -225 -225 -225 -225 -225 -225 -225 -225 -225 -225 -225 -225 -225 -225 -225 -225 -225 -225 -225 -225 -225 -225 -225 -225 -225 -225 -225 -225 -225 -225 -225 -225 -225 -225 -225 -225 -225 -225 -225 -225 -225 -225 -225 -225 -225 -225 -225 -225 -225 -225 -225 -225 -225 -225 -225 -225 -225 -225 -225 -225 -225 -225 -225 -225 -225 -225 -225 -209 -209 -209 240 244 248 259 255 254 254 256 257 258 261 262 258 261 262 262 261 263 262 260 258 -209 -193 -209 -193 -209 -209 -209 -209 -193 261 264 260 263 262 261 260 263 -193 273 -209 -209 -209 -209 -209 -209 -209 260 259 0 0 0 0 0
    0 0 0 0 0 0 0 0 0 0 0 0 0 0 0 0 0 0 0 0 0 0 0 0 0 0 0 0 0 0 0 0 0 0 0 0 0 0 0 0 0 0 0 0 0 0 0 0 0 0 0 0 0 0 0 0 0 0 0 0 0 0 0 0 0 0 0 0 0 -225 -225 -225 -225 -225 -225 -225 -225 -225 -225 -225 -225 -225 -225 -225 -225 -225 -225 -225 -225 0 -256 -1 -9245 -225 -225 -225 -225 -225 -225 -225 -225 -225 -225 -225 -225 -225 -225 -225 -225 -225 -225 -225 -225 -225 -225 -225 -225 -225 -225 -225 -225 -225 -225 -225 -225 -225 -225 -225 -225 -225 -225 -225 -225 -225 -225 -225 -225 -225 -225 -225 -225 -225 -225 -225 -225 -225 -225 -225 -225 -225 -225 -225 -225 -225 -225 -225 -225 -225 -225 -225 -225 -225 -225 -225 -225 -225 -225 -225 -225 -225 -225 -225 -225 -225 -225 -225 -225 -225 -225 -225 -225 -225 -225 -225 -225 -225 -225 -225 -225 -225 -225 -225 -225 -225 -225 -225 -225 -225 -225 -225 -225 -225 -225 -225 -225 -225 -225 -225 -225 -225 -225 -225 -225 -225 -225 -225 -225 -225 -225 -225 -225 -225 -225 -225 -225 -225 -225 -225 -225 -225 -225 -225 -225 -225 -225 -225 -225 -225 -225 -225 -225 -225 -225 -225 -225 -225 -225 -225 -225 -225 -225 -225 -225 -225 -225 -225 -225 -225 -225 -225 -225 -225 -225 -209 -209 -209 237 240 247 259 254 254 254 257 258 259 262 263 260 263 263 264 263 265 265 263 263 -193 -193 265 264 -209 -209 -209 -209 -193 263 265 262 265 267 -209 -209 -209 292 -209 -193 -209 -209 -209 -209 -209 -209 269 266 0 0 0 0 0
    0 0 0 0 0 0 0 0 0 0 0 0 0 0 0 0 0 0 0 0 0 0 0 0 0 0 0 0 0 0 0 0 0 0 0 0 0 0 0 0 0 0 0 0 0 0 0 0 0 0 0 0 0 0 0 0 0 0 0 0 0 0 0 0 0 0 0 0 0 -225 -225 -225 -225 -225 -225 -225 -225 -225 -225 -225 -225 -225 -225 -225 -225 -225 -225 -225 -225 -225 -225 -225 -225 -225 -225 -225 -225 -225 -225 -225 -225 -225 -225 -225 -225 -225 -225 -225 -225 -225 -225 -225 -225 -225 -225 -225 -225 -225 -225 -225 -225 -225 -225 -225 -225 -225 -225 -225 -225 -225 -225 -225 -225 -225 -225 -225 -225 -225 -225 -225 -225 -225 -225 -225 -225 -225 -225 -225 -225 -225 -225 -225 -225 -225 -225 -225 -225 -225 -225 -225 -225 -225 -225 -225 -225 -225 -225 -225 -225 -225 -225 -225 -225 -225 -225 -225 -225 -225 -225 -225 -225 -225 -225 -225 -225 -225 -225 -225 -225 -225 -225 -225 -225 -225 -225 -225 -225 -225 -225 -225 -225 -225 -225 -225 -225 -225 -225 -225 -225 -225 -225 -225 -225 -225 -225 -225 -225 -225 -225 -225 -225 -225 -225 -225 -225 -225 -225 -225 -225 -225 -225 -225 -225 -225 -225 -225 -225 -225 -225 -225 -225 -225 -225 -225 -225 -225 -225 -225 -225 -225 -225 -225 -225 -225 -225 -225 -225 -225 -225 -225 -225 -225 -225 -209 -209 -209 -209 244 -193 -209 254 254 256 260 259 261 263 264 260 264 263 265 264 266 266 265 265 266 266 268 266 265 -193 -209 -193 265 264 266 263 -193 -209 -209 -209 -209 -193 -209 294 -193 -209 -209 291 288 -209 271 271 0 0 0 0 0
    0 0 0 0 0 0 0 0 0 0 0 0 0 0 0 0 0 0 0 0 0 0 0 0 0 0 0 0 0 0 0 0 0 0 0 0 0 0 0 0 0 0 0 0 0 0 0 0 0 0 0 0 0 0 0 0 0 0 0 0 0 0 0 0 0 0 0 0 0 -225 -225 -225 -225 -225 -225 -225 -225 -225 -225 -225 -225 -225 -225 -225 -225 -225 -225 -225 -225 -225 -225 -225 -225 -225 -225 -225 -225 -225 -225 -225 -225 -225 -225 -225 -225 -225 -225 -225 -225 -225 -225 -225 -225 -225 -225 -225 -225 -225 -225 -225 -225 -225 -225 -225 -225 -225 -225 -225 -225 -225 -225 -225 -225 -225 -225 -225 -225 -225 -225 -225 -225 -225 -225 -225 -225 -225 -225 -225 -225 -225 -225 -225 -225 -225 -225 -225 -225 -225 -225 -225 -225 -225 -225 -225 -225 -225 -225 -225 -225 -225 -225 -225 -225 -225 -225 -225 -225 -225 -225 -225 -225 -225 -225 -225 -225 -225 -225 -225 -225 -225 -225 -225 -225 -225 -225 -225 -225 -225 -225 -225 -225 -225 -225 -225 -225 -225 -225 -225 -225 -225 -225 -225 -225 -225 -225 -225 -225 -225 -225 -225 -225 -225 -225 -225 -225 -225 -225 -225 -225 -225 -225 -225 -225 -225 -225 -225 -225 -225 -225 -225 -225 -225 -225 -225 -225 -225 -225 -225 -225 -225 -225 -225 -225 -225 -225 -225 -225 -225 -225 -225 -225 -225 -225 -209 -209 -209 -209 -209 -209 -209 -209 -209 259 263 261 262 264 264 261 263 263 265 264 266 267 266 266 268 267 270 269 268 267 267 268 270 268 269 265 266 -193 -193 -209 -209 -193 -209 291 -193 -209 287 292 290 -209 270 275 0 0 0 0 0
    0 0 0 0 0 0 0 0 0 0 0 0 0 0 0 0 0 0 0 0 0 0 0 0 0 0 0 0 0 0 0 0 0 0 0 0 0 0 0 0 0 0 0 0 0 0 0 0 0 0 0 0 0 0 0 0 0 0 0 0 0 0 0 0 0 0 0 0 0 -225 -225 -225 -225 -225 -225 -225 -225 -225 -225 -225 -225 -225 -225 -225 -225 -225 -225 -225 -225 -225 -225 -225 -225 -225 -225 -225 -225 -225 -225 -225 -225 -225 -225 -225 -225 -225 -225 -225 -225 -225 -225 -225 -225 -225 -225 -225 -225 -225 -225 -225 -225 -225 -225 -225 -225 -225 -225 -225 -225 -225 -225 -225 -225 -225 -225 -225 -225 -225 -225 -225 -225 -225 -225 -225 -225 -225 -225 -225 -225 -225 -225 -225 -225 -225 -225 -225 -225 -225 -225 -225 -225 -225 -225 -225 -225 -225 -225 -225 -225 -225 -225 -225 -225 -225 -225 -225 -225 -225 -225 -225 -225 -225 -225 -225 -225 -225 -225 -225 -225 -225 -225 -225 -225 -225 -225 -225 -225 -225 -225 -225 -225 -225 -225 -225 -225 -225 -225 -225 -225 -225 -225 -225 -225 -225 -225 -225 -225 -225 -225 -225 -225 -225 -225 -225 -225 -225 -225 -225 -225 -225 -225 -225 -225 -225 -225 -225 -225 -225 -225 -225 -225 -225 -225 -225 -225 -225 -225 -225 -225 -225 -225 -225 -225 -225 -225 -225 -225 -225 -225 -225 -225 -225 -225 -209 -193 -209 -209 -209 -209 -209 -209 -209 -209 -209 -193 264 -193 -209 262 263 263 266 265 267 268 267 267 269 269 273 272 272 271 269 272 274 271 272 268 267 -193 -209 -209 -209 -209 -193 -209 -209 -209 287 291 -209 -209 -209 -193 0 0 0 0 0
    0 0 0 0 0 0 0 0 0 0 0 0 0 0 0 0 0 0 0 0 0 0 0 0 0 0 0 0 0 0 0 0 0 0 0 0 0 0 0 0 0 0 0 0 0 0 0 0 0 0 0 0 0 0 0 0 0 0 0 0 0 0 0 0 0 0 0 0 0 -225 -225 -225 -225 -225 -225 -225 -225 -225 -225 -225 -225 -225 -225 -225 -225 -225 -225 -225 -225 -225 -225 -225 -225 -225 -225 -225 -225 -225 -225 -225 -225 -225 -225 -225 -225 -225 -225 -225 -225 -225 -225 -225 -225 -225 -225 -225 -225 -225 -225 -225 -225 -225 -225 -225 -225 -225 -225 -225 -225 -225 -225 -225 -225 -225 -225 -225 -225 -225 -225 -225 -225 -225 -225 -225 -225 -225 -225 -225 -225 -225 -225 -225 -225 -225 -225 -225 -225 -225 -225 -225 -225 -225 -225 -225 -225 -225 -225 -225 -225 -225 -225 -225 -225 -225 -225 -225 -225 -225 -225 -225 -225 -225 -225 -225 -225 -225 -225 -225 -225 -225 -225 -225 -225 -225 -225 -225 -225 -225 -225 -225 -225 -225 -225 -225 -225 -225 -225 -225 -225 -225 -225 -225 -225 -225 -225 -225 -225 -225 -225 -225 -225 -225 -225 -225 -225 -225 -225 -225 -225 -225 -225 -225 -225 -225 -225 -225 -225 -225 -225 -225 -225 -225 -225 -225 -225 -225 -225 -225 -225 -225 -225 -225 -225 -225 -225 -225 -225 -225 -225 -225 -225 -225 -225 111 114 -209 -209 -209 -209 -209 -209 -209 -209 -209 -209 -209 -209 -209 -209 -209 -209 -209 -209 267 268 266 266 269 269 273 274 274 274 275 277 278 278 278 277 279 280 282 287 291 -193 -209 -209 -209 -209 -193 -193 -193 -209 -209 283 0 0 0 0 0
    0 0 0 0 0 0 0 0 0 0 0 0 0 0 0 0 0 0 0 0 0 0 0 0 0 0 0 0 0 0 0 0 0 0 0 0 0 0 0 0 0 0 0 0 0 0 0 0 0 0 0 0 0 0 0 0 0 0 0 0 0 0 0 0 0 0 0 0 0 -225 -225 -225 -225 -225 -225 -225 -225 -225 -225 -225 -225 -225 -225 -225 -225 -225 -225 -225 -225 -225 -225 -225 -225 -225 -225 -225 -225 -225 -225 -225 -225 -225 -225 -225 -225 -225 -225 -225 -225 -225 -225 -225 -225 -225 -225 -225 -225 -225 -225 -225 -225 -225 -225 -225 -225 -225 -225 -225 -225 -225 -225 -225 -225 -225 -225 -225 -225 -225 -225 -225 -225 -225 -225 -225 -225 -225 -225 -225 -225 -225 -225 -225 -225 -225 -225 -225 -225 -225 -225 -225 -225 -225 -225 -225 -225 -225 -225 -225 -225 -225 -225 -225 -225 -225 -225 -225 -225 -225 -225 -225 -225 -225 -225 -225 -225 -225 -225 -225 -225 -225 -225 -225 -225 -225 -225 -225 -225 -225 -225 -225 -225 -225 -225 -225 -225 -225 -225 -225 -225 -225 -225 -225 -225 -225 -225 -225 -225 -225 -225 -225 -225 -225 -225 -225 -225 -225 -225 -225 -225 -225 -225 -225 -225 -225 -225 -225 -225 -225 -225 -225 -225 -225 -225 -225 -225 -225 -225 -225 -225 -225 -225 -225 -225 -225 -225 -225 -225 -225 -225 -225 -225 -225 -225 -225 -209 -209 44 -209 -209 -209 -209 -209 -209 -209 -209 -209 -209 -209 -209 -209 -209 -209 -209 -193 265 265 265 268 268 273 275 276 276 278 279 281 281 281 282 282 283 285 289 291 294 -209 -209 -209 -193 -193 -193 -209 -209 -209 291 0 0 0 0 0
    0 0 0 0 0 0 0 0 0 0 0 0 0 0 0 0 0 0 0 0 0 0 0 0 0 0 0 0 0 0 0 0 0 0 0 0 0 0 0 0 0 0 0 0 0 0 0 0 0 0 0 0 0 0 0 0 0 0 0 0 0 0 0 0 0 0 0 0 0 -225 -225 -225 -225 -225 -225 -225 -225 -225 -225 -225 -225 -225 -225 -225 -225 -225 -225 -225 -225 -225 -225 -225 -225 -225 -225 -225 -225 -225 -225 -225 -225 -225 -225 -225 -225 -225 -225 -225 -225 -225 -225 -225 -225 -225 -225 -225 -225 -225 -225 -225 -225 -225 -225 -225 -225 -225 -225 -225 -225 -225 -225 -225 -225 -225 -225 -225 -225 -225 -225 -225 -225 -225 -225 -225 -225 -225 -225 -225 -225 -225 -225 -225 -225 -225 -225 -225 -225 -225 -225 -225 -225 -225 -225 -225 -225 -225 -225 -225 -225 -225 -225 -225 -225 -225 -225 -225 -225 -225 -225 -225 -225 -225 -225 -225 -225 -225 -225 -225 -225 -225 -225 -225 -225 -225 -225 -225 -225 -225 -225 -225 -225 -225 -225 -225 -225 -225 -225 -225 -225 -225 -225 -225 -225 -225 -225 -225 -225 -225 -225 -225 -225 -225 -225 -225 -225 -225 -225 -225 -225 -225 -225 -225 -225 -225 -225 -225 -225 -225 -225 -225 -225 -225 -225 -225 -225 -225 -225 -225 -225 -225 -225 -225 -225 -225 -225 -225 -225 -225 -225 -225 -225 -225 -225 -225 23 37 43 52 -209 -209 -209 -209 -209 100 -209 -209 -193 -209 -209 -209 -209 -209 -209 -209 265 265 265 268 268 272 275 277 277 279 280 281 282 283 283 284 285 287 291 293 296 297 -193 -193 296 293 296 -209 -209 -209 -193 0 0 0 0 0
    0 0 0 0 0 0 0 0 0 0 0 0 0 0 0 0 0 0 0 0 0 0 0 0 0 0 0 0 0 0 0 0 0 0 0 0 0 0 0 0 0 0 0 0 0 0 0 0 0 0 0 0 0 0 0 0 0 0 0 0 0 0 0 0 0 0 0 0 0 -225 -225 -225 -225 -225 -225 -225 -225 -225 -225 -225 -225 -225 -225 -225 -225 -225 -225 -225 -225 -225 -225 -225 -225 -225 -225 -225 -225 -225 -225 -225 -225 -225 -225 -225 -225 -225 -225 -225 -225 -225 -225 -225 -225 -225 -225 -225 -225 -225 -225 -225 -225 -225 -225 -225 -225 -225 -225 -225 -225 -225 -225 -225 -225 -225 -225 -225 -225 -225 -225 -225 -225 -225 -225 -225 -225 -225 -225 -225 -225 -225 -225 -225 -225 -225 -225 -225 -225 -225 -225 -225 -225 -225 -225 -225 -225 -225 -225 -225 -225 -225 -225 -225 -225 -225 -225 -225 -225 -225 -225 -225 -225 -225 -225 -225 -225 -225 -225 -225 -225 -225 -225 -225 -225 -225 -225 -225 -225 -225 -225 -225 -225 -225 -225 -225 -225 -225 -225 -225 -225 -225 -225 -225 -225 -225 -225 -225 -225 -225 -225 -225 -225 -225 -225 -225 -225 -225 -225 -225 -225 -225 -225 -225 -225 -225 -225 -225 -225 -225 -225 -225 -225 -225 -225 -225 -225 -225 -225 -225 -225 -225 -225 -225 -225 -225 -225 -225 -225 -225 -225 -225 -225 -225 -225 -225 20 27 40 47 -209 -209 -209 -209 -209 -209 -209 -209 -209 -209 -209 -209 -209 -209 -209 -209 266 266 266 268 268 270 274 276 277 279 281 282 282 284 286 286 287 289 291 293 293 294 294 293 295 294 297 -209 -193 -193 298 0 0 0 0 0
    0 0 0 0 0 0 0 0 0 0 0 0 0 0 0 0 0 0 0 0 0 0 0 0 0 0 0 0 0 0 0 0 0 0 0 0 0 0 0 0 0 0 0 0 0 0 0 0 0 0 0 0 0 0 0 0 0 0 0 0 0 0 0 0 0 0 0 0 0 -225 -225 -225 -225 -225 -225 -225 -225 -225 -225 -225 -225 -225 -225 -225 -225 -225 -225 -225 -225 -225 -225 -225 -225 -225 -225 -225 -225 -225 -225 -225 -225 -225 -225 -225 -225 -225 -225 -225 -225 -225 -225 -225 -225 -225 -225 -225 -225 -225 -225 -225 -225 -225 -225 -225 -225 -225 -225 -225 -225 -225 -225 -225 -225 -225 -225 -225 -225 -225 -225 -225 -225 -225 -225 -225 -225 -225 -225 -225 -225 -225 -225 -225 -225 -225 -225 -225 -225 -225 -225 -225 -225 -225 -225 -225 -225 -225 -225 -225 -225 -225 -225 -225 -225 -225 -225 -225 -225 -225 -225 -225 -225 -225 -225 -225 -225 -225 -225 -225 -225 -225 -225 -225 -225 -225 -225 -225 -225 -225 -225 -225 -225 -225 -225 -225 -225 -225 -225 -225 -225 -225 -225 -225 -225 -225 -225 -225 -225 -225 -225 -225 -225 -225 -225 -225 -225 -225 -225 -225 -225 -225 -225 -225 -225 -225 -225 -225 -225 -225 -225 -225 -225 -225 -225 -225 -225 -225 -225 -225 -225 -225 -225 -225 -225 -225 -225 -225 -225 -225 -225 -225 -225 -225 -225 -225 12 -193 39 -193 -209 -209 -209 -209 -209 -209 -209 -209 -209 -209 -209 -209 -209 -209 -209 -209 265 267 265 266 267 269 273 277 279 281 282 282 284 286 288 288 287 289 290 291 292 291 292 291 294 294 297 299 303 -209 300 0 0 0 0 0
    0 0 0 0 0 0 0 0 0 0 0 0 0 0 0 0 0 0 0 0 0 0 0 0 0 0 0 0 0 0 0 0 0 0 0 0 0 0 0 0 0 0 0 0 0 0 0 0 0 0 0 0 0 0 0 0 0 0 0 0 0 0 0 0 0 0 0 0 0 -225 -225 -225 -225 -225 -225 -225 -225 -225 -225 -225 -225 -225 -225 -225 -225 -225 -225 -225 -225 -225 -225 -225 -225 -225 -225 -225 -225 -225 -225 -225 -225 -225 -225 -225 -225 -225 -225 -225 -225 -225 -225 -225 -225 -225 -225 -225 -225 -225 -225 -225 -225 -225 -225 -225 -225 -225 -225 -225 -225 -225 -225 -225 -225 -225 -225 -225 -225 -225 -225 -225 -225 -225 -225 -225 -225 -225 -225 -225 -225 -225 -225 -225 -225 -225 -225 -225 -225 -225 -225 -225 -225 -225 -225 -225 -225 -225 -225 -225 -225 -225 -225 -225 -225 -225 -225 -225 -225 -225 -225 -225 -225 -225 -225 -225 -225 -225 -225 -225 -225 -225 -225 -225 -225 -225 -225 -225 -225 -225 -225 -225 -225 -225 -225 -225 -225 -225 -225 -225 -225 -225 -225 -225 -225 -225 -225 -225 -225 -225 -225 -225 -225 -225 -225 -225 -225 -225 -225 -225 -225 -225 -225 -225 -225 -225 -225 -225 -225 -225 -225 -225 -225 -225 -225 -225 -225 -225 -225 -225 -225 -225 -225 -225 -225 -225 -225 -225 -225 -225 -225 -225 -225 -225 -225 -225 -225 -209 28 -193 18 23 26 -193 -209 -209 -209 -209 -209 -209 -209 -209 -209 -209 -209 -209 -209 263 259 263 263 264 270 278 280 281 283 283 285 287 290 291 290 291 293 295 296 296 297 298 300 301 305 306 306 308 306 0 0 0 0 0
    0 0 0 0 0 0 0 0 0 0 0 0 0 0 0 0 0 0 0 0 0 0 0 0 0 0 0 0 0 0 0 0 0 0 0 0 0 0 0 0 0 0 0 0 0 0 0 0 0 0 0 0 0 0 0 0 0 0 0 0 0 0 0 0 0 0 0 0 0 -225 -225 -225 -225 -225 -225 -225 -225 -225 -225 -225 -225 -225 -225 -225 -225 -225 -225 -225 -225 -225 -225 -225 -225 -225 -225 -225 -225 -225 -225 -225 -225 -225 -225 -225 -225 -225 -225 -225 -225 -225 -225 -225 -225 -225 -225 -225 -225 -225 -225 -225 -225 -225 -225 -225 -225 -225 -225 -225 -225 -225 -225 -225 -225 -225 -225 -225 -225 -225 -225 -225 -225 -225 -225 -225 -225 -225 -225 -225 -225 -225 -225 -225 -225 -225 -225 -225 -225 -225 -225 -225 -225 -225 -225 -225 -225 -225 -225 -225 -225 -225 -225 -225 -225 -225 -225 -225 -225 -225 -225 -225 -225 -225 -225 -225 -225 -225 -225 -225 -225 -225 -225 -225 -225 -225 -225 -225 -225 -225 -225 -225 -225 -225 -225 -225 -225 -225 -225 -225 -225 -225 -225 -225 -225 -225 -225 -225 -225 -225 -225 -225 -225 -225 -225 -225 -225 -225 -225 -225 -225 -225 -225 -225 -225 -225 -225 -225 -225 -225 -225 -225 -225 -225 -225 -225 -225 -225 -225 -225 -225 -225 -225 -225 -225 -225 -225 -225 -225 -225 -225 -225 -225 -225 -225 -225 -225 31 26 24 19 22 23 21 25 -209 -209 -209 -209 -209 -209 -209 -209 -209 -209 -209 -209 -209 -209 259 261 262 269 280 282 285 286 286 288 290 292 292 293 292 294 296 298 299 301 303 306 308 309 309 309 310 308 0 0 0 0 0
    0 0 0 0 0 0 0 0 0 0 0 0 0 0 0 0 0 0 0 0 0 0 0 0 0 0 0 0 0 0 0 0 0 0 0 0 0 0 0 0 0 0 0 0 0 0 0 0 0 0 0 0 0 0 0 0 0 0 0 0 0 0 0 0 0 0 0 0 0 -225 -225 -225 -225 -225 -225 -225 -225 -225 -225 -225 -225 -225 -225 -225 -225 -225 -225 -225 -225 -225 -225 -225 -225 -225 -225 -225 -225 -225 -225 -225 -225 -225 -225 -225 -225 -225 -225 -225 -225 -225 -225 -225 -225 -225 -225 -225 -225 -225 -225 -225 -225 -225 -225 -225 -225 -225 -225 -225 -225 -225 -225 -225 -225 -225 -225 -225 -225 -225 -225 -225 -225 -225 -225 -225 -225 -225 -225 -225 -225 -225 -225 -225 -225 -225 -225 -225 -225 -225 -225 -225 -225 -225 -225 -225 -225 -225 -225 -225 -225 -225 -225 -225 -225 -225 -225 -225 -225 -225 -225 -225 -225 -225 -225 -225 -225 -225 -225 -225 -225 -225 -225 -225 -225 -225 -225 -225 -225 -225 -225 -225 -225 -225 -225 -225 -225 -225 -225 -225 -225 -225 -225 -225 -225 -225 -225 -225 -225 -225 -225 -225 -225 -225 -225 -225 -225 -225 -225 -225 -225 -225 -225 -225 -225 -225 -225 -225 -225 -225 -225 -225 -225 -225 -225 -225 -225 -225 -225 -225 -225 -225 -225 -225 -225 -225 -225 -225 -225 -225 -225 -225 -225 -225 -225 -225 -225 32 26 26 21 23 24 20 23 -209 -209 -209 -209 -209 -209 -209 -209 -209 -209 -209 -209 -209 -209 255 260 260 266 -193 289 -193 294 292 292 293 294 295 295 295 296 298 300 303 305 307 309 310 311 311 311 312 311 0 0 0 0 0
    0 0 0 0 0 0 0 0 0 0 0 0 0 0 0 0 0 0 0 0 0 0 0 0 0 0 0 0 0 0 0 0 0 0 0 0 0 0 0 0 0 0 0 0 0 0 0 0 0 0 0 0 0 0 0 0 0 0 0 0 0 0 0 0 0 0 0 0 0 -225 -225 -225 -225 -225 -225 -225 -225 -225 -225 -225 -225 -225 -225 -225 -225 -225 -225 -225 -225 -225 -225 -225 -225 -225 -225 -225 -225 -225 -225 -225 -225 -225 -225 -225 -225 -225 -225 -225 -225 -225 -225 -225 -225 -225 -225 -225 -225 -225 -225 -225 -225 -225 -225 -225 -225 -225 -225 -225 -225 -225 -225 -225 -225 -225 -225 -225 -225 -225 -225 -225 -225 -225 -225 -225 -225 -225 -225 -225 -225 -225 -225 -225 -225 -225 -225 -225 -225 -225 -225 -225 -225 -225 -225 -225 -225 -225 -225 -225 -225 -225 -225 -225 -225 -225 -225 -225 -225 -225 -225 -225 -225 -225 -225 -225 -225 -225 -225 -225 -225 -225 -225 -225 -225 -225 -225 -225 -225 -225 -225 -225 -225 -225 -225 -225 -225 -225 -225 -225 -225 -225 -225 -225 -225 -225 -225 -225 -225 -225 -225 -225 -225 -225 -225 -225 -225 -225 -225 -225 -225 -225 -225 -225 -225 -225 -225 -225 -225 -225 -225 -225 -225 -225 -225 -225 -225 -225 -225 -225 -225 -225 -225 -225 -225 -225 -225 -225 -225 -225 -225 -225 -225 -225 -225 -225 23 28 25 25 21 23 23 20 18 15 -209 -209 -209 -209 -209 -209 -209 -209 -209 -209 -209 -209 -209 -209 -209 -209 264 -209 295 299 300 299 297 296 296 296 297 296 296 298 301 304 306 309 310 311 312 312 311 312 312 0 0 0 0 0
    0 0 0 0 0 0 0 0 0 0 0 0 0 0 0 0 0 0 0 0 0 0 0 0 0 0 0 0 0 0 0 0 0 0 0 0 0 0 0 0 0 0 0 0 0 0 0 0 0 0 0 0 0 0 0 0 0 0 0 0 0 0 0 0 0 0 0 0 0 -225 -225 -225 -225 -225 -225 -225 -225 -225 -225 -225 -225 -225 -225 -225 -225 -225 -225 -225 -225 -225 -225 -225 -225 -225 -225 -225 -225 -225 -225 -225 -225 -225 -225 -225 -225 -225 -225 -225 -225 -225 -225 -225 -225 -225 -225 -225 -225 -225 -225 -225 -225 -225 -225 -225 -225 -225 -225 -225 -225 -225 -225 -225 -225 -225 -225 -225 -225 -225 -225 -225 -225 -225 -225 -225 -225 -225 -225 -225 -225 -225 -225 -225 -225 -225 -225 -225 -225 -225 -225 -225 -225 -225 -225 -225 -225 -225 -225 -225 -225 -225 -225 -225 -225 -225 -225 -225 -225 -225 -225 -225 -225 -225 -225 -225 -225 -225 -225 -225 -225 -225 -225 -225 -225 -225 -225 -225 -225 -225 -225 -225 -225 -225 -225 -225 -225 -225 -225 -225 -225 -225 -225 -225 -225 -225 -225 -225 -225 -225 -225 -225 -225 -225 -225 -225 -225 -225 -225 -225 -225 -225 -225 -225 -225 -225 -225 -225 -225 -225 -225 -225 -225 -225 -225 -225 -225 -225 -225 -225 -225 -225 -225 -225 -225 -225 -225 -225 -225 -225 -225 -225 -225 -225 -225 -225 23 27 25 -209 21 23 23 20 15 10 -193 -193 -209 -209 -209 -209 -209 -209 -209 -209 -209 -209 -209 -209 -209 -209 -209 -209 -209 305 308 308 304 299 299 299 298 297 298 300 302 303 305 308 310 312 312 313 312 312 313 0 0 0 0 0
    0 0 0 0 0 0 0 0 0 0 0 0 0 0 0 0 0 0 0 0 0 0 0 0 0 0 0 0 0 0 0 0 0 0 0 0 0 0 0 0 0 0 0 0 0 0 0 0 0 0 0 0 0 0 0 0 0 0 0 0 0 0 0 0 0 0 0 0 0 -225 -225 -225 -225 -225 -225 -225 -225 -225 -225 -225 -225 -225 -225 -225 -225 -225 -225 -225 -225 -225 -225 -225 -225 -225 -225 -225 -225 -225 -225 -225 -225 -225 -225 -225 -225 -225 -225 -225 -225 -225 -225 -225 -225 -225 -225 -225 -225 -225 -225 -225 -225 -225 -225 -225 -225 -225 -225 -225 -225 -225 -225 -225 -225 -225 -225 -225 -225 -225 -225 -225 -225 -225 -225 -225 -225 -225 -225 -225 -225 -225 -225 -225 -225 -225 -225 -225 -225 -225 -225 -225 -225 -225 -225 -225 -225 -225 -225 -225 -225 -225 -225 -225 -225 -225 -225 -225 -225 -225 -225 -225 -225 -225 -225 -225 -225 -225 -225 -225 -225 -225 -225 -225 -225 -225 -225 -225 -225 -225 -225 -225 -225 -225 -225 -225 -225 -225 -225 -225 -225 -225 -225 -225 -225 -225 -225 -225 -225 -225 -225 -225 -225 -225 -225 -225 -225 -225 -225 -225 -225 -225 -225 -225 -225 -225 -225 -225 -225 -225 -225 -225 -225 -225 -225 -225 -225 -225 -225 -225 -225 -225 -225 -225 -225 -225 -225 -225 -225 -225 -225 -225 -225 -225 -225 -225 -209 28 27 -209 23 24 24 22 15 12 -177 -177 -193 -209 -209 -209 -209 -209 -209 -209 -209 -209 -209 -177 -177 225 225 -209 -209 313 314 -193 -209 302 301 301 300 298 298 302 305 305 306 308 310 312 313 315 314 314 315 0 0 0 0 0
    0 0 0 0 0 0 0 0 0 0 0 0 0 0 0 0 0 0 0 0 0 0 0 0 0 0 0 0 0 0 0 0 0 0 0 0 0 0 0 0 0 0 0 0 0 0 0 0 0 0 0 0 0 0 0 0 0 0 0 0 0 0 0 0 0 0 0 0 0 -225 -225 -225 -225 -225 -225 -225 -225 -225 -225 -225 -225 -225 -225 -225 -225 -225 -225 -225 -225 -225 -225 -225 -225 -225 -225 -225 -225 -225 -225 -225 -225 -225 -225 -225 -225 -225 -225 -225 -225 -225 -225 -225 -225 -225 -225 -225 -225 -225 -225 -225 -225 -225 -225 -225 -225 -225 -225 -225 -225 -225 -225 -225 -225 -225 -225 -225 -225 -225 -225 -225 -225 -225 -225 -225 -225 -225 -225 -225 -225 -225 -225 -225 -225 -225 -225 -225 -225 -225 -225 -225 -225 -225 -225 -225 -225 -225 -225 -225 -225 -225 -225 -225 -225 -225 -225 -225 -225 -225 -225 -225 -225 -225 -225 -225 -225 -225 -225 -225 -225 -225 -225 -225 -225 -225 -225 -225 -225 -225 -225 -225 -225 -225 -225 -225 -225 -225 -225 -225 -225 -225 -225 -225 -225 -225 -225 -225 -225 -225 -225 -225 -225 -225 -225 -225 -225 -225 -225 -225 -225 -225 -225 -225 -225 -225 -225 -225 -225 -225 -225 -225 -225 -225 -225 -225 -225 -225 -225 -225 -225 -225 -225 -225 -225 -225 -225 -225 -225 -225 -225 -225 -225 -225 -225 -209 -209 27 27 -209 -209 25 26 25 -209 -209 -209 -209 -177 0 -209 -209 -209 -209 -209 -209 -209 -209 -209 228 -177 -209 -177 -193 -209 317 318 322 322 -209 302 308 302 298 299 303 305 305 307 309 310 311 312 315 315 315 317 0 0 0 0 0
    0 0 0 0 0 0 0 0 0 0 0 0 0 0 0 0 0 0 0 0 0 0 0 0 0 0 0 0 0 0 0 0 0 0 0 0 0 0 0 0 0 0 0 0 0 0 0 0 0 0 0 0 0 0 0 0 0 0 0 0 0 0 0 0 0 0 0 0 0 -225 -225 -225 -225 -225 -225 -225 -225 -225 -225 -225 -225 -225 -225 -225 -225 -225 -225 -225 -225 -225 -225 -225 -225 -225 -225 -225 -225 -225 -225 -225 -225 -225 -225 -225 -225 -225 -225 -225 -225 -225 -225 -225 -225 -225 -225 -225 -225 -225 -225 -225 -225 -225 -225 -225 -225 -225 -225 -225 -225 -225 -225 -225 -225 -225 -225 -225 -225 -225 -225 -225 -225 -225 -225 -225 -225 -225 -225 -225 -225 -225 -225 -225 -225 -225 -225 -225 -225 -225 -225 -225 -225 -225 -225 -225 -225 -225 -225 -225 -225 -225 -225 -225 -225 -225 -225 -225 -225 -225 -225 -225 -225 -225 -225 -225 -225 -225 -225 -225 -225 -225 -225 -225 -225 -225 -225 -225 -225 -225 -225 -225 -225 -225 -225 -225 -225 -225 -225 -225 -225 -225 -225 -225 -225 -225 -225 -225 -225 -225 -225 -225 -225 -225 -225 -225 -225 -225 -225 -225 -225 -225 -225 -225 -225 -225 -225 -225 -225 -225 -225 -225 -225 -225 -225 -225 -225 -225 -225 -225 -225 -225 -225 -225 -225 -225 -225 -225 -225 -225 -225 -225 -225 -225 -209 -209 -209 -209 -209 -209 -209 -209 -209 -209 -209 -209 -209 -209 -193 -193 -193 -209 -209 -209 -209 -209 -209 -209 -193 -193 -209 -209 -193 -193 -209 -209 321 -209 -193 332 -209 -209 -209 -209 304 308 311 309 310 311 312 312 313 316 318 318 321 0 0 0 0 0
    0 0 0 0 0 0 0 0 0 0 0 0 0 0 0 0 0 0 0 0 0 0 0 0 0 0 0 0 0 0 0 0 0 0 0 0 0 0 0 0 0 0 0 0 0 0 0 0 0 0 0 0 0 0 0 0 0 0 0 0 0 0 0 0 0 0 0 0 0 -225 -225 -225 -225 -225 -225 -225 -225 -225 -225 -225 -225 -225 -225 -225 -225 -225 -225 -225 -225 -225 -225 -225 -225 -225 -225 -225 -225 -225 -225 -225 -225 -225 -225 -225 -225 -225 -225 -225 -225 -225 -225 -225 -225 -225 -225 -225 -225 -225 -225 -225 -225 -225 -225 -225 -225 -225 -225 -225 -225 -225 -225 -225 -225 -225 -225 -225 -225 -225 -225 -225 -225 -225 -225 -225 -225 -225 -225 -225 -225 -225 -225 -225 -225 -225 -225 -225 -225 -225 -225 -225 -225 -225 -225 -225 -225 -225 -225 -225 -225 -225 -225 -225 -225 -225 -225 -225 -225 -225 -225 -225 -225 -225 -225 -225 -225 -225 -225 -225 -225 -225 -225 -225 -225 -225 -225 -225 -225 -225 -225 -225 -225 -225 -225 -225 -225 -225 -225 -225 -225 -225 -225 -225 -225 -225 -225 -225 -225 -225 -225 -225 -225 -225 -225 -225 -225 -225 -225 -225 -225 -225 -225 -225 -225 -225 -225 -225 -225 -225 -225 -225 -225 -225 -225 -225 -225 -225 -225 -225 -225 -225 -225 -225 -225 -225 -225 -225 -225 -225 -225 -225 -225 -209 -209 -209 -209 -209 -209 -209 -209 -209 -209 -209 -209 -209 -209 -209 -209 -209 -209 -209 -209 -209 -209 -209 -209 -209 -209 230 -193 -193 -193 -209 -209 -209 -209 -209 -209 339 -193 335 339 -209 310 311 314 312 311 311 313 314 315 320 322 322 324 0 0 0 0 0</data></disparity>
</opencv_storage>
