<?xml version="1.0"?>
<opencv_storage>
<gps_time_stamp>18945</gps_time_stamp>
<gps_x>-3.7708064913749695e-001</gps_x>
<gps_y>1.2298569083213806e-002</gps_y>
<gps_z>-2.6023343205451965e-002</gps_z>
<image_time_stamp>6864</image_time_stamp>
<disparity type_id="opencv-matrix">
  <rows>92</rows>
  <cols>320</cols>
  <dt>s</dt>
  <data>
    0 0 0 0 0 0 0 0 0 0 0 0 0 0 0 0 0 0 0 0 0 0 0 0 0 0 0 0 0 0 0 0 0 0 0 0 0 0 0 0 0 0 0 0 0 0 0 0 0 0 0 0 0 0 0 0 0 0 0 0 0 0 0 0 0 0 0 0 0 20 16 10 10 10 0 0 0 0 0 0 0 0 0 0 0 0 0 0 0 0 0 0 0 0 0 0 0 0 0 9 10 10 9 0 0 0 0 0 0 0 0 0 0 9 0 0 0 0 0 0 0 0 0 0 0 0 0 0 0 0 0 0 0 0 0 0 0 0 0 0 0 9 16 14 16 15 13 13 13 13 15 16 -193 21 -209 -209 42 41 42 42 43 42 42 -193 -209 -209 -209 -209 -209 -209 -209 -209 -193 10 0 0 0 0 10 10 10 10 10 12 12 18 21 25 27 29 28 25 20 21 19 16 13 18 19 15 19 21 25 -193 -193 -209 -193 42 43 43 42 -193 -209 19 18 15 16 15 14 16 17 18 16 18 19 21 22 22 23 22 23 24 23 23 23 23 23 22 24 23 22 24 25 25 26 26 28 27 30 35 33 35 41 42 52 47 44 45 47 46 45 47 48 46 48 49 49 49 50 50 50 49 50 52 52 53 53 54 55 55 55 56 54 55 55 54 54 54 56 54 56 56 56 56 56 56 55 -193 58 56 57 -193 -193 -193 -193 -193 -193 -193 56 57 57 58 59 56 56 0 0 0 0 0
    0 0 0 0 0 0 0 0 0 0 0 0 0 0 0 0 0 0 0 0 0 0 0 0 0 0 0 0 0 0 0 0 0 0 0 0 0 0 0 0 0 0 0 0 0 0 0 0 0 0 0 0 0 0 0 0 0 0 0 0 0 0 0 0 0 0 0 0 0 22 20 14 13 13 0 0 0 9 0 0 0 0 0 0 0 0 0 0 0 0 0 0 0 0 0 0 0 0 0 9 9 9 9 0 0 0 0 0 0 0 0 0 0 0 0 0 0 0 0 0 0 0 0 0 0 0 0 0 0 0 0 0 0 0 0 0 0 0 0 0 0 0 15 11 13 13 12 12 12 13 14 -209 -209 -209 -209 -209 43 43 43 43 44 43 43 44 42 47 -193 -209 46 -209 -209 -209 -209 13 10 0 0 0 10 10 10 9 10 11 13 21 24 26 31 36 34 30 23 25 22 20 17 19 19 17 19 22 25 -193 -193 -193 -193 41 42 43 42 -193 -193 18 16 15 16 15 14 16 17 18 15 18 19 20 21 22 22 22 22 23 23 23 23 23 23 22 24 23 22 24 25 25 27 27 29 29 33 36 35 36 41 41 50 46 44 45 47 46 45 47 48 46 48 50 49 49 50 50 50 49 50 52 52 52 52 54 54 54 55 55 53 54 54 54 53 54 56 54 56 56 55 55 55 55 55 -193 57 54 56 59 -193 -193 -193 -193 -193 -193 -193 57 57 58 60 -193 -193 0 0 0 0 0
    0 0 0 0 0 0 0 0 0 0 0 0 0 0 0 0 0 0 0 0 0 0 0 0 0 0 0 0 0 0 0 0 0 0 0 0 0 0 0 0 0 0 0 0 0 0 0 0 0 0 0 0 0 0 0 0 0 0 0 0 0 0 0 0 0 0 0 0 0 23 22 19 17 17 9 0 9 9 0 0 0 0 0 9 0 0 0 0 0 0 0 0 0 0 0 0 9 9 0 10 9 9 9 0 0 0 0 0 0 0 0 0 0 0 0 0 0 0 0 0 0 0 0 0 0 0 0 0 0 0 0 0 0 0 0 0 0 0 0 0 0 0 13 9 12 12 12 12 12 13 16 -209 -209 -193 44 46 44 44 45 45 45 44 45 46 44 48 46 44 46 46 45 43 43 -193 15 0 0 9 10 10 10 9 10 11 12 21 25 27 32 37 35 32 27 27 26 24 24 23 21 19 21 22 25 28 -193 -193 -193 41 42 43 42 40 -193 16 15 15 16 14 13 15 17 17 14 18 19 19 20 21 21 21 21 23 22 22 23 23 23 22 24 23 23 25 26 26 28 28 30 33 35 37 37 38 41 41 49 46 44 45 47 46 45 47 48 46 48 50 49 49 50 50 50 49 50 51 51 52 52 53 54 54 55 55 53 54 54 54 53 54 57 54 56 56 55 55 55 54 54 -193 56 52 55 57 56 -193 56 -193 -193 -193 -193 -193 56 58 60 -193 -193 0 0 0 0 0
    0 0 0 0 0 0 0 0 0 0 0 0 0 0 0 0 0 0 0 0 0 0 0 0 0 0 0 0 0 0 0 0 0 0 0 0 0 0 0 0 0 0 0 0 0 0 0 0 0 0 0 0 0 0 0 0 0 0 0 0 0 0 0 0 0 0 0 0 0 23 22 18 15 16 9 0 9 10 0 0 0 0 0 9 9 0 0 0 0 0 0 0 0 0 0 0 0 0 0 10 9 9 9 0 0 0 0 0 0 0 0 0 0 0 0 0 0 0 0 0 0 0 0 0 0 0 0 0 0 0 0 0 0 0 0 0 0 0 0 0 0 0 12 9 12 12 12 12 13 -193 -209 -209 -209 46 45 48 46 45 45 46 46 45 47 46 44 48 46 46 46 47 47 45 46 46 -193 -209 9 9 11 11 10 10 11 11 12 22 -193 28 33 38 36 35 30 29 28 26 26 26 23 20 21 22 25 27 34 -193 -193 40 41 43 42 38 41 16 15 14 15 13 13 14 16 15 13 17 19 18 19 20 21 20 21 23 22 22 22 23 23 22 23 22 22 24 27 27 29 29 32 36 37 38 38 38 41 42 48 46 44 45 47 46 45 47 48 45 48 50 49 49 49 50 49 49 50 51 51 52 51 54 54 54 55 55 53 54 54 54 53 55 56 54 55 55 54 54 54 54 53 -193 56 51 55 56 55 -193 55 -193 -193 -193 -193 -193 56 58 -193 239 241 0 0 0 0 0
    0 0 0 0 0 0 0 0 0 0 0 0 0 0 0 0 0 0 0 0 0 0 0 0 0 0 0 0 0 0 0 0 0 0 0 0 0 0 0 0 0 0 0 0 0 0 0 0 0 0 0 0 0 0 0 0 0 0 0 0 0 0 0 0 0 0 0 0 0 -193 -193 17 14 15 9 0 10 10 0 0 0 0 0 9 9 0 0 0 0 0 0 0 0 0 0 0 0 0 0 10 9 9 9 0 0 0 0 0 0 0 0 0 0 0 0 0 0 0 0 0 0 0 0 0 0 0 0 0 0 0 0 0 0 0 0 0 0 0 0 0 0 0 11 9 12 11 12 13 14 -209 -209 -209 -209 47 45 48 46 46 46 46 46 45 47 46 44 48 46 45 46 46 46 45 46 45 -193 -209 10 10 11 11 11 10 12 12 13 22 -193 29 33 38 38 36 32 30 31 29 29 29 24 20 21 21 24 26 32 -193 -193 38 41 43 42 41 42 18 17 15 15 14 13 14 16 14 13 16 18 18 19 19 20 19 20 22 21 21 22 23 23 22 23 23 22 24 28 27 30 31 33 38 38 38 38 39 41 42 46 45 44 45 47 46 45 47 48 45 48 50 48 49 49 50 49 49 50 51 51 52 51 54 53 54 55 55 53 54 54 53 52 55 56 53 55 55 54 54 54 53 53 -193 56 50 55 56 55 -193 -193 -193 -193 -193 -193 -193 55 57 -193 240 242 0 0 0 0 0
    0 0 0 0 0 0 0 0 0 0 0 0 0 0 0 0 0 0 0 0 0 0 0 0 0 0 0 0 0 0 0 0 0 0 0 0 0 0 0 0 0 0 0 0 0 0 0 0 0 0 0 0 0 0 0 0 0 0 0 0 0 0 0 0 0 0 0 0 0 -193 21 17 14 15 9 0 10 10 9 0 0 0 0 9 9 0 0 0 0 0 0 0 0 0 0 0 0 0 0 10 9 9 9 0 0 0 0 0 0 0 0 0 0 0 0 0 0 0 0 0 0 0 0 0 0 0 0 0 0 0 0 0 0 0 0 0 9 9 9 0 0 0 9 0 10 10 -193 -193 -193 -209 -209 -209 -209 -193 46 49 47 46 46 47 46 46 47 46 44 48 45 45 45 45 45 44 44 44 -193 -209 11 10 12 12 12 11 13 13 14 23 28 30 34 38 38 37 35 32 34 32 33 35 26 21 21 21 23 25 30 34 36 37 41 43 42 41 42 21 17 15 15 13 13 13 15 14 12 15 18 17 18 19 19 18 20 22 20 21 21 22 23 23 24 23 23 24 31 29 33 34 35 39 38 39 39 39 41 42 45 44 44 45 47 46 45 47 48 46 48 49 48 49 49 50 49 49 50 51 50 52 51 53 52 54 54 54 52 54 53 52 50 55 55 53 54 54 54 54 54 53 53 -193 56 50 56 57 -193 -193 -193 -193 -193 -193 -193 -193 55 -193 -193 241 242 0 0 0 0 0
    0 0 0 0 0 0 0 0 0 0 0 0 0 0 0 0 0 0 0 0 0 0 0 0 0 0 0 0 0 0 0 0 0 0 0 0 0 0 0 0 0 0 0 0 0 0 0 0 0 0 0 0 0 0 0 0 0 0 0 0 0 0 0 0 0 0 0 0 0 -193 19 15 15 16 9 0 9 10 0 0 0 0 0 9 0 0 0 0 0 0 0 0 0 0 0 9 0 0 0 9 9 9 9 0 0 0 0 0 0 0 0 0 0 0 0 0 0 0 0 0 0 0 0 0 0 0 0 0 0 0 0 0 0 0 9 10 11 10 10 9 0 0 9 0 9 -193 113 117 -193 -209 -209 -209 -209 -193 47 50 47 47 47 48 47 46 47 46 44 47 45 44 44 44 44 43 43 43 -193 17 11 11 12 12 12 11 13 13 12 22 28 31 33 38 38 37 36 34 36 35 35 37 29 22 21 20 21 24 27 29 33 35 40 43 43 42 43 22 17 15 15 12 12 12 14 13 11 14 17 17 17 18 19 17 20 21 21 21 22 24 24 24 27 26 27 27 35 33 36 37 37 39 39 39 39 39 41 42 43 44 43 45 46 46 45 47 47 46 48 49 47 49 49 50 49 49 50 51 51 52 50 53 51 53 54 55 52 53 53 52 49 54 55 53 54 54 53 53 54 53 53 -193 55 49 56 58 -193 -193 56 -193 56 56 56 55 56 57 -193 241 243 0 0 0 0 0
    0 0 0 0 0 0 0 0 0 0 0 0 0 0 0 0 0 0 0 0 0 0 0 0 0 0 0 0 0 0 0 0 0 0 0 0 0 0 0 0 0 0 0 0 0 0 0 0 0 0 0 0 0 0 0 0 0 0 0 0 0 0 0 0 0 0 0 0 0 -193 -193 15 17 18 10 0 0 9 0 0 0 0 0 0 0 0 0 0 0 0 0 0 0 0 0 9 0 0 0 9 0 9 9 0 0 0 0 0 0 0 0 0 0 0 0 0 0 0 0 0 0 0 0 0 9 0 0 0 0 0 0 0 0 0 9 10 11 11 10 9 -193 0 -193 0 -193 -177 113 116 -193 -209 -209 -209 -209 -209 47 50 47 47 47 48 47 46 48 46 44 46 45 44 44 44 44 43 43 42 26 21 13 12 11 12 12 11 13 13 11 18 24 29 31 37 38 38 37 35 38 37 37 39 35 21 20 19 20 23 -209 -193 -193 36 41 43 45 44 45 23 18 14 14 12 12 12 13 13 11 14 16 16 16 17 17 16 19 21 21 22 23 26 26 28 31 34 36 36 -193 35 37 38 38 39 38 39 39 39 41 42 42 43 43 44 46 46 45 47 47 46 48 48 47 49 48 49 48 48 49 51 50 52 49 53 51 53 54 55 52 54 53 52 49 54 55 53 54 53 53 53 53 53 53 51 54 47 56 58 -193 56 56 57 57 57 57 57 57 58 61 -193 57 0 0 0 0 0
    0 0 0 0 0 0 0 0 0 0 0 0 0 0 0 0 0 0 0 0 0 0 0 0 0 0 0 0 0 0 0 0 0 0 0 0 0 0 0 0 0 0 0 0 0 0 0 0 0 0 0 0 0 0 0 0 0 0 0 0 0 0 0 0 0 0 0 0 0 -193 -193 16 19 20 13 9 9 10 0 0 0 0 0 0 0 0 0 0 0 0 0 0 0 0 0 0 0 0 0 9 0 9 9 0 0 0 0 0 0 0 0 0 0 0 0 0 0 0 0 0 0 0 0 0 9 0 0 0 0 0 0 0 0 0 -193 -193 10 11 -193 -209 -209 -193 -209 0 -193 115 114 116 -209 -209 -209 -193 -209 -209 47 50 47 47 46 48 47 46 47 46 44 46 45 44 43 44 45 43 42 42 -193 20 12 10 11 12 13 12 14 14 11 16 22 27 28 34 36 37 37 35 38 38 38 39 39 21 20 19 20 23 -177 -209 -193 33 40 44 46 45 45 23 19 16 13 11 11 11 13 12 10 13 16 17 16 16 17 16 20 22 22 22 23 27 30 37 35 37 38 -193 -193 35 37 -193 38 39 38 38 38 39 41 41 41 42 42 44 45 45 45 46 46 45 47 47 46 48 47 49 48 47 48 50 50 52 49 52 50 53 54 55 52 54 53 52 51 55 56 53 54 53 53 52 53 52 52 51 54 46 56 58 56 56 56 58 58 57 57 57 57 59 61 59 57 0 0 0 0 0
    0 0 0 0 0 0 0 0 0 0 0 0 0 0 0 0 0 0 0 0 0 0 0 0 0 0 0 0 0 0 0 0 0 0 0 0 0 0 0 0 0 0 0 0 0 0 0 0 0 0 0 0 0 0 0 0 0 0 0 0 0 0 0 0 0 0 0 0 0 -193 -193 16 19 21 15 12 10 11 9 9 0 0 0 0 0 0 0 0 0 0 0 0 0 0 0 0 0 0 0 9 0 9 10 0 0 0 0 0 0 0 0 0 0 0 0 0 0 0 0 0 0 0 0 0 9 9 0 0 0 0 0 0 0 0 -193 -193 10 10 -193 -193 -209 -209 -209 -193 -193 116 114 -193 -193 -193 -209 -209 -209 -193 46 49 46 46 46 48 46 45 47 46 45 46 45 44 43 44 45 43 42 42 -193 15 11 9 10 12 14 13 16 17 12 16 21 25 26 30 33 36 37 35 39 39 40 41 42 -209 -193 17 20 22 -193 -209 -193 -209 40 44 48 47 46 24 20 -193 -193 11 11 11 12 11 10 12 16 17 16 16 17 15 21 22 22 22 23 28 32 37 36 38 39 -193 -209 -193 -193 724 39 41 40 39 39 40 41 42 42 42 42 43 44 45 44 46 45 45 46 46 45 48 47 48 47 47 48 50 50 52 49 52 49 53 54 55 51 53 53 53 53 56 56 54 55 54 53 53 53 53 52 51 54 47 57 59 57 57 57 59 58 58 58 58 58 60 61 59 58 0 0 0 0 0
    0 0 0 0 0 0 0 0 0 0 0 0 0 0 0 0 0 0 0 0 0 0 0 0 0 0 0 0 0 0 0 0 0 0 0 0 0 0 0 0 0 0 0 0 0 0 0 0 0 0 0 0 0 0 0 0 0 0 0 0 0 0 0 0 0 0 0 0 0 16 17 14 17 20 13 11 10 11 10 9 0 0 9 9 0 0 0 0 0 0 0 0 0 0 0 0 0 0 0 9 0 10 11 9 0 0 0 0 0 0 0 0 0 0 0 0 0 0 0 0 0 0 0 0 10 9 0 0 0 0 0 0 0 -193 -193 -193 10 11 -193 -193 -193 -193 -193 -193 -193 -193 -193 -193 -193 -177 -193 -209 -209 -193 45 48 46 46 46 48 46 45 47 46 45 46 45 44 43 44 45 43 43 -193 -193 14 11 8 11 14 16 14 18 22 12 16 21 25 25 27 30 33 -193 36 39 40 41 42 44 45 -209 -193 22 -193 -193 -209 -193 -193 42 46 51 51 50 -193 -193 -177 -193 -193 9 9 11 10 9 12 15 18 15 15 16 14 20 21 22 22 22 27 35 -193 38 -193 41 -209 -209 -193 -193 -193 40 42 41 41 40 41 42 43 42 42 42 43 44 45 44 46 45 45 46 46 44 48 46 47 47 47 48 51 50 52 48 52 50 53 54 55 50 53 53 53 54 56 56 54 55 54 54 54 54 53 53 52 54 50 57 59 58 58 58 60 59 59 59 59 58 61 61 60 58 0 0 0 0 0
    0 0 0 0 0 0 0 0 0 0 0 0 0 0 0 0 0 0 0 0 0 0 0 0 0 0 0 0 0 0 0 0 0 0 0 0 0 0 0 0 0 0 0 0 0 0 0 0 0 0 0 0 0 0 0 0 0 0 0 0 0 0 0 0 0 0 0 0 0 15 16 13 17 20 12 0 0 11 10 0 0 0 9 10 0 9 0 0 0 0 0 0 0 0 0 9 9 9 9 10 11 14 18 14 14 10 9 0 0 0 0 0 0 0 0 0 0 0 0 -193 0 0 0 0 10 9 0 0 0 0 0 -193 0 -193 -193 10 11 11 -193 -193 -193 116 -193 -193 -193 -193 -193 -193 -177 -177 -193 -193 -209 47 45 48 46 46 45 48 45 45 46 45 44 46 44 44 43 44 45 43 43 -193 -193 16 11 10 13 20 21 21 22 25 16 19 22 26 25 27 31 -193 -193 38 41 41 42 43 46 46 -209 -193 24 -209 -209 -209 -193 -193 45 49 53 53 53 -209 -209 -177 -177 -209 9 9 11 11 9 12 15 19 15 15 16 14 20 21 22 22 21 27 -209 -209 -209 -209 -193 -193 50 -209 41 43 42 43 42 43 41 42 43 44 42 42 42 43 44 45 45 45 44 45 46 45 44 47 46 47 46 47 47 51 50 52 48 52 49 52 54 55 49 52 52 54 54 56 56 55 54 54 54 54 53 53 52 52 54 51 58 60 59 60 60 61 60 59 60 60 59 61 61 59 59 0 0 0 0 0
    0 0 0 0 0 0 0 0 0 0 0 0 0 0 0 0 0 0 0 0 0 0 0 0 0 0 0 0 0 0 0 0 0 0 0 0 0 0 0 0 0 0 0 0 0 0 0 0 0 0 0 0 0 0 0 0 0 0 0 0 0 0 0 0 0 0 0 0 0 17 18 15 20 22 14 -193 0 12 12 9 11 9 12 13 11 12 0 -193 -193 0 9 0 0 0 0 11 10 12 12 13 18 22 25 25 26 24 25 13 0 0 0 0 0 0 0 0 0 0 0 -209 -193 0 0 0 10 10 -193 -193 -209 -209 -209 -209 -193 116 -193 -193 -193 -193 -193 -193 -193 116 -193 -193 -193 -193 -209 -209 -209 -193 -193 999 -193 -193 46 47 46 46 45 47 46 45 46 45 44 45 44 43 43 44 45 43 42 -193 22 22 13 12 17 24 25 25 26 31 22 22 23 28 26 27 31 37 -193 39 42 42 42 44 47 47 -209 -209 36 -193 -209 -193 -193 46 49 51 54 54 54 -209 -209 -177 -177 -193 10 10 11 11 9 13 16 19 15 15 16 15 20 22 23 22 -193 -209 -193 -209 75 77 -193 -209 -193 -209 44 46 44 44 44 46 43 44 45 47 -209 -193 42 44 44 44 45 44 44 45 46 45 43 47 46 47 46 47 47 51 51 51 48 52 49 52 53 54 49 52 53 54 55 57 57 55 55 54 54 53 53 52 52 52 53 51 57 61 60 60 61 61 61 60 61 61 59 62 61 60 59 0 0 0 0 0
    0 0 0 0 0 0 0 0 0 0 0 0 0 0 0 0 0 0 0 0 0 0 0 0 0 0 0 0 0 0 0 0 0 0 0 0 0 0 0 0 0 0 0 0 0 0 0 0 0 0 0 0 0 0 0 0 0 0 0 0 0 0 0 0 0 0 0 0 0 20 20 18 23 25 -193 26 22 21 23 24 23 25 23 24 26 25 -209 -193 -193 11 11 10 0 9 10 12 11 17 19 20 24 26 27 28 28 27 28 26 -193 -193 -193 0 0 -193 -193 -193 0 -193 -209 -209 -193 -193 -177 -177 -177 11 11 -193 -193 -193 -209 -193 -193 -193 -193 -193 -193 -193 -193 -209 339 -193 -193 335 336 335 -193 -193 -209 -209 997 -193 -193 -193 46 47 47 46 45 47 46 45 46 45 45 45 44 44 43 44 45 43 42 -193 24 25 -193 20 21 27 30 30 32 34 28 26 26 31 28 28 33 38 40 40 42 43 43 43 47 48 -209 -193 40 44 -193 47 51 49 52 53 54 55 55 -177 -193 -209 -193 273 -193 10 11 11 9 13 17 20 16 16 17 16 21 23 -193 -193 -177 -209 -177 -209 76 79 78 -193 74 -193 47 50 47 46 46 50 47 48 48 -209 -209 -209 -193 -193 -193 45 44 45 44 46 46 44 43 47 46 47 46 46 47 50 51 51 48 51 49 51 53 54 49 52 52 54 55 57 57 56 55 55 54 53 53 52 52 52 53 51 56 61 61 61 61 62 61 61 61 61 60 62 61 59 59 0 0 0 0 0
    0 0 0 0 0 0 0 0 0 0 0 0 0 0 0 0 0 0 0 0 0 0 0 0 0 0 0 0 0 0 0 0 0 0 0 0 0 0 0 0 0 0 0 0 0 0 0 0 0 0 0 0 0 0 0 0 0 0 0 0 0 0 0 0 0 0 0 0 0 21 22 20 25 27 -193 28 27 25 26 27 28 30 27 27 30 28 31 -193 -193 -193 21 20 11 12 12 14 15 25 25 26 27 29 29 31 31 30 31 30 28 28 26 -193 -193 30 33 -193 -209 -193 -209 -209 -209 -209 -209 -209 -177 -177 19 25 -177 -193 21 -209 -193 -193 -193 19 -193 -193 -209 341 339 338 336 334 335 335 332 333 331 -209 -193 -193 47 -193 46 46 47 46 45 46 45 44 45 45 45 45 45 44 43 44 46 44 42 39 30 30 36 29 25 30 35 35 36 36 35 27 28 33 30 29 34 -193 41 41 42 43 43 43 46 48 -193 43 42 47 -193 50 53 52 53 54 -193 -193 -193 -177 -193 -193 -177 -177 -209 11 12 12 9 13 18 21 17 17 17 16 21 23 -193 -193 -209 -177 -177 -209 77 79 79 76 75 78 48 51 50 49 49 54 -209 -193 -209 103 105 108 -193 -193 -209 -209 -193 44 43 45 45 44 42 47 46 47 46 46 47 50 51 51 48 51 49 51 53 54 50 52 52 55 55 57 57 56 55 55 54 53 52 52 52 52 52 50 56 61 61 61 62 62 61 61 62 62 60 61 61 59 58 0 0 0 0 0
    0 0 0 0 0 0 0 0 0 0 0 0 0 0 0 0 0 0 0 0 0 0 0 0 0 0 0 0 0 0 0 0 0 0 0 0 0 0 0 0 0 0 0 0 0 0 0 0 0 0 0 0 0 0 0 0 0 0 0 0 0 0 0 0 0 0 0 0 0 24 24 23 26 30 30 31 31 28 28 30 32 34 32 31 34 31 34 36 32 29 28 28 28 23 -193 20 22 26 28 29 28 31 31 34 33 32 33 33 31 33 30 -193 33 -193 38 37 -193 -193 -209 -209 -209 -193 -193 -193 -193 25 26 28 30 29 26 31 27 27 29 26 27 -193 27 -193 341 339 337 334 334 -177 -177 -177 -177 -177 -193 44 46 45 45 45 46 45 44 45 45 44 46 46 46 46 45 46 44 46 47 45 43 42 38 39 40 37 35 35 37 37 38 38 37 30 30 35 32 30 36 42 42 42 42 43 44 44 47 49 43 45 44 49 51 51 53 52 53 54 55 56 -193 -177 61 -193 -193 -177 -209 -193 -193 17 12 15 20 21 18 19 19 17 21 22 -209 -177 -193 -177 -177 76 78 80 80 78 76 81 -193 52 53 52 54 -209 -209 -209 90 100 102 105 114 -209 -209 -209 109 -193 -209 -193 -193 43 42 47 46 47 46 47 47 50 51 52 49 52 50 52 53 54 51 52 52 54 55 57 57 56 55 55 54 53 52 52 51 52 51 50 55 61 61 62 63 63 62 61 62 62 60 62 61 59 59 0 0 0 0 0
    0 0 0 0 0 0 0 0 0 0 0 0 0 0 0 0 0 0 0 0 0 0 0 0 0 0 0 0 0 0 0 0 0 0 0 0 0 0 0 0 0 0 0 0 0 0 0 0 0 0 0 0 0 0 0 0 0 0 0 0 0 0 0 0 0 0 0 0 0 26 26 26 28 34 34 34 35 32 32 34 36 37 35 35 36 34 36 37 35 33 32 33 33 30 32 28 27 30 32 33 32 34 33 35 35 35 35 34 34 35 33 36 37 39 40 40 -193 41 41 41 41 39 37 37 34 31 32 33 34 34 31 36 32 34 35 33 34 33 34 36 -193 -193 -193 -193 -193 -193 -193 -193 -177 -193 44 44 45 44 45 44 46 45 44 45 44 44 45 45 46 45 45 46 44 45 46 45 42 42 38 39 39 39 37 36 38 38 38 38 38 33 32 36 34 33 37 43 42 42 43 43 44 44 47 49 44 47 46 50 52 51 53 52 52 54 -193 -193 -193 -177 60 61 66 -193 -193 64 -193 63 -193 20 22 23 20 21 21 20 21 -193 -177 -177 -177 -177 -193 78 79 81 82 80 77 84 -193 -193 -209 -209 -209 82 90 88 89 95 96 102 108 -193 101 -193 -193 -193 -193 -209 -209 -209 41 46 46 47 46 47 48 50 51 51 49 52 50 52 53 54 51 51 51 54 54 56 56 56 54 54 54 53 52 52 52 52 51 51 55 61 62 62 63 62 62 62 62 62 60 62 61 59 59 0 0 0 0 0
    0 0 0 0 0 0 0 0 0 0 0 0 0 0 0 0 0 0 0 0 0 0 0 0 0 0 0 0 0 0 0 0 0 0 0 0 0 0 0 0 0 0 0 0 0 0 0 0 0 0 0 0 0 0 0 0 0 0 0 0 0 0 0 0 0 0 0 0 0 29 29 29 30 36 36 36 37 35 35 37 37 38 37 37 38 36 37 38 36 35 34 35 35 34 35 34 32 34 36 37 35 37 36 37 37 36 36 36 36 37 36 38 39 40 40 41 41 41 42 41 41 41 40 40 38 36 37 37 37 37 35 38 36 38 38 37 37 37 38 39 38 38 39 39 40 40 40 40 -209 41 44 43 44 44 45 44 45 44 44 44 44 44 44 45 46 45 45 46 44 45 45 45 43 42 39 40 40 40 39 38 39 39 40 39 39 37 36 38 37 36 38 44 43 44 44 43 44 45 48 50 45 48 47 50 51 51 53 51 51 53 -193 -193 -177 -177 -193 59 64 66 64 66 68 66 64 -209 -193 24 22 23 22 22 -193 -209 -193 -177 -193 -193 80 80 81 81 82 81 77 82 80 -193 -209 82 85 86 90 90 90 95 93 100 105 98 98 102 102 -193 -209 -209 -209 -193 41 46 46 47 46 46 48 49 50 51 49 51 50 51 53 53 51 51 51 53 53 55 55 55 54 54 54 53 52 52 52 53 52 51 54 61 62 63 64 62 62 62 62 63 60 62 60 59 59 0 0 0 0 0
    0 0 0 0 0 0 0 0 0 0 0 0 0 0 0 0 0 0 0 0 0 0 0 0 0 0 0 0 0 0 0 0 0 0 0 0 0 0 0 0 0 0 0 0 0 0 0 0 0 0 0 0 0 0 0 0 0 0 0 0 0 0 0 0 0 0 0 0 0 36 36 36 36 39 37 38 38 38 37 38 38 39 38 38 38 37 37 38 37 37 36 36 36 36 38 37 36 37 37 38 37 38 37 38 37 37 37 37 37 38 37 40 40 40 41 41 41 41 41 41 41 41 40 40 39 38 38 38 38 37 36 38 37 38 38 38 38 38 39 40 39 39 40 40 40 40 40 40 40 41 44 43 44 44 45 43 45 44 44 44 44 44 44 45 47 45 46 46 44 45 45 45 43 42 39 40 41 41 40 39 39 40 40 40 40 38 38 38 39 39 39 45 43 44 44 44 44 44 47 49 44 48 47 49 50 50 52 51 51 53 -193 -177 -177 -177 -177 -193 61 63 64 66 67 66 64 62 58 58 -193 29 -193 -209 -209 -209 -209 -193 -193 -193 81 80 81 81 81 81 76 82 83 -193 -209 89 90 89 91 92 93 96 93 98 103 97 96 101 100 101 -193 -177 -193 -177 -193 46 47 47 46 47 48 49 50 50 48 51 50 51 52 52 51 50 51 53 52 55 54 55 54 54 54 53 52 52 52 53 52 51 54 61 62 64 64 62 62 62 62 63 60 61 59 58 59 0 0 0 0 0
    0 0 0 0 0 0 0 0 0 0 0 0 0 0 0 0 0 0 0 0 0 0 0 0 0 0 0 0 0 0 0 0 0 0 0 0 0 0 0 0 0 0 0 0 0 0 0 0 0 0 0 0 0 0 0 0 0 0 0 0 0 0 0 0 0 0 0 0 0 38 39 38 38 39 38 39 39 39 39 38 39 39 38 39 39 37 38 38 38 38 38 38 38 38 39 39 38 38 38 38 37 39 38 38 38 38 37 37 37 38 38 40 40 41 41 41 42 42 42 42 41 41 40 40 39 38 38 38 38 36 36 38 37 39 39 38 39 39 39 40 -193 40 41 40 41 40 40 40 40 40 44 43 43 44 45 44 46 44 44 44 44 44 44 45 47 44 46 46 45 46 46 46 43 42 40 41 42 41 41 40 40 40 41 40 40 39 39 39 40 40 40 46 44 45 44 44 45 44 47 49 44 47 47 48 49 49 52 50 50 53 -193 -177 -177 -177 -177 55 59 61 62 63 65 66 64 64 62 62 59 -193 51 -209 -209 -193 81 86 81 80 82 81 81 80 81 81 -193 -193 -193 51 54 -209 -209 -209 91 90 90 93 93 95 99 97 95 100 100 100 -193 -177 -193 -193 -193 46 -193 47 46 46 48 49 50 50 49 51 50 51 52 51 50 50 51 52 51 54 53 55 54 54 53 52 52 52 52 52 51 50 55 61 62 63 64 62 62 62 62 62 60 60 59 57 58 0 0 0 0 0
    0 0 0 0 0 0 0 0 0 0 0 0 0 0 0 0 0 0 0 0 0 0 0 0 0 0 0 0 0 0 0 0 0 0 0 0 0 0 0 0 0 0 0 0 0 0 0 0 0 0 0 0 0 0 0 0 0 0 0 0 0 0 0 0 0 0 0 0 0 39 40 39 39 41 39 39 40 39 39 39 39 39 39 39 39 37 38 39 39 39 39 39 39 39 40 40 39 39 39 39 38 39 39 39 39 39 38 38 37 39 38 40 40 40 41 41 42 42 42 42 42 42 41 40 39 39 39 39 38 37 37 39 38 39 39 39 39 40 40 41 -209 40 41 41 41 41 40 40 40 40 44 43 43 44 45 43 46 44 44 43 44 44 44 46 47 45 47 47 46 46 47 46 43 43 41 41 42 42 41 40 40 40 41 41 40 39 39 39 41 41 41 47 45 45 45 44 45 44 46 49 44 47 48 48 49 49 52 51 50 52 -193 -193 -177 -177 -177 54 57 60 61 61 63 66 65 65 64 64 62 58 59 67 75 80 82 87 81 81 83 82 82 80 81 81 -193 -193 -209 47 50 53 54 -193 -209 76 86 -193 92 94 100 99 96 100 100 100 101 -193 -193 -193 -193 -209 -209 -209 -193 -193 -193 -193 51 51 50 52 50 52 53 52 51 51 51 52 51 54 53 54 54 54 53 52 52 52 52 52 51 50 55 61 62 63 63 62 62 62 61 62 60 60 59 58 57 0 0 0 0 0
    0 0 0 0 0 0 0 0 0 0 0 0 0 0 0 0 0 0 0 0 0 0 0 0 0 0 0 0 0 0 0 0 0 0 0 0 0 0 0 0 0 0 0 0 0 0 0 0 0 0 0 0 0 0 0 0 0 0 0 0 0 0 0 0 0 0 0 0 0 40 41 40 40 41 40 39 40 39 39 39 39 39 39 39 40 38 39 39 39 40 40 40 40 40 41 41 41 40 40 40 39 40 40 40 40 40 39 39 38 39 38 39 39 40 41 41 42 42 42 42 42 42 42 41 40 39 40 40 39 38 38 40 39 40 40 39 40 40 40 -193 -193 41 42 41 42 41 41 41 41 40 44 43 43 43 44 43 45 44 44 43 43 43 44 46 47 45 47 48 46 46 47 46 43 43 42 42 42 42 41 40 40 40 41 40 40 39 39 39 41 41 42 48 45 45 45 44 45 44 45 50 44 47 48 48 48 49 52 51 50 53 -193 -193 -177 -177 -193 54 58 60 62 62 64 67 66 66 64 65 63 59 63 69 75 78 83 87 82 82 83 83 83 80 81 81 -177 -177 -209 43 45 48 50 51 53 -193 -209 -193 96 97 102 101 98 -193 100 99 100 -193 -193 -193 -193 -209 -209 -177 -193 -193 -209 -209 -209 -193 -193 53 52 52 53 52 51 51 50 52 50 53 53 54 54 54 53 53 53 52 52 53 52 51 55 61 62 63 62 62 61 61 61 61 60 60 59 57 57 0 0 0 0 0
    0 0 0 0 0 0 0 0 0 0 0 0 0 0 0 0 0 0 0 0 0 0 0 0 0 0 0 0 0 0 0 0 0 0 0 0 0 0 0 0 0 0 0 0 0 0 0 0 0 0 0 0 0 0 0 0 0 0 0 0 0 0 0 0 0 0 0 0 0 40 41 40 40 41 40 40 40 40 40 39 40 40 39 40 40 39 39 39 40 40 41 41 41 41 42 41 41 41 41 40 40 41 41 40 40 40 39 39 38 39 38 39 40 40 41 41 42 42 42 42 43 42 42 42 41 40 41 41 40 39 39 41 40 41 41 40 40 40 40 40 41 41 42 42 42 42 41 41 42 41 45 43 44 43 44 42 44 43 43 42 43 43 44 47 47 45 47 48 46 47 47 46 43 44 42 43 42 43 41 40 40 40 41 41 40 40 39 39 42 42 42 48 45 45 45 44 46 44 45 49 44 47 48 47 48 49 52 51 50 53 52 52 54 -193 -193 52 56 58 62 62 64 67 66 66 65 65 63 59 64 69 74 77 81 87 82 82 83 82 83 80 81 81 -177 -177 -193 42 44 46 47 49 50 53 52 54 -193 -177 -177 101 98 -193 99 99 100 99 -193 -193 -209 -209 -209 -209 -209 -209 -209 119 -193 -193 -193 -193 54 54 54 53 52 51 52 52 52 54 54 55 54 54 54 53 53 53 53 53 52 51 56 61 61 62 62 61 61 61 61 61 60 60 59 57 57 0 0 0 0 0
    0 0 0 0 0 0 0 0 0 0 0 0 0 0 0 0 0 0 0 0 0 0 0 0 0 0 0 0 0 0 0 0 0 0 0 0 0 0 0 0 0 0 0 0 0 0 0 0 0 0 0 0 0 0 0 0 0 0 0 0 0 0 0 0 0 0 0 0 0 41 42 41 41 42 41 41 41 41 41 40 41 41 40 41 41 40 41 41 41 41 42 42 42 41 42 42 42 42 41 41 40 42 41 41 41 40 39 39 38 39 38 40 40 40 41 42 42 42 42 43 43 43 43 42 42 41 42 42 41 41 41 42 41 41 41 41 40 41 41 41 42 42 42 42 42 42 42 42 43 41 46 44 44 43 43 42 44 43 43 42 42 42 43 47 47 45 47 48 47 47 48 47 43 44 43 44 43 43 42 41 41 41 41 41 41 40 39 40 41 42 42 48 45 45 45 44 46 45 45 50 44 47 48 47 48 48 52 51 50 53 52 52 54 55 56 51 55 57 62 62 64 66 65 65 64 65 63 58 62 68 71 75 78 87 81 81 83 82 83 80 81 81 -193 -193 40 42 44 46 47 48 48 52 52 54 -193 -177 -177 102 -193 -193 99 99 99 99 98 99 -193 103 -209 -209 -193 117 115 116 117 119 122 -193 -193 -193 56 55 53 52 53 53 53 55 54 55 55 55 54 53 53 53 53 53 53 52 56 60 61 62 62 61 61 61 61 61 60 60 60 58 58 0 0 0 0 0
    0 0 0 0 0 0 0 0 0 0 0 0 0 0 0 0 0 0 0 0 0 0 0 0 0 0 0 0 0 0 0 0 0 0 0 0 0 0 0 0 0 0 0 0 0 0 0 0 0 0 0 0 0 0 0 0 0 0 0 0 0 0 0 0 0 0 0 0 0 42 43 42 41 42 42 41 42 42 42 41 42 42 41 42 42 41 42 42 42 43 43 43 42 41 42 41 42 42 42 42 41 42 42 42 42 42 40 40 38 39 38 40 39 40 40 42 42 42 43 44 44 44 43 43 42 42 43 43 42 42 42 43 42 43 42 42 42 43 42 42 45 43 43 43 43 43 42 43 44 41 47 44 45 43 43 42 44 43 43 41 41 41 43 47 47 45 47 48 47 48 48 47 43 44 43 44 44 43 42 41 41 41 41 41 41 40 40 41 41 42 43 47 46 46 45 45 46 45 45 50 44 46 47 47 48 49 52 52 -193 54 53 53 54 55 56 51 54 56 63 62 64 67 65 65 64 65 64 58 61 66 63 74 76 87 81 81 83 82 83 80 81 80 -193 -193 41 42 43 45 45 45 45 51 51 53 -209 -177 -177 103 -193 -193 98 98 99 98 98 99 96 103 -193 107 110 112 110 113 113 114 119 117 124 -209 110 -193 55 55 55 55 54 56 55 55 55 55 55 54 54 53 53 54 54 53 57 60 61 62 61 61 61 61 61 60 60 60 60 59 59 0 0 0 0 0
    0 0 0 0 0 0 0 0 0 0 0 0 0 0 0 0 0 0 0 0 0 0 0 0 0 0 0 0 0 0 0 0 0 0 0 0 0 0 0 0 0 0 0 0 0 0 0 0 0 0 0 0 0 0 0 0 0 0 0 0 0 0 0 0 0 0 0 0 0 42 43 42 42 42 42 41 42 42 43 42 42 42 42 43 44 43 44 43 44 44 44 43 43 42 43 42 42 42 42 43 42 43 43 43 42 42 41 40 39 39 38 40 39 40 40 41 42 42 43 44 44 44 43 43 42 42 43 43 42 43 43 43 43 44 43 43 43 44 42 43 46 44 44 44 44 44 43 43 44 41 47 44 44 42 43 42 43 42 43 41 41 41 43 47 46 45 47 48 47 49 49 47 43 45 44 44 45 44 43 42 42 42 42 42 42 41 41 41 41 43 43 47 46 47 46 46 47 45 45 50 45 46 47 48 48 49 53 52 -193 -193 -193 54 55 56 57 52 55 56 64 62 64 67 66 66 64 66 65 58 61 66 62 -193 75 87 -193 -193 83 82 82 80 80 80 73 75 41 42 42 44 44 44 44 49 50 -193 -193 -209 -193 -209 -193 -193 98 98 99 97 97 99 96 103 105 106 107 107 107 110 109 108 113 109 114 109 110 111 108 111 -193 -209 -209 65 64 56 56 56 55 55 55 54 54 54 54 54 59 60 61 61 61 61 61 61 60 60 60 60 60 59 58 0 0 0 0 0
    0 0 0 0 0 0 0 0 0 0 0 0 0 0 0 0 0 0 0 0 0 0 0 0 0 0 0 0 0 0 0 0 0 0 0 0 0 0 0 0 0 0 0 0 0 0 0 0 0 0 0 0 0 0 0 0 0 0 0 0 0 0 0 0 0 0 0 0 0 43 44 42 42 42 42 41 42 43 43 42 43 43 44 44 45 44 45 44 44 45 44 44 44 42 43 42 42 42 43 43 42 43 43 43 43 43 42 41 40 40 39 40 39 40 40 41 41 41 43 44 44 44 43 43 43 43 43 44 43 44 43 44 44 44 44 43 43 44 42 43 46 44 45 45 45 44 43 44 45 42 47 45 45 42 42 42 43 42 43 41 41 41 43 48 47 45 47 48 48 49 49 47 43 45 44 45 45 44 43 43 42 42 42 42 42 41 41 41 41 43 44 48 47 48 48 47 50 46 45 51 45 47 47 49 48 50 54 54 -177 -193 -193 -193 -193 58 58 54 55 56 63 61 63 65 65 64 63 65 64 58 61 65 60 72 -193 -193 -193 -177 -193 -193 -193 -193 -193 79 69 68 43 44 43 45 44 44 43 49 50 -193 222 -209 -193 -209 -193 -193 99 98 99 96 97 99 97 104 105 105 107 106 107 109 108 106 108 106 110 109 110 110 107 111 112 110 108 108 -209 -209 -209 56 55 56 56 55 55 55 54 55 61 61 62 61 60 61 61 61 60 60 60 59 60 60 58 0 0 0 0 0
    0 0 0 0 0 0 0 0 0 0 0 0 0 0 0 0 0 0 0 0 0 0 0 0 0 0 0 0 0 0 0 0 0 0 0 0 0 0 0 0 0 0 0 0 0 0 0 0 0 0 0 0 0 0 0 0 0 0 0 0 0 0 0 0 0 0 0 0 0 44 45 43 44 43 43 42 43 43 44 43 45 44 46 45 46 45 47 45 45 45 45 44 44 43 43 42 43 43 44 44 43 44 44 44 44 44 43 42 40 41 40 40 41 41 41 42 42 43 45 45 45 44 44 44 43 43 44 44 43 45 44 44 44 44 44 44 43 44 43 44 46 45 45 45 45 45 44 44 45 43 47 45 45 42 42 42 43 42 42 41 41 41 44 48 47 46 47 49 48 49 50 47 44 46 45 45 45 44 43 43 43 43 43 43 42 41 41 42 42 44 45 49 48 49 50 50 51 47 46 51 45 47 48 49 48 51 55 55 -177 58 -193 -193 58 59 59 56 56 56 63 61 63 65 65 64 63 65 64 58 61 65 61 71 -193 -177 -177 -177 -177 -193 -193 -193 -193 78 67 65 46 46 44 47 46 45 44 50 53 -209 -209 -209 -193 -209 -193 -193 99 98 99 97 98 100 99 105 106 105 107 106 107 110 108 105 106 105 108 108 109 109 107 110 112 112 111 111 118 121 121 120 -209 -209 57 56 55 55 55 56 64 62 63 61 60 61 61 61 61 60 60 59 61 60 58 0 0 0 0 0
    0 0 0 0 0 0 0 0 0 0 0 0 0 0 0 0 0 0 0 0 0 0 0 0 0 0 0 0 0 0 0 0 0 0 0 0 0 0 0 0 0 0 0 0 0 0 0 0 0 0 0 0 0 0 0 0 0 0 0 0 0 0 0 0 0 0 0 0 0 46 46 44 45 44 45 43 45 44 44 45 46 46 49 48 48 48 50 48 48 48 47 45 45 44 45 43 44 45 45 46 45 45 46 46 45 45 44 43 42 42 42 41 42 43 42 43 44 44 46 46 46 46 45 45 44 45 46 46 45 47 44 45 45 45 44 44 44 45 43 45 47 46 46 46 47 46 45 46 47 45 47 46 46 43 43 43 43 42 42 41 41 40 44 49 47 46 47 49 48 50 50 48 45 47 46 47 46 46 45 45 45 45 44 45 43 43 42 43 43 46 46 49 49 51 52 53 53 50 47 52 47 48 48 50 49 51 55 56 -193 58 58 58 58 59 59 57 57 57 64 62 64 65 65 65 63 65 65 58 61 66 65 72 -193 -177 -177 -177 -177 -193 -177 -193 -193 -193 67 65 47 46 45 47 46 46 45 51 -209 -209 -209 -209 101 103 -193 -193 99 98 99 96 98 100 100 105 106 105 106 106 107 109 107 104 104 102 107 108 108 107 106 108 110 112 113 111 116 120 121 122 123 126 125 125 -209 -193 56 57 67 63 65 61 61 62 61 61 61 60 61 59 61 61 59 0 0 0 0 0
    0 0 0 0 0 0 0 0 0 0 0 0 0 0 0 0 0 0 0 0 0 0 0 0 0 0 0 0 0 0 0 0 0 0 0 0 0 0 0 0 0 0 0 0 0 0 0 0 0 0 0 0 0 0 0 0 0 0 0 0 0 0 0 0 0 0 0 0 0 47 47 45 47 46 46 44 47 44 44 46 48 47 52 51 50 50 51 51 51 50 50 47 47 47 48 46 47 50 49 50 48 49 49 50 48 49 46 46 45 44 45 44 45 46 46 47 48 47 50 49 48 48 46 47 46 48 49 49 47 51 46 47 46 46 45 44 44 45 44 46 48 48 47 47 48 47 47 47 48 47 49 47 48 45 44 44 44 43 43 41 41 40 44 49 47 46 48 49 49 50 51 49 47 50 50 48 47 47 46 47 48 47 47 47 45 44 44 45 44 48 48 50 51 54 55 56 56 54 51 54 49 50 49 51 50 52 55 56 56 58 58 58 58 59 59 57 57 57 65 62 64 65 65 65 63 65 65 58 60 66 67 -193 -193 -177 -177 -177 -193 -193 -193 -193 79 78 68 66 49 48 47 48 47 46 45 51 -209 -209 -209 99 99 103 97 97 99 97 98 96 98 100 -193 106 107 105 107 106 107 109 107 103 102 99 106 107 108 106 105 108 109 112 113 112 116 120 121 122 122 126 125 125 126 123 124 -193 -193 -193 67 62 62 62 62 61 61 60 61 59 61 61 59 0 0 0 0 0
    0 0 0 0 0 0 0 0 0 0 0 0 0 0 0 0 0 0 0 0 0 0 0 0 0 0 0 0 0 0 0 0 0 0 0 0 0 0 0 0 0 0 0 0 0 0 0 0 0 0 0 0 0 0 0 0 0 0 0 0 0 0 0 0 0 0 0 0 0 49 49 48 50 49 49 46 50 46 45 48 50 49 53 52 52 52 53 52 52 52 52 49 50 51 52 50 51 54 52 52 51 52 52 52 51 51 48 50 48 48 49 46 48 50 50 51 50 50 51 50 50 50 47 48 47 50 51 51 50 52 48 49 48 47 46 45 45 46 45 48 49 50 49 49 49 49 49 49 50 49 50 49 50 47 45 45 45 45 44 43 43 42 45 50 48 47 48 49 50 51 52 51 50 52 52 50 50 49 48 50 50 49 50 49 47 47 46 47 45 50 50 51 53 55 56 57 56 55 53 54 51 51 51 52 51 52 55 56 56 58 58 58 58 59 59 58 58 58 65 62 64 65 65 65 63 65 65 57 59 64 67 -193 -193 -177 -177 -177 -193 -193 -193 -193 78 77 68 68 57 57 56 56 52 51 48 54 -193 -177 -193 95 95 102 96 96 99 97 -193 96 99 101 -193 106 -193 -209 107 106 107 109 107 102 101 95 106 107 108 106 106 108 109 112 113 112 116 119 120 122 122 124 124 124 127 124 125 127 125 -193 68 64 63 63 63 62 62 61 61 59 60 60 58 0 0 0 0 0
    0 0 0 0 0 0 0 0 0 0 0 0 0 0 0 0 0 0 0 0 0 0 0 0 0 0 0 0 0 0 0 0 0 0 0 0 0 0 0 0 0 0 0 0 0 0 0 0 0 0 0 0 0 0 0 0 0 0 0 0 0 0 0 0 0 0 0 0 0 51 51 49 51 51 51 47 51 48 47 51 52 51 54 53 53 53 54 54 54 53 53 51 52 53 54 53 53 55 53 54 53 53 53 53 52 52 49 51 49 49 51 46 49 51 51 52 51 52 52 51 52 51 48 49 49 52 52 52 52 53 50 51 50 49 47 47 48 48 48 51 51 51 51 51 51 50 51 51 52 51 51 51 51 50 48 48 47 47 46 45 45 44 46 50 49 47 49 49 50 52 52 51 52 53 54 51 51 51 50 52 51 51 51 50 49 48 47 48 46 51 51 52 53 55 56 56 56 56 54 55 53 52 52 53 52 53 55 56 56 58 58 58 58 59 59 59 59 59 66 62 65 65 65 65 63 65 65 58 59 63 69 -193 -193 -193 -177 -177 81 80 -193 78 78 77 69 68 61 59 59 59 56 55 53 -193 -193 -193 -193 93 92 101 95 96 98 97 -193 96 99 101 -193 106 -193 -209 107 -193 -193 -193 107 98 96 91 105 106 107 105 105 107 110 112 112 111 116 118 119 121 121 123 123 123 126 123 127 130 129 133 132 138 -193 65 64 63 62 61 62 59 60 59 57 0 0 0 0 0
    0 0 0 0 0 0 0 0 0 0 0 0 0 0 0 0 0 0 0 0 0 0 0 0 0 0 0 0 0 0 0 0 0 0 0 0 0 0 0 0 0 0 0 0 0 0 0 0 0 0 0 0 0 0 0 0 0 0 0 0 0 0 0 0 0 0 0 0 0 52 52 51 52 52 52 50 52 50 51 53 55 54 56 55 55 54 55 55 55 55 55 53 55 57 57 57 55 57 55 55 54 54 54 54 54 53 51 52 51 51 52 49 51 53 53 54 53 53 53 52 53 53 50 51 51 54 53 53 53 53 51 52 51 50 49 49 50 50 51 53 53 53 52 52 52 52 53 52 52 52 52 52 52 52 50 50 50 50 48 48 47 47 47 50 50 48 50 50 52 53 54 53 54 55 55 54 54 53 53 54 53 52 53 52 51 50 49 50 47 53 53 53 54 55 56 56 56 56 55 55 53 53 53 54 53 53 55 56 57 58 58 58 58 59 59 60 60 60 66 62 65 65 65 65 63 65 65 58 61 64 71 73 -193 -193 -193 -193 81 80 80 78 78 77 68 67 61 59 59 59 57 56 55 59 -193 -193 -193 92 92 101 95 96 98 97 98 96 99 101 -193 106 108 -209 107 -193 -193 -193 -193 97 95 88 -193 -193 107 105 104 107 111 113 113 114 117 119 120 122 122 123 123 124 127 124 128 130 129 134 132 136 136 140 -193 -193 63 62 63 59 60 60 58 0 0 0 0 0
    0 0 0 0 0 0 0 0 0 0 0 0 0 0 0 0 0 0 0 0 0 0 0 0 0 0 0 0 0 0 0 0 0 0 0 0 0 0 0 0 0 0 0 0 0 0 0 0 0 0 0 0 0 0 0 0 0 0 0 0 0 0 0 0 0 0 0 0 0 55 55 53 54 54 54 52 54 51 53 55 56 55 57 56 55 55 56 56 56 56 56 55 57 59 59 59 58 59 57 57 56 56 55 55 55 54 53 54 53 53 54 52 53 54 54 55 54 54 54 53 54 54 52 54 54 56 55 55 55 55 54 54 53 52 51 51 52 51 53 54 54 54 53 53 53 53 54 53 54 54 53 54 54 54 53 53 53 53 52 53 52 53 51 51 52 51 52 53 55 55 56 56 57 57 57 57 57 56 55 55 55 54 54 54 53 52 51 52 50 53 54 54 55 55 56 57 57 57 57 56 56 55 56 55 54 54 56 57 57 58 58 58 58 58 59 60 60 60 66 62 65 65 65 65 63 65 65 59 64 65 73 74 76 86 -193 80 81 81 80 78 78 77 67 65 59 59 59 59 57 58 58 61 72 83 93 91 90 100 95 96 98 97 98 97 99 101 -193 106 108 -209 107 106 108 110 -193 97 -193 78 -209 -209 -193 95 101 106 109 111 110 112 118 120 122 124 123 125 125 126 129 126 129 131 129 134 131 135 137 140 145 148 -193 -193 64 60 61 60 59 0 0 0 0 0
    0 0 0 0 0 0 0 0 0 0 0 0 0 0 0 0 0 0 0 0 0 0 0 0 0 0 0 0 0 0 0 0 0 0 0 0 0 0 0 0 0 0 0 0 0 0 0 0 0 0 0 0 0 0 0 0 0 0 0 0 0 0 0 0 0 0 0 0 0 57 56 56 55 55 55 53 54 52 54 55 56 55 57 56 56 56 56 56 -193 56 57 57 58 60 60 60 59 61 59 59 58 58 57 57 56 56 55 56 55 55 56 54 54 56 56 56 55 55 55 54 55 55 53 55 56 58 57 57 57 57 56 56 55 54 53 54 54 53 55 55 55 55 55 55 55 55 56 55 56 56 55 56 55 56 56 56 56 56 55 56 55 57 54 54 55 54 55 55 57 57 58 58 59 58 59 59 59 58 57 57 57 56 56 56 54 53 52 54 53 54 54 54 55 55 56 57 58 58 57 57 57 57 58 57 57 55 56 57 57 58 58 58 58 58 59 61 60 60 67 63 65 65 65 65 63 65 65 59 66 67 75 77 78 86 80 81 82 81 81 78 78 78 69 65 59 59 59 60 57 59 60 65 73 82 89 89 89 99 94 95 98 97 98 97 100 102 -193 107 109 -209 108 -193 109 111 108 -209 -193 71 -209 -209 -209 90 93 100 106 109 107 109 116 121 123 127 125 126 126 127 130 127 130 130 128 133 129 133 135 138 142 147 147 150 150 149 -193 -209 -209 0 0 0 0 0
    0 0 0 0 0 0 0 0 0 0 0 0 0 0 0 0 0 0 0 0 0 0 0 0 0 0 0 0 0 0 0 0 0 0 0 0 0 0 0 0 0 0 0 0 0 0 0 0 0 0 0 0 0 0 0 0 0 0 0 0 0 0 0 0 0 0 0 0 0 58 57 56 55 56 55 54 55 53 55 56 57 56 57 57 57 57 57 57 57 57 58 58 59 61 61 60 60 61 59 59 58 58 57 57 57 57 56 57 57 57 58 56 56 57 57 57 56 55 55 54 55 56 54 56 56 59 58 58 58 58 58 58 57 56 55 56 56 56 57 56 56 56 56 57 56 57 57 57 57 58 58 58 57 58 57 57 57 57 57 56 56 57 56 55 56 56 56 57 59 58 59 59 60 59 60 60 60 59 59 58 58 58 58 57 56 55 55 56 55 55 55 55 55 55 56 57 58 58 58 58 58 58 59 59 59 56 57 57 58 59 59 59 59 60 61 66 63 64 69 64 66 65 65 65 63 66 66 60 68 68 78 80 81 86 81 81 82 82 81 79 79 79 73 72 66 63 64 64 61 64 67 70 74 82 88 89 89 99 94 96 98 97 98 98 100 102 -209 107 110 -209 -193 -193 109 111 108 101 -193 72 76 84 -209 88 88 86 -209 -209 -209 -209 -209 120 124 129 127 129 128 130 131 128 132 132 130 132 129 132 134 136 138 141 141 146 144 144 148 140 142 0 0 0 0 0
    0 0 0 0 0 0 0 0 0 0 0 0 0 0 0 0 0 0 0 0 0 0 0 0 0 0 0 0 0 0 0 0 0 0 0 0 0 0 0 0 0 0 0 0 0 0 0 0 0 0 0 0 0 0 0 0 0 0 0 0 0 0 0 0 0 0 0 0 0 58 57 -193 55 57 -193 55 56 54 56 57 58 57 58 58 58 58 59 58 58 58 59 59 59 61 60 60 59 61 59 59 58 57 57 56 56 56 56 57 58 58 59 58 57 59 58 59 57 57 57 56 57 57 56 58 58 60 59 59 59 58 58 59 58 57 57 58 58 57 59 57 57 58 57 58 57 58 59 58 59 60 59 59 58 60 58 58 57 57 57 56 56 57 55 56 56 56 57 58 60 59 60 60 61 60 61 62 62 61 61 60 60 60 60 59 57 57 57 57 57 56 56 55 56 56 57 57 59 59 59 59 59 59 59 60 60 57 58 58 58 59 61 62 62 64 66 70 67 67 70 65 66 65 64 65 63 66 67 61 69 70 80 81 82 86 81 81 82 82 82 80 80 80 74 76 73 70 70 70 69 73 73 72 76 83 88 89 89 98 94 95 98 97 98 98 101 103 -193 107 110 -209 109 -193 109 111 107 100 -193 73 75 79 81 81 77 74 -193 -209 -193 -177 -177 -209 124 130 128 130 129 131 132 131 132 132 130 133 129 132 133 134 136 138 139 141 142 143 144 140 143 0 0 0 0 0
    0 0 0 0 0 0 0 0 0 0 0 0 0 0 0 0 0 0 0 0 0 0 0 0 0 0 0 0 0 0 0 0 0 0 0 0 0 0 0 0 0 0 0 0 0 0 0 0 0 0 0 0 0 0 0 0 0 0 0 0 0 0 0 0 0 0 0 0 0 59 58 -193 -193 -193 -209 -193 58 56 58 59 60 59 60 60 59 59 60 59 59 58 59 59 60 61 60 59 60 61 60 60 58 58 57 56 57 56 56 57 58 59 60 58 58 60 59 60 59 58 58 57 58 59 57 60 59 61 60 60 59 59 59 59 58 58 58 59 59 59 61 59 58 59 58 59 58 59 59 59 59 60 60 60 59 61 58 58 58 58 57 56 56 57 56 57 57 57 57 59 62 60 61 61 62 62 63 65 64 64 65 62 62 62 61 60 58 58 57 58 57 57 57 56 57 57 57 57 60 59 60 59 59 59 59 60 61 58 60 59 60 61 65 67 69 71 72 73 70 70 71 66 67 65 64 65 63 66 68 62 71 71 81 82 84 86 82 82 82 83 82 80 81 80 75 77 74 74 73 73 74 75 75 75 78 84 88 89 89 97 94 95 98 97 98 98 101 103 -193 107 110 -193 109 109 109 111 107 101 87 77 77 79 79 78 76 73 72 -209 -193 -193 -209 -209 -209 126 126 129 127 129 132 130 132 133 132 133 131 133 134 135 137 139 139 141 142 143 143 142 144 0 0 0 0 0
    0 0 0 0 0 0 0 0 0 0 0 0 0 0 0 0 0 0 0 0 0 0 0 0 0 0 0 0 0 0 0 0 0 0 0 0 0 0 0 0 0 0 0 0 0 0 0 0 0 0 0 0 0 0 0 0 0 0 0 0 0 0 0 0 0 0 0 0 0 65 -193 -193 -209 -193 -193 75 76 -193 75 67 66 64 62 61 61 61 62 60 60 59 61 61 61 62 61 60 61 63 62 62 60 59 58 57 58 57 57 58 59 60 61 60 60 61 60 61 60 59 59 58 61 64 59 65 62 63 61 61 60 59 60 60 59 59 60 63 63 64 67 -193 61 61 60 60 59 60 60 59 60 62 62 62 62 64 59 60 61 60 59 58 58 59 58 59 59 59 59 61 65 62 63 63 65 64 66 68 68 67 69 67 68 67 65 63 59 60 58 59 58 57 57 56 57 56 57 57 60 59 60 59 60 59 60 61 62 58 62 61 62 64 69 71 73 73 74 75 73 73 74 68 68 66 66 66 64 67 69 65 73 73 81 83 84 86 83 82 82 83 82 80 81 80 75 77 75 76 75 75 76 77 78 77 80 84 88 89 90 97 94 96 98 97 98 97 101 103 -193 107 111 -193 109 110 109 111 107 102 92 82 80 82 82 80 78 75 74 72 -193 -193 -193 -193 -209 -209 -209 -193 123 124 128 127 130 131 131 133 131 133 134 135 137 138 138 140 141 143 142 142 144 0 0 0 0 0
    0 0 0 0 0 0 0 0 0 0 0 0 0 0 0 0 0 0 0 0 0 0 0 0 0 0 0 0 0 0 0 0 0 0 0 0 0 0 0 0 0 0 0 0 0 0 0 0 0 0 0 0 0 0 0 0 0 0 0 0 0 0 0 0 0 0 0 0 0 71 72 74 -209 76 78 78 79 76 80 73 70 68 65 64 63 62 64 61 62 60 63 64 63 64 63 63 66 68 68 69 66 66 62 70 68 61 60 59 60 61 64 62 62 64 62 65 66 64 70 71 73 73 70 72 69 66 65 64 62 61 62 62 61 62 64 68 70 71 73 -209 -193 69 67 64 60 63 62 61 62 66 66 66 68 70 63 66 68 67 65 63 65 66 62 67 65 62 65 66 69 65 66 66 68 -193 69 70 70 70 72 71 73 71 70 69 63 64 60 61 59 58 57 56 58 57 58 58 62 61 62 61 62 61 62 63 66 60 67 63 65 67 71 74 75 74 75 77 76 75 76 71 70 68 67 67 66 68 70 68 74 75 82 84 84 86 83 83 82 83 83 80 81 81 76 81 78 82 79 79 81 81 81 80 82 85 89 90 91 98 95 96 99 98 99 98 101 103 -193 108 111 108 110 110 110 111 108 104 98 84 82 82 83 82 80 78 78 74 74 75 76 -193 -193 -193 -209 -209 -209 126 127 127 131 132 132 134 132 134 135 136 137 138 138 139 140 142 143 141 143 0 0 0 0 0
    0 0 0 0 0 0 0 0 0 0 0 0 0 0 0 0 0 0 0 0 0 0 0 0 0 0 0 0 0 0 0 0 0 0 0 0 0 0 0 0 0 0 0 0 0 0 0 0 0 0 0 0 0 0 0 0 0 0 0 0 0 0 0 0 0 0 0 0 0 74 74 76 74 77 80 79 80 77 80 75 72 70 68 66 66 63 66 62 65 62 67 69 67 67 67 67 70 71 72 -193 -193 -193 -193 74 75 74 71 70 62 62 65 65 65 66 65 68 71 -193 74 75 76 76 75 75 73 70 69 67 67 64 66 65 66 68 69 71 74 74 75 -193 -193 74 73 -193 -193 68 66 64 67 71 70 70 73 73 69 71 73 72 -193 70 72 72 69 73 73 67 70 70 -193 68 69 69 -193 -193 71 72 72 72 74 73 75 74 73 73 70 69 66 66 63 60 60 58 60 61 61 61 66 64 66 65 66 65 65 67 69 65 72 67 69 69 72 76 76 76 76 78 77 77 79 74 72 70 69 69 67 69 71 70 75 77 84 85 85 86 84 83 83 83 83 81 82 82 78 84 82 85 83 83 84 83 83 82 83 86 89 91 91 98 95 97 99 98 99 98 102 104 -193 108 112 109 110 110 110 112 108 105 -193 85 82 83 84 83 82 81 83 77 80 79 80 77 -193 74 -193 -209 -193 127 129 130 130 126 125 131 128 133 134 135 136 138 139 139 140 142 143 143 145 0 0 0 0 0
    0 0 0 0 0 0 0 0 0 0 0 0 0 0 0 0 0 0 0 0 0 0 0 0 0 0 0 0 0 0 0 0 0 0 0 0 0 0 0 0 0 0 0 0 0 0 0 0 0 0 0 0 0 0 0 0 0 0 0 0 0 0 0 0 0 0 0 0 0 76 76 78 75 79 81 80 80 79 80 77 74 74 71 69 68 65 68 63 69 66 69 71 70 69 69 69 72 73 74 75 74 75 75 76 78 76 75 74 69 66 67 66 67 67 67 70 73 74 76 77 78 79 77 78 75 72 72 70 69 67 68 68 68 71 71 72 75 75 77 77 76 76 75 74 73 72 70 68 70 73 72 72 74 75 72 73 76 74 -193 73 74 74 73 74 74 69 -193 -209 -209 -193 -193 -193 -209 -193 72 73 73 73 75 75 76 76 75 75 73 70 69 68 66 63 65 65 66 69 67 66 70 68 69 68 69 68 68 69 71 69 74 70 71 71 73 78 77 77 77 80 79 80 81 78 74 72 72 71 69 71 73 -209 77 81 85 86 86 86 84 84 83 83 83 81 82 82 79 84 83 86 84 84 85 84 84 84 84 86 90 91 92 98 95 97 99 99 99 99 102 104 -193 108 113 109 111 110 110 112 108 106 105 86 84 84 85 85 84 84 85 82 84 83 84 81 75 75 72 68 -193 -193 130 131 132 126 124 126 126 133 135 136 137 139 140 141 141 143 144 144 146 0 0 0 0 0
    0 0 0 0 0 0 0 0 0 0 0 0 0 0 0 0 0 0 0 0 0 0 0 0 0 0 0 0 0 0 0 0 0 0 0 0 0 0 0 0 0 0 0 0 0 0 0 0 0 0 0 0 0 0 0 0 0 0 0 0 0 0 0 0 0 0 0 0 0 78 78 79 77 80 81 81 80 79 80 78 76 77 74 72 71 68 70 67 72 70 72 75 74 -193 -193 73 75 76 76 78 77 78 77 77 80 78 77 77 72 68 69 67 68 69 69 72 75 75 77 78 79 79 78 80 76 75 74 71 70 68 69 69 70 72 72 74 77 76 78 79 77 78 77 77 76 74 74 72 73 75 74 74 76 76 74 74 78 75 75 75 76 75 75 76 76 72 74 -193 76 -209 -209 -209 -209 -209 74 75 76 75 77 76 78 78 77 77 75 72 72 70 69 67 70 73 71 75 72 71 73 71 73 71 73 72 71 73 73 72 75 72 73 72 74 81 78 78 79 82 81 82 83 81 76 76 75 74 72 73 77 -193 80 84 86 87 86 86 84 84 83 83 83 81 82 82 80 85 84 87 85 85 86 85 85 85 85 86 90 91 92 98 95 97 99 99 100 99 102 105 -193 108 113 110 111 111 110 112 108 106 105 88 85 85 86 86 85 85 86 84 86 85 85 84 80 79 77 75 75 80 -209 -209 -209 -209 -209 -193 -209 130 132 131 135 137 139 141 141 143 145 147 148 0 0 0 0 0
    0 0 0 0 0 0 0 0 0 0 0 0 0 0 0 0 0 0 0 0 0 0 0 0 0 0 0 0 0 0 0 0 0 0 0 0 0 0 0 0 0 0 0 0 0 0 0 0 0 0 0 0 0 0 0 0 0 0 0 0 0 0 0 0 0 0 0 0 0 79 79 81 78 81 81 81 80 80 80 79 77 79 76 74 74 72 73 73 76 75 75 79 81 -193 82 78 79 79 79 81 80 80 80 79 81 80 79 79 73 71 71 70 70 71 71 76 78 77 79 79 79 80 79 80 77 76 76 73 73 71 72 71 72 74 74 75 79 77 79 80 78 79 78 79 78 76 77 74 75 78 76 76 78 78 76 76 81 77 76 77 78 77 78 79 78 74 77 81 80 76 76 76 -193 77 77 78 79 77 79 78 80 79 79 79 77 74 76 72 75 71 75 76 75 80 76 75 77 73 75 74 75 74 74 75 75 74 76 73 74 74 76 83 79 79 80 83 82 82 84 82 78 81 80 78 75 77 82 79 83 85 86 87 86 86 85 85 84 84 84 82 82 83 81 84 84 87 85 85 86 85 85 86 86 87 91 92 93 99 95 97 99 100 100 100 103 105 -193 108 113 109 110 110 110 112 108 106 106 89 86 86 87 86 86 86 87 86 88 87 88 86 86 85 84 82 81 84 86 88 90 94 97 -209 -209 -209 135 133 134 135 138 141 142 143 146 149 149 0 0 0 0 0
    0 0 0 0 0 0 0 0 0 0 0 0 0 0 0 0 0 0 0 0 0 0 0 0 0 0 0 0 0 0 0 0 0 0 0 0 0 0 0 0 0 0 0 0 0 0 0 0 0 0 0 0 0 0 0 0 0 0 0 0 0 0 0 0 0 0 0 0 0 80 80 81 78 82 82 81 80 81 81 80 78 81 77 76 76 74 75 77 80 80 79 84 86 86 86 84 83 83 83 84 83 83 82 81 83 82 81 82 76 75 76 75 75 76 75 81 80 79 80 80 80 80 79 80 78 78 79 76 77 76 76 75 75 78 75 77 80 78 80 81 79 80 79 80 79 78 80 76 77 81 78 79 81 80 78 78 83 79 78 79 80 79 81 81 80 76 81 84 83 80 80 79 80 80 79 81 81 79 81 80 81 81 81 81 79 75 80 76 85 79 84 83 81 84 80 79 80 76 78 76 77 76 76 77 77 76 78 76 77 77 80 85 80 80 81 83 82 83 84 83 80 84 84 83 79 84 86 84 87 87 87 87 87 86 86 86 86 85 85 84 84 85 84 86 85 87 85 85 86 86 86 87 87 87 91 92 94 99 96 98 99 100 101 101 103 105 -193 108 112 109 110 110 110 112 108 107 107 91 87 87 88 87 87 87 88 86 89 88 89 88 88 87 87 86 86 87 88 88 90 92 91 94 -209 -209 136 135 135 137 138 142 144 145 148 150 150 0 0 0 0 0
    0 0 0 0 0 0 0 0 0 0 0 0 0 0 0 0 0 0 0 0 0 0 0 0 0 0 0 0 0 0 0 0 0 0 0 0 0 0 0 0 0 0 0 0 0 0 0 0 0 0 0 0 0 0 0 0 0 0 0 0 0 0 0 0 0 0 0 0 0 80 80 82 79 82 82 81 80 81 81 80 78 81 78 76 76 75 77 80 82 82 -193 85 87 87 87 86 85 85 85 85 84 84 84 82 83 83 82 84 80 80 83 83 84 86 83 84 83 81 82 81 82 82 81 82 80 81 82 79 80 79 79 77 77 81 76 79 82 80 82 82 81 82 81 82 82 81 83 79 79 83 80 81 82 81 80 80 84 80 80 81 82 81 82 83 82 78 84 85 84 82 83 82 82 82 81 82 83 80 83 81 82 82 82 82 81 77 84 80 87 86 88 86 85 86 83 82 83 79 80 78 79 79 79 80 79 78 81 79 81 80 82 85 81 81 81 84 82 82 83 83 81 85 86 85 82 88 88 87 89 89 88 88 87 87 87 87 87 87 87 86 86 88 87 89 88 89 87 86 87 87 87 88 87 88 93 93 95 100 96 99 100 101 101 -193 103 106 -193 108 112 109 110 111 110 112 107 107 107 94 88 87 88 88 87 87 88 87 89 89 90 89 89 90 89 89 89 89 90 89 90 91 90 92 94 -193 -209 -209 -209 -209 -193 142 144 146 149 152 151 0 0 0 0 0
    0 0 0 0 0 0 0 0 0 0 0 0 0 0 0 0 0 0 0 0 0 0 0 0 0 0 0 0 0 0 0 0 0 0 0 0 0 0 0 0 0 0 0 0 0 0 0 0 0 0 0 0 0 0 0 0 0 0 0 0 0 0 0 0 0 0 0 0 0 81 81 82 79 82 82 81 80 82 81 80 77 79 76 75 75 74 76 80 81 82 -193 85 87 87 87 86 85 85 86 86 85 85 85 83 84 84 85 85 83 83 85 86 87 88 86 85 84 82 83 83 83 83 83 83 82 83 84 82 83 80 81 79 79 82 78 81 83 82 84 84 83 83 82 83 83 82 84 80 80 83 80 81 83 81 81 81 84 81 81 82 83 81 83 83 83 80 85 86 85 83 84 83 83 83 82 82 83 82 83 82 83 83 83 84 83 79 85 84 88 87 89 88 86 87 85 84 84 81 82 81 82 82 82 83 82 82 84 83 85 84 84 86 81 81 81 84 82 82 83 83 81 86 86 86 83 89 89 89 91 91 90 90 89 89 88 88 88 88 88 88 88 90 90 91 91 91 89 88 89 88 88 89 88 89 94 94 96 101 97 99 100 102 102 -177 104 106 -193 108 112 109 110 111 110 112 107 108 108 99 91 89 91 88 87 88 88 88 90 89 91 91 91 92 91 91 91 91 91 90 90 90 89 90 91 96 101 -209 -209 -193 -209 142 144 145 149 153 152 0 0 0 0 0
    0 0 0 0 0 0 0 0 0 0 0 0 0 0 0 0 0 0 0 0 0 0 0 0 0 0 0 0 0 0 0 0 0 0 0 0 0 0 0 0 0 0 0 0 0 0 0 0 0 0 0 0 0 0 0 0 0 0 0 0 0 0 0 0 0 0 0 0 0 82 82 83 80 83 83 82 80 83 81 80 77 79 76 75 75 74 77 83 83 84 -193 -193 -209 88 88 87 86 86 87 87 87 87 87 85 87 88 90 90 90 88 -209 89 90 90 87 86 84 83 84 84 85 84 84 84 83 84 85 83 84 82 83 82 83 85 83 84 85 84 85 85 84 84 84 84 83 83 84 79 80 83 80 81 83 81 80 81 85 82 82 83 84 83 84 85 85 83 87 87 86 84 85 84 84 83 83 83 84 83 84 83 84 84 85 85 84 82 86 86 89 89 90 90 88 88 85 84 85 82 82 81 82 83 83 84 84 83 86 85 87 86 86 87 82 82 82 85 82 82 83 84 82 87 87 87 85 90 91 91 92 92 92 92 91 91 90 89 89 89 88 89 89 91 90 91 92 91 91 90 91 89 89 90 90 91 96 95 98 102 98 100 101 102 103 -193 105 107 106 109 112 110 110 111 109 112 107 108 108 101 92 92 94 90 88 89 89 89 90 90 92 92 92 93 92 92 93 92 92 91 91 91 90 90 90 93 99 101 105 -209 -209 -193 -209 147 151 156 153 0 0 0 0 0
    0 0 0 0 0 0 0 0 0 0 0 0 0 0 0 0 0 0 0 0 0 0 0 0 0 0 0 0 0 0 0 0 0 0 0 0 0 0 0 0 0 0 0 0 0 0 0 0 0 0 0 0 0 0 0 0 0 0 0 0 0 0 0 0 0 0 0 0 0 83 82 84 82 84 84 83 81 84 82 82 77 80 77 77 77 77 79 84 85 85 -193 -193 -209 88 88 -193 88 88 89 89 89 89 89 88 89 91 91 91 92 90 -209 -193 92 -193 87 86 85 84 85 85 86 85 85 85 84 85 86 85 85 83 85 85 86 87 86 87 87 86 86 86 85 85 85 85 84 83 84 79 79 82 79 80 82 81 80 81 85 83 83 84 85 84 85 85 86 85 88 88 87 86 87 85 86 85 84 83 84 83 84 84 85 85 86 86 86 84 87 88 90 90 90 90 88 88 86 85 85 82 83 82 83 84 85 86 85 85 87 87 89 88 88 87 84 83 84 85 83 83 84 84 83 87 87 87 86 91 92 92 93 93 94 94 92 92 91 90 91 90 90 90 90 92 91 92 93 92 93 94 94 93 92 93 92 93 99 98 99 102 99 101 101 103 103 -193 105 107 106 108 111 110 110 111 109 111 107 108 108 101 95 96 99 96 93 92 91 91 91 90 92 93 92 94 93 93 94 93 93 92 91 92 90 90 90 92 99 101 104 -209 -209 -209 -209 150 151 158 154 0 0 0 0 0
    0 0 0 0 0 0 0 0 0 0 0 0 0 0 0 0 0 0 0 0 0 0 0 0 0 0 0 0 0 0 0 0 0 0 0 0 0 0 0 0 0 0 0 0 0 0 0 0 0 0 0 0 0 0 0 0 0 0 0 0 0 0 0 0 0 0 0 0 0 84 83 85 83 85 85 84 82 85 83 83 78 81 79 80 81 80 82 84 85 85 -193 -193 -209 88 89 89 89 90 90 91 91 90 91 90 90 92 92 92 90 -193 -193 -193 -193 -209 87 87 86 86 87 86 87 87 86 86 86 86 87 86 87 85 86 87 88 89 87 88 88 87 88 87 86 86 86 86 85 84 85 79 80 82 81 81 82 81 81 82 86 84 85 86 86 86 86 86 87 87 89 89 89 87 88 87 88 87 86 84 85 84 85 85 86 86 86 86 87 86 88 89 90 90 91 90 88 88 87 85 85 83 83 83 84 85 87 87 87 87 88 89 89 89 89 88 85 84 85 86 84 84 84 85 84 88 88 88 88 92 93 93 93 94 95 95 93 93 91 91 91 90 90 91 91 93 93 94 94 92 95 97 98 98 95 96 95 96 100 99 100 103 100 101 102 103 103 105 105 108 106 108 111 110 110 111 109 111 107 108 108 101 96 97 99 97 98 96 94 92 92 91 94 94 94 96 94 94 94 93 93 93 91 91 90 91 90 93 99 102 104 -209 -209 -209 -209 150 151 157 -193 0 0 0 0 0
    0 0 0 0 0 0 0 0 0 0 0 0 0 0 0 0 0 0 0 0 0 0 0 0 0 0 0 0 0 0 0 0 0 0 0 0 0 0 0 0 0 0 0 0 0 0 0 0 0 0 0 0 0 0 0 0 0 0 0 0 0 0 0 0 0 0 0 0 0 85 85 86 85 85 86 85 83 85 84 84 80 82 81 83 84 84 83 85 85 -193 -193 -209 -209 -193 90 91 90 91 92 92 92 91 93 91 91 92 93 92 91 -209 -193 91 92 90 89 88 87 87 88 88 88 88 88 88 87 88 89 88 88 86 87 89 89 90 88 89 89 89 89 88 87 87 87 88 86 85 85 80 80 82 82 82 83 83 84 85 87 86 87 87 87 87 87 87 88 88 89 90 90 89 89 89 89 89 88 86 86 85 86 86 86 86 87 87 87 87 88 89 89 90 90 90 88 88 87 86 86 84 84 84 85 86 88 88 89 88 89 90 90 90 90 88 86 85 85 86 84 84 85 86 85 88 88 88 89 92 93 93 93 93 94 95 94 92 91 91 91 91 91 92 92 94 94 95 95 93 97 99 100 100 98 98 97 98 101 100 101 104 101 102 102 104 104 105 105 108 106 108 111 109 110 111 109 111 106 108 108 101 97 97 99 98 100 97 97 94 94 92 97 97 96 98 95 95 95 94 94 93 92 92 91 92 91 95 100 102 104 -209 -209 -209 -209 -209 -193 157 -193 0 0 0 0 0
    0 0 0 0 0 0 0 0 0 0 0 0 0 0 0 0 0 0 0 0 0 0 0 0 0 0 0 0 0 0 0 0 0 0 0 0 0 0 0 0 0 0 0 0 0 0 0 0 0 0 0 0 0 0 0 0 0 0 0 0 0 0 0 0 0 0 0 0 0 86 86 87 86 87 87 86 86 86 86 85 82 84 83 85 86 86 85 -193 -193 -193 -177 -193 -193 90 90 92 91 92 93 93 93 92 94 93 92 93 94 93 93 -209 -193 93 94 91 90 90 89 89 90 89 90 89 89 89 88 89 90 89 89 87 88 89 91 90 89 90 90 90 90 89 89 89 89 90 87 87 85 80 79 82 84 84 85 86 87 88 90 88 89 88 89 88 88 88 88 89 90 90 90 -193 90 90 90 90 89 88 86 87 86 87 87 87 87 87 88 87 88 89 89 89 90 90 88 89 88 87 87 86 85 86 87 88 91 -193 -193 90 91 91 90 91 90 88 86 85 86 86 84 84 85 86 85 88 89 88 90 92 93 93 92 93 94 95 94 93 92 92 92 91 92 92 93 94 95 95 96 94 98 100 101 101 100 99 100 100 103 101 102 105 103 103 104 104 104 105 105 109 106 108 110 109 110 110 109 111 106 108 108 101 97 96 99 97 101 96 95 93 92 90 96 95 94 96 95 95 95 94 95 94 93 93 92 93 94 97 101 102 103 -209 -209 -209 -209 -209 -193 156 -193 0 0 0 0 0
    0 0 0 0 0 0 0 0 0 0 0 0 0 0 0 0 0 0 0 0 0 0 0 0 0 0 0 0 0 0 0 0 0 0 0 0 0 0 0 0 0 0 0 0 0 0 0 0 0 0 0 0 0 0 0 0 0 0 0 0 0 0 0 0 0 0 0 0 0 88 88 89 88 88 88 88 87 86 86 86 84 85 85 85 88 88 -193 -209 -193 -209 -193 -193 91 90 91 92 92 93 93 94 93 93 94 93 93 94 94 94 -193 -209 -193 94 95 -193 91 91 91 91 92 91 92 91 91 91 90 90 91 90 90 88 89 90 91 90 90 91 90 91 91 90 90 90 91 92 89 90 85 81 78 82 86 87 88 89 90 92 92 90 91 89 90 90 89 89 89 89 90 90 90 -193 90 90 91 91 90 91 87 88 87 88 87 87 88 -193 88 -193 -193 -193 -193 89 90 89 88 89 89 88 88 88 87 90 89 90 -193 -193 -193 91 92 91 91 91 91 88 87 86 87 87 85 85 86 88 87 89 90 90 91 92 93 93 92 93 95 95 95 93 94 94 94 92 93 93 93 94 97 96 98 96 100 101 102 102 102 100 102 102 104 102 103 105 103 104 104 104 104 105 105 108 106 108 110 109 109 110 109 110 106 107 107 100 95 92 96 94 99 93 90 90 88 87 93 93 93 96 94 96 95 94 95 94 94 94 93 95 96 99 101 103 103 -209 -209 -209 -209 -209 -193 156 151 0 0 0 0 0
    0 0 0 0 0 0 0 0 0 0 0 0 0 0 0 0 0 0 0 0 0 0 0 0 0 0 0 0 0 0 0 0 0 0 0 0 0 0 0 0 0 0 0 0 0 0 0 0 0 0 0 0 0 0 0 0 0 0 0 0 0 0 0 0 0 0 0 0 0 89 89 89 89 88 88 88 87 86 86 86 84 85 86 86 88 89 88 88 -193 -209 -193 90 91 90 91 92 91 93 92 94 93 93 95 93 94 94 94 93 -209 -209 -209 -193 95 92 92 92 92 92 93 92 92 92 92 92 91 91 92 91 91 89 90 91 92 90 89 92 91 92 92 91 91 91 92 93 90 92 88 84 81 82 88 88 90 90 91 93 92 91 93 90 91 90 90 90 89 -193 90 90 91 -193 -193 91 91 91 91 93 88 90 88 89 88 88 88 -193 -193 -193 -193 -193 -209 89 90 89 89 89 89 89 89 89 90 93 91 91 -193 801 -193 92 92 92 91 91 91 88 88 87 88 88 87 87 87 90 88 89 90 90 92 92 92 93 92 94 95 96 95 94 96 96 96 93 95 95 95 96 99 98 100 99 102 103 103 104 103 102 104 104 105 103 103 105 103 104 104 104 104 104 105 108 107 108 110 109 110 110 109 110 106 107 107 100 95 93 95 94 97 92 90 90 87 87 92 93 93 96 95 96 95 95 95 95 94 95 93 95 97 100 102 105 104 -209 -209 -209 -177 -209 -193 156 152 0 0 0 0 0
    0 0 0 0 0 0 0 0 0 0 0 0 0 0 0 0 0 0 0 0 0 0 0 0 0 0 0 0 0 0 0 0 0 0 0 0 0 0 0 0 0 0 0 0 0 0 0 0 0 0 0 0 0 0 0 0 0 0 0 0 0 0 0 0 0 0 0 0 0 90 89 90 89 89 89 88 88 86 86 86 85 87 87 88 90 90 90 90 90 -193 -193 91 91 90 90 91 91 92 92 93 93 93 95 93 93 94 94 93 -193 -193 -209 -193 95 93 92 92 92 92 93 92 93 92 92 93 91 92 93 92 92 90 91 92 93 89 89 92 91 92 92 91 91 91 92 94 90 93 -193 85 82 84 90 89 90 90 90 92 92 91 93 90 91 91 90 90 90 -193 90 90 91 -193 -193 91 91 91 91 94 89 91 88 89 89 89 -193 -193 -193 -193 -193 -193 -209 89 90 90 89 90 90 90 90 91 91 96 92 93 -193 799 -193 92 92 92 91 91 91 88 89 88 89 89 89 89 89 93 89 90 90 90 92 92 92 92 92 93 96 97 96 95 97 98 97 95 98 97 96 97 100 100 101 101 103 103 104 105 105 104 105 106 106 104 104 105 104 104 104 104 104 105 105 108 107 108 110 109 110 110 109 110 106 107 107 100 97 94 97 95 96 92 90 90 87 87 91 92 92 95 94 96 95 95 96 95 94 96 94 96 98 101 103 107 -193 -209 -209 -209 -177 -209 153 156 152 0 0 0 0 0
    0 0 0 0 0 0 0 0 0 0 0 0 0 0 0 0 0 0 0 0 0 0 0 0 0 0 0 0 0 0 0 0 0 0 0 0 0 0 0 0 0 0 0 0 0 0 0 0 0 0 0 0 0 0 0 0 0 0 0 0 0 0 0 0 0 0 0 0 0 90 90 89 89 89 89 89 88 86 86 86 87 88 88 89 91 91 91 91 92 93 -193 91 91 90 91 92 91 92 92 94 93 93 95 93 94 94 94 93 -193 -193 -193 -193 -193 -193 92 93 92 93 94 93 94 93 93 94 92 93 94 92 93 90 93 93 94 90 89 93 91 93 92 91 91 91 93 94 91 94 -193 88 -209 89 94 93 92 91 91 92 92 91 93 90 91 91 91 90 90 91 90 90 92 -193 -193 -193 91 92 91 96 -193 90 88 89 89 89 89 -193 -193 -193 -193 90 -193 90 90 90 90 90 90 90 91 91 92 96 92 93 96 -193 93 92 92 92 90 91 91 89 89 89 90 90 90 89 90 95 89 89 89 89 93 91 91 92 91 94 96 98 97 95 99 99 99 98 101 101 99 100 102 101 102 102 103 104 105 105 105 105 106 106 106 105 105 106 105 105 104 104 104 105 105 109 107 108 111 109 110 110 109 110 106 107 107 101 99 97 100 98 99 94 91 93 87 -193 -193 92 91 94 94 97 95 96 97 96 95 98 96 98 99 102 104 108 -209 -209 -209 -209 -193 -209 153 156 152 0 0 0 0 0
    0 0 0 0 0 0 0 0 0 0 0 0 0 0 0 0 0 0 0 0 0 0 0 0 0 0 0 0 0 0 0 0 0 0 0 0 0 0 0 0 0 0 0 0 0 0 0 0 0 0 0 0 0 0 0 0 0 0 0 0 0 0 0 0 0 0 0 0 0 90 90 90 90 89 89 89 88 86 86 87 87 88 89 89 91 91 91 92 94 94 92 92 92 91 92 92 92 92 92 94 94 94 96 94 94 95 94 94 -193 -193 -193 -193 -193 -193 93 94 93 93 95 94 94 93 94 95 93 95 96 94 95 91 95 94 95 91 90 94 92 94 93 92 92 92 93 94 91 94 89 91 94 92 96 95 94 92 91 93 92 91 93 90 91 91 91 91 91 91 91 91 92 -193 -193 -193 92 93 92 98 90 92 90 90 89 89 90 90 90 90 90 90 -193 90 91 91 91 91 91 90 91 92 91 95 91 93 95 93 93 92 92 92 91 91 90 89 89 89 90 89 90 89 90 95 89 89 89 89 93 91 91 92 91 94 97 98 98 96 100 101 100 100 102 103 101 101 103 103 103 104 104 104 105 105 106 105 106 107 106 105 105 105 105 105 105 104 105 105 105 110 108 109 111 110 111 110 110 110 106 107 107 101 101 101 101 102 104 101 99 102 -209 -209 -209 95 93 95 97 101 98 100 101 100 100 101 100 100 101 103 105 112 -177 -209 -209 -209 -209 -193 153 156 153 0 0 0 0 0
    0 0 0 0 0 0 0 0 0 0 0 0 0 0 0 0 0 0 0 0 0 0 0 0 0 0 0 0 0 0 0 0 0 0 0 0 0 0 0 0 0 0 0 0 0 0 0 0 0 0 0 0 0 0 0 0 0 0 0 0 0 0 0 0 0 0 0 0 0 91 91 90 90 90 90 89 89 86 86 86 87 88 90 90 92 92 93 94 97 99 95 94 95 93 94 94 94 94 93 96 96 95 97 96 96 96 96 96 97 94 96 97 98 96 95 95 94 94 96 94 95 94 94 96 94 96 96 95 95 91 95 94 94 92 91 95 93 94 93 93 93 93 94 94 91 93 90 92 98 96 99 97 95 94 91 93 92 91 94 91 92 92 93 93 92 93 92 92 93 -193 -193 -193 -193 93 92 99 92 95 93 92 91 90 91 90 91 91 91 91 90 91 92 92 92 91 91 90 91 92 91 95 91 93 95 93 94 92 93 92 91 91 91 90 90 90 91 90 91 91 91 97 89 89 89 90 94 91 91 92 91 95 98 99 99 97 101 101 101 101 103 103 101 101 104 104 104 105 105 105 106 106 106 106 106 107 107 106 106 105 105 105 105 105 105 106 106 111 108 110 112 110 111 110 110 110 106 107 106 102 102 102 102 104 105 105 104 105 -193 -209 -193 99 96 95 99 103 101 104 105 104 104 104 104 102 102 104 106 114 204 -209 -209 -209 -209 153 153 155 153 0 0 0 0 0
    0 0 0 0 0 0 0 0 0 0 0 0 0 0 0 0 0 0 0 0 0 0 0 0 0 0 0 0 0 0 0 0 0 0 0 0 0 0 0 0 0 0 0 0 0 0 0 0 0 0 0 0 0 0 0 0 0 0 0 0 0 0 0 0 0 0 0 0 0 93 92 91 91 91 90 90 89 86 87 87 88 88 91 91 94 94 95 96 99 101 98 97 98 96 96 97 96 95 94 97 98 98 99 99 98 98 98 98 99 96 99 99 99 98 97 98 96 95 97 95 96 95 95 97 95 96 96 95 95 92 95 95 94 93 92 97 94 96 95 94 94 94 95 95 92 95 91 96 102 101 101 100 98 96 93 94 93 92 95 92 93 94 94 95 94 95 93 93 94 -193 -193 -193 -193 92 92 99 92 94 95 93 91 91 91 91 92 92 92 92 91 92 93 93 94 92 92 91 91 92 92 96 92 94 96 94 94 93 93 93 92 92 92 91 92 92 93 92 93 93 95 99 90 90 90 90 94 91 91 92 91 96 99 100 100 99 102 102 102 103 104 103 102 102 105 106 106 106 105 106 107 107 107 106 107 108 107 107 107 105 105 106 106 105 105 106 106 111 109 110 112 110 111 110 110 109 106 107 106 103 104 104 104 105 106 106 105 105 105 -193 100 97 94 94 98 102 102 105 106 105 106 105 105 102 102 104 107 -209 -209 -209 -209 151 -209 153 152 155 153 0 0 0 0 0
    0 0 0 0 0 0 0 0 0 0 0 0 0 0 0 0 0 0 0 0 0 0 0 0 0 0 0 0 0 0 0 0 0 0 0 0 0 0 0 0 0 0 0 0 0 0 0 0 0 0 0 0 0 0 0 0 0 0 0 0 0 0 0 0 0 0 0 0 0 94 93 92 93 92 92 91 89 87 88 88 90 91 93 92 95 96 97 99 100 101 100 99 100 99 98 99 98 97 96 98 99 99 99 100 99 99 99 99 101 99 101 101 101 101 99 100 99 96 98 96 97 95 96 97 96 97 97 96 96 94 98 98 95 97 96 99 96 98 96 96 96 96 96 96 94 97 94 101 103 103 103 102 100 99 94 95 93 93 96 93 94 96 95 97 96 97 95 95 96 96 94 95 -193 93 93 101 93 94 97 95 92 91 92 91 93 93 94 93 93 94 95 95 96 93 93 92 92 93 93 97 93 94 96 95 95 94 95 95 93 94 94 95 96 97 97 96 97 97 99 100 93 91 91 93 95 92 92 93 92 97 100 101 101 101 103 103 103 105 106 105 104 104 106 108 107 107 106 106 108 107 107 107 107 108 107 108 108 106 106 106 107 106 106 106 107 110 109 110 112 110 111 110 110 109 106 107 107 105 105 105 106 106 107 108 108 107 107 -209 -209 -209 94 94 98 104 106 107 110 110 111 110 111 107 105 105 113 -177 -209 -209 -209 151 -209 152 152 155 153 0 0 0 0 0
    0 0 0 0 0 0 0 0 0 0 0 0 0 0 0 0 0 0 0 0 0 0 0 0 0 0 0 0 0 0 0 0 0 0 0 0 0 0 0 0 0 0 0 0 0 0 0 0 0 0 0 0 0 0 0 0 0 0 0 0 0 0 0 0 0 0 0 0 0 95 94 93 93 92 93 93 89 87 88 89 92 94 97 95 98 99 99 100 101 102 101 101 101 101 100 100 100 98 98 99 100 101 100 101 100 100 100 101 102 101 102 102 102 102 101 102 101 98 100 98 98 97 97 98 97 98 98 98 99 96 100 101 98 100 101 101 99 99 98 98 98 98 98 97 96 99 98 103 103 104 103 102 100 100 96 95 93 94 97 94 95 97 96 98 98 99 97 97 99 100 98 99 97 97 96 103 98 96 100 98 95 93 94 93 95 96 96 95 94 96 96 96 98 94 94 93 92 94 94 98 94 95 96 95 95 96 96 97 95 97 99 99 100 101 101 100 100 100 101 101 95 93 93 96 96 93 93 95 94 98 101 102 102 101 103 103 104 105 106 105 105 106 107 109 108 107 106 107 108 108 108 108 107 109 108 108 109 105 106 106 106 106 106 106 108 110 110 111 112 111 111 111 111 109 106 107 107 105 106 106 106 107 108 109 109 108 109 -209 -209 -193 101 101 102 106 109 110 114 114 115 115 116 116 115 113 118 -209 -209 -209 142 151 -193 153 153 155 154 0 0 0 0 0
    0 0 0 0 0 0 0 0 0 0 0 0 0 0 0 0 0 0 0 0 0 0 0 0 0 0 0 0 0 0 0 0 0 0 0 0 0 0 0 0 0 0 0 0 0 0 0 0 0 0 0 0 0 0 0 0 0 0 0 0 0 0 0 0 0 0 0 0 0 95 94 92 93 92 94 98 92 88 89 91 97 99 100 99 100 100 101 101 102 103 102 102 103 102 101 102 102 100 100 101 102 102 102 103 101 101 101 101 103 102 103 103 103 104 103 103 102 100 101 99 99 98 98 99 99 99 99 100 100 98 101 102 99 101 102 101 100 100 99 100 99 100 99 98 98 100 101 104 103 103 102 101 99 100 97 95 94 96 98 97 96 99 97 99 100 100 99 99 101 101 101 102 102 102 102 103 104 102 103 101 98 96 97 95 98 98 97 96 96 97 98 98 99 96 96 96 94 97 97 99 96 96 98 96 96 98 98 99 98 100 102 102 103 104 103 102 102 102 102 102 99 96 96 99 99 96 95 98 96 100 103 102 102 102 103 103 105 106 106 105 106 107 109 110 109 108 107 107 109 108 108 108 108 109 107 108 109 106 107 107 108 108 107 109 110 112 111 111 113 111 112 111 111 109 107 107 107 105 106 106 107 107 108 110 109 109 109 107 106 106 104 104 104 107 111 113 116 116 116 116 118 118 118 117 119 129 -209 -193 142 151 154 153 153 155 154 0 0 0 0 0
    0 0 0 0 0 0 0 0 0 0 0 0 0 0 0 0 0 0 0 0 0 0 0 0 0 0 0 0 0 0 0 0 0 0 0 0 0 0 0 0 0 0 0 0 0 0 0 0 0 0 0 0 0 0 0 0 0 0 0 0 0 0 0 0 0 0 0 0 0 96 97 94 96 96 100 102 100 98 97 98 100 101 102 100 101 102 101 102 103 103 103 103 104 103 103 103 103 102 101 102 102 103 102 103 102 101 102 102 103 102 103 104 103 104 104 105 104 101 102 101 100 100 99 100 100 100 101 101 100 100 101 102 99 101 103 101 101 101 100 101 100 101 100 98 100 100 102 104 103 103 102 101 100 101 99 97 96 99 101 100 99 101 99 101 101 102 101 101 102 103 102 104 104 104 104 104 105 104 104 103 101 99 99 96 100 99 99 97 97 98 99 99 100 98 98 99 98 101 102 102 100 99 99 98 98 99 100 100 101 102 104 104 105 105 104 104 104 103 103 102 101 99 100 102 101 99 99 101 99 101 104 103 102 102 103 104 105 106 106 105 107 108 110 111 110 108 108 108 110 108 108 108 108 109 108 109 110 108 109 110 110 110 110 111 112 113 112 112 113 112 112 111 111 108 106 107 107 105 106 106 107 108 109 111 110 110 110 109 109 108 106 106 105 109 113 115 117 116 117 117 118 119 119 118 119 128 135 -193 141 151 -209 153 153 154 153 0 0 0 0 0
    0 0 0 0 0 0 0 0 0 0 0 0 0 0 0 0 0 0 0 0 0 0 0 0 0 0 0 0 0 0 0 0 0 0 0 0 0 0 0 0 0 0 0 0 0 0 0 0 0 0 0 0 0 0 0 0 0 0 0 0 0 0 0 0 0 0 0 0 0 -193 -193 -193 101 101 103 103 104 102 101 -209 -193 102 103 101 102 102 102 102 102 103 103 103 104 104 103 103 103 102 102 102 102 103 102 103 102 102 102 103 104 103 104 104 103 105 105 105 105 102 103 102 102 101 100 101 101 101 102 102 101 100 101 102 99 101 103 101 102 102 101 102 101 102 101 99 101 100 103 103 102 103 102 102 101 101 101 99 98 101 102 102 101 102 101 102 102 103 102 102 102 103 103 104 104 103 104 103 104 103 104 103 103 102 101 99 102 101 100 98 98 99 99 99 101 99 100 101 101 103 104 103 103 100 101 99 99 101 102 102 102 103 105 104 105 105 105 104 105 104 104 103 103 102 102 103 102 101 101 103 101 102 105 103 102 102 103 103 105 106 106 105 107 109 110 111 111 108 109 109 111 109 109 109 108 110 108 110 111 109 111 112 112 112 111 112 114 114 113 112 113 112 112 111 112 108 106 106 107 106 106 107 107 108 109 111 110 110 111 109 109 108 105 106 104 109 114 116 117 117 118 118 118 119 119 118 119 127 134 -209 140 151 -209 153 153 153 153 0 0 0 0 0
    0 0 0 0 0 0 0 0 0 0 0 0 0 0 0 0 0 0 0 0 0 0 0 0 0 0 0 0 0 0 0 0 0 0 0 0 0 0 0 0 0 0 0 0 0 0 0 0 0 0 0 0 0 0 0 0 0 0 0 0 0 0 0 0 0 0 0 0 0 -193 -209 -193 104 103 105 104 -209 -209 -209 -209 -209 -209 -193 101 102 102 101 102 102 103 103 103 104 104 104 104 104 103 102 102 102 103 102 104 102 102 103 103 104 103 104 104 103 105 105 106 105 103 103 102 102 101 100 101 101 101 102 102 101 101 101 102 99 101 103 101 102 102 102 102 101 102 101 99 102 100 102 103 102 102 102 101 101 101 101 100 99 102 102 104 102 103 102 103 103 103 103 103 102 103 102 103 103 103 103 102 102 102 103 102 102 102 101 100 102 101 100 98 99 99 99 100 101 99 100 101 101 103 104 103 103 100 101 100 100 102 103 102 103 103 105 104 104 104 104 104 104 104 103 103 103 103 103 104 102 102 103 104 102 103 105 103 103 102 102 103 105 106 106 105 108 109 110 111 111 108 109 111 112 110 110 110 110 111 109 112 112 110 112 112 113 112 111 112 114 113 112 112 113 112 111 111 112 107 106 107 107 106 107 107 108 109 111 112 111 111 111 109 110 108 106 107 106 111 113 116 117 116 117 118 118 119 119 119 120 127 134 -193 140 151 152 152 153 152 152 0 0 0 0 0
    0 0 0 0 0 0 0 0 0 0 0 0 0 0 0 0 0 0 0 0 0 0 0 0 0 0 0 0 0 0 0 0 0 0 0 0 0 0 0 0 0 0 0 0 0 0 0 0 0 0 0 0 0 0 0 0 0 0 0 0 0 0 0 0 0 0 0 0 0 -193 -193 102 103 103 105 104 -209 -209 -209 -209 -209 -209 -193 101 102 102 101 102 102 103 103 103 105 105 104 104 104 103 102 102 102 103 102 104 102 101 102 103 104 103 104 104 103 105 105 106 105 103 104 102 102 101 100 101 101 101 101 101 101 100 101 102 99 101 103 101 102 102 101 102 101 102 101 99 102 100 103 103 102 103 102 102 101 101 101 100 98 101 101 104 102 103 102 103 103 103 103 103 102 103 102 103 102 102 102 101 101 101 102 102 101 102 101 100 103 101 100 98 99 99 99 100 101 99 100 100 101 102 103 103 103 99 101 100 100 102 103 102 102 103 104 103 104 104 104 104 104 104 104 103 104 104 104 105 103 103 104 105 104 104 106 103 103 103 102 103 105 106 106 105 108 110 111 111 111 109 112 114 114 112 112 112 113 113 111 114 114 112 114 114 114 114 112 113 114 112 113 112 113 112 111 112 113 108 108 108 109 108 109 109 112 111 113 114 114 113 113 111 113 111 110 110 110 113 115 116 117 116 117 118 118 119 120 120 121 127 133 -193 141 151 152 153 154 152 152 0 0 0 0 0
    0 0 0 0 0 0 0 0 0 0 0 0 0 0 0 0 0 0 0 0 0 0 0 0 0 0 0 0 0 0 0 0 0 0 0 0 0 0 0 0 0 0 0 0 0 0 0 0 0 0 0 0 0 0 0 0 0 0 0 0 0 0 0 0 0 0 0 0 0 104 102 99 101 101 103 103 -209 -209 -209 -209 -209 -193 -193 101 102 102 101 102 102 103 103 103 105 105 105 105 104 103 101 102 102 102 102 104 102 101 102 103 104 104 104 104 103 105 105 105 105 103 103 102 102 101 100 101 101 100 101 101 101 101 101 102 100 101 103 102 102 102 101 102 101 102 101 98 102 101 103 104 102 103 102 101 101 101 100 98 97 100 100 103 102 103 101 102 103 103 103 103 102 103 102 103 102 102 102 100 101 101 102 102 101 102 102 101 103 102 100 99 99 99 100 100 100 99 100 101 101 102 103 102 102 100 102 100 100 102 103 102 102 103 104 103 104 104 104 104 105 104 103 103 104 104 104 104 102 102 103 105 103 103 106 103 103 103 103 104 106 106 107 105 109 111 111 111 112 109 113 115 114 113 114 113 115 114 113 116 115 113 115 114 115 114 113 114 115 112 114 114 115 113 113 113 113 108 110 110 112 111 113 113 116 115 116 116 116 115 116 114 116 114 113 112 113 115 115 117 117 115 117 118 119 120 121 120 122 127 133 135 141 151 152 153 155 152 152 0 0 0 0 0
    0 0 0 0 0 0 0 0 0 0 0 0 0 0 0 0 0 0 0 0 0 0 0 0 0 0 0 0 0 0 0 0 0 0 0 0 0 0 0 0 0 0 0 0 0 0 0 0 0 0 0 0 0 0 0 0 0 0 0 0 0 0 0 0 0 0 0 0 0 102 99 95 100 100 101 102 -209 -209 258 -209 -209 -209 -209 102 103 102 101 102 103 104 104 103 105 105 106 106 105 103 101 102 102 102 102 103 102 101 102 103 104 104 104 104 103 105 105 105 105 103 104 103 103 102 101 101 101 101 102 102 102 102 102 103 101 102 103 102 102 102 101 102 101 102 101 96 101 100 103 104 102 103 101 101 101 101 100 97 96 100 99 103 102 103 101 102 103 103 103 103 102 103 102 104 -193 102 103 100 101 101 102 102 101 102 102 102 104 102 100 98 99 99 100 100 100 99 100 101 102 102 102 102 102 100 102 100 100 102 103 102 102 103 104 103 104 104 104 104 105 103 103 102 103 103 104 104 102 103 104 105 104 104 106 103 102 103 103 104 106 106 106 105 108 110 111 111 111 109 115 116 115 115 115 115 117 115 116 117 116 115 115 115 115 114 114 115 115 115 116 116 118 117 116 116 115 110 113 113 114 114 115 116 118 117 118 118 118 118 118 116 117 116 115 114 115 116 117 118 118 117 118 119 120 121 121 121 122 125 131 134 140 151 152 153 155 152 152 0 0 0 0 0
    0 0 0 0 0 0 0 0 0 0 0 0 0 0 0 0 0 0 0 0 0 0 0 0 0 0 0 0 0 0 0 0 0 0 0 0 0 0 0 0 0 0 0 0 0 0 0 0 0 0 0 0 0 0 0 0 0 0 0 0 0 0 0 0 0 0 0 0 0 104 -193 -193 -209 -209 -209 -209 -209 -209 260 -209 -209 -209 -209 -193 -209 103 102 102 103 -209 -209 -193 -193 -193 108 108 108 104 102 103 103 104 104 104 103 103 103 103 104 104 104 104 103 105 104 105 105 104 104 104 104 104 103 103 102 101 103 102 102 101 102 102 101 101 103 102 102 101 101 101 100 102 99 94 99 99 103 103 102 103 101 102 102 101 99 96 96 100 99 103 102 103 101 103 103 103 103 103 102 102 102 103 102 102 102 100 101 101 103 103 102 103 103 103 104 102 100 97 99 99 99 100 100 99 101 102 103 104 104 103 103 102 103 101 101 103 103 102 103 103 104 103 104 104 104 104 105 104 104 103 105 105 105 106 104 104 106 107 106 105 107 102 102 103 103 104 106 105 106 105 108 110 111 110 111 109 115 116 116 116 116 116 118 116 118 118 116 116 116 116 116 116 116 117 117 119 120 121 122 121 121 119 117 116 116 116 116 116 118 118 119 119 119 119 119 118 118 117 118 117 116 115 116 117 118 119 119 118 119 120 121 122 121 121 122 124 129 133 -193 -209 151 152 156 152 152 0 0 0 0 0
    0 0 0 0 0 0 0 0 0 0 0 0 0 0 0 0 0 0 0 0 0 0 0 0 0 0 0 0 0 0 0 0 0 0 0 0 0 0 0 0 0 0 0 0 0 0 0 0 0 0 0 0 0 0 0 0 0 0 0 0 0 0 0 0 0 0 0 0 0 107 -193 -193 -209 -193 -209 -193 -209 -193 -209 -209 -209 -209 -209 -209 -209 -209 -209 103 -193 -209 -209 -209 -193 -193 111 110 111 106 103 104 104 104 106 106 105 105 105 105 106 106 105 104 103 105 105 106 106 105 105 105 106 106 -193 105 -193 101 103 102 102 101 102 103 102 102 104 103 103 102 102 102 101 102 -193 94 100 101 104 -193 104 104 103 103 103 103 101 98 99 101 101 104 104 104 103 104 105 104 105 104 103 103 102 103 -193 102 102 101 102 102 103 104 103 104 104 104 105 102 100 98 100 100 100 101 101 101 103 -193 105 105 105 105 105 104 105 103 103 104 104 103 103 103 103 102 104 103 103 103 105 104 104 105 108 107 109 108 106 107 109 112 109 107 111 103 103 104 103 104 106 105 105 105 108 109 110 110 111 110 116 117 117 116 116 116 118 116 117 119 117 116 117 116 116 117 118 119 119 122 122 122 124 124 123 121 120 121 118 119 119 119 119 120 121 120 120 119 119 119 118 118 118 117 118 117 117 118 119 119 119 118 119 120 120 122 121 121 122 124 129 133 -209 -209 149 151 156 151 152 0 0 0 0 0
    0 0 0 0 0 0 0 0 0 0 0 0 0 0 0 0 0 0 0 0 0 0 0 0 0 0 0 0 0 0 0 0 0 0 0 0 0 0 0 0 0 0 0 0 0 0 0 0 0 0 0 0 0 0 0 0 0 0 0 0 0 0 0 0 0 0 0 0 0 112 -193 -193 -209 -209 -209 -193 -193 -177 -209 -193 -209 -209 -193 -209 -209 -209 -209 -209 -193 -209 -209 -209 -193 -193 -193 112 113 108 102 105 105 106 108 108 108 108 108 108 109 109 108 106 105 106 107 107 108 107 107 107 108 109 109 109 110 102 104 103 103 103 103 105 105 104 108 106 105 104 104 104 103 104 -209 -209 -209 -209 108 -193 109 -193 -193 106 106 -193 -193 -193 105 104 103 106 106 106 105 105 106 106 106 106 105 104 -193 -193 -193 103 103 102 103 103 104 105 104 105 105 107 107 102 101 100 102 102 102 103 103 103 105 -193 108 108 108 108 108 107 106 105 104 106 106 104 104 104 104 103 104 104 104 104 105 104 104 106 112 110 113 111 108 110 114 117 115 111 117 106 105 106 106 107 107 106 106 106 109 111 112 112 113 113 117 118 118 117 117 117 118 117 118 119 117 117 118 117 117 118 120 120 121 123 123 123 124 123 123 121 120 121 118 118 118 119 119 120 121 120 120 120 120 120 119 119 119 119 119 119 119 119 120 120 120 119 119 120 120 122 122 121 122 125 129 133 -209 -209 149 151 155 151 152 0 0 0 0 0
    0 0 0 0 0 0 0 0 0 0 0 0 0 0 0 0 0 0 0 0 0 0 0 0 0 0 0 0 0 0 0 0 0 0 0 0 0 0 0 0 0 0 0 0 0 0 0 0 0 0 0 0 0 0 0 0 0 0 0 0 0 0 0 0 0 0 0 0 0 115 -193 119 -193 -193 -193 -193 -193 -177 -193 -193 -193 -193 119 -209 -209 -209 -209 -209 -209 -209 -209 -209 111 -209 -193 116 117 116 105 108 110 112 112 111 113 111 112 111 113 112 111 110 108 108 109 109 112 111 111 110 112 114 115 115 117 103 106 105 104 104 105 110 112 109 114 113 112 110 109 -193 -193 106 -209 -209 -209 -209 114 -209 116 -193 -193 -193 111 -193 110 -193 109 107 106 108 108 108 107 107 108 -193 108 108 107 107 -193 -193 -209 104 104 103 104 104 106 106 105 107 107 109 109 103 103 102 104 104 104 105 105 -193 108 111 111 112 111 113 110 111 110 109 109 110 110 108 107 106 105 104 106 105 104 104 105 106 106 107 116 114 117 116 114 116 118 120 119 117 120 110 109 111 111 111 111 108 108 108 110 113 114 114 115 114 118 119 118 118 118 118 118 117 119 119 118 119 119 118 119 119 121 121 122 123 123 123 123 122 122 120 120 121 119 119 118 120 121 121 122 121 121 121 121 121 121 121 121 120 120 119 119 119 120 120 120 119 119 120 120 122 122 122 123 125 130 133 -193 -209 149 151 156 152 152 0 0 0 0 0
    0 0 0 0 0 0 0 0 0 0 0 0 0 0 0 0 0 0 0 0 0 0 0 0 0 0 0 0 0 0 0 0 0 0 0 0 0 0 0 0 0 0 0 0 0 0 0 0 0 0 0 0 0 0 0 0 0 0 0 0 0 0 0 0 0 0 0 0 0 116 -193 119 -193 -193 -193 -193 -193 -193 -193 -193 -193 117 119 -209 -193 -209 -209 -209 -209 -193 -209 -209 115 -209 -193 118 -193 119 115 114 117 117 115 114 115 114 114 114 115 114 113 113 112 110 113 114 116 116 116 115 116 118 119 119 119 -193 107 104 103 105 107 113 117 113 117 117 117 117 -193 -193 -209 -193 -209 -209 -209 -209 -209 -209 119 -193 -193 114 114 116 115 115 113 110 108 111 110 111 110 109 111 112 111 111 110 110 108 109 108 106 106 105 107 107 108 108 107 108 108 111 112 104 103 104 107 107 106 109 108 108 111 114 114 115 115 116 115 116 116 114 114 116 115 113 112 109 109 107 109 107 106 106 108 109 110 112 119 117 119 119 119 119 120 121 120 120 121 116 115 116 116 116 115 111 110 110 113 114 115 116 116 116 118 119 118 119 118 118 117 116 118 119 118 120 119 119 120 121 123 122 123 124 123 123 123 122 122 120 121 121 119 119 118 121 122 122 123 123 123 123 124 123 123 122 122 122 121 120 119 118 119 119 119 118 119 119 119 121 122 122 123 126 130 133 140 150 148 151 155 151 152 0 0 0 0 0
    0 0 0 0 0 0 0 0 0 0 0 0 0 0 0 0 0 0 0 0 0 0 0 0 0 0 0 0 0 0 0 0 0 0 0 0 0 0 0 0 0 0 0 0 0 0 0 0 0 0 0 0 0 0 0 0 0 0 0 0 0 0 0 0 0 0 0 0 0 -193 -209 119 -193 -193 -193 -193 -193 -193 -193 -193 -193 117 118 -209 -193 -193 -193 -193 -193 -193 -209 -193 117 -209 119 120 -193 121 121 118 119 119 116 115 116 115 115 115 115 115 115 116 116 114 117 119 119 -193 120 118 120 121 121 121 121 -193 107 104 104 107 108 114 117 115 117 118 118 -193 -193 -209 -193 -209 -177 -193 -209 -209 -209 -209 -193 -193 -193 116 116 117 116 116 115 112 110 112 113 114 114 112 114 116 115 115 114 114 112 114 114 110 109 110 112 113 114 113 111 113 113 115 115 107 106 107 110 110 109 112 110 111 114 117 116 117 118 118 118 119 118 116 117 118 117 117 116 114 115 113 115 114 111 112 113 117 117 119 121 121 121 121 121 121 121 122 122 121 122 119 119 120 120 119 118 115 114 113 115 116 116 117 117 117 119 119 119 119 119 119 117 118 121 122 122 123 124 124 125 125 127 125 124 124 123 123 123 121 122 120 121 121 121 121 121 122 124 123 124 123 123 124 125 124 123 123 123 122 122 121 119 118 119 119 120 120 120 121 120 122 123 123 125 127 130 133 139 148 148 151 155 152 152 0 0 0 0 0
    0 0 0 0 0 0 0 0 0 0 0 0 0 0 0 0 0 0 0 0 0 0 0 0 0 0 0 0 0 0 0 0 0 0 0 0 0 0 0 0 0 0 0 0 0 0 0 0 0 0 0 0 0 0 0 0 0 0 0 0 0 0 0 0 0 0 0 0 0 -193 -193 119 -193 -193 -193 -193 -193 -177 -193 -193 -193 117 118 -193 119 -193 -193 -193 -193 -177 -209 -209 119 122 121 122 122 122 122 119 120 119 117 115 116 116 115 116 116 116 116 117 118 116 119 121 121 121 122 120 121 121 122 121 121 106 110 106 106 109 110 116 118 117 118 119 120 -193 -209 -193 -209 -209 -177 -177 -209 -209 -209 -209 -193 -193 119 117 117 118 117 118 116 114 113 115 116 117 117 116 117 118 117 117 116 116 115 115 116 114 113 115 116 116 117 117 116 117 117 118 117 115 113 111 114 113 111 114 112 115 116 117 117 118 119 119 119 120 119 118 118 119 119 119 118 117 117 117 118 118 116 117 116 120 120 -193 122 122 122 122 122 122 123 123 123 122 123 121 121 121 122 120 120 118 117 116 117 117 117 119 118 117 119 119 119 119 119 119 117 121 123 126 128 131 132 132 132 131 131 128 125 124 123 123 122 120 121 120 122 122 122 123 123 123 125 125 125 124 124 124 125 124 124 124 123 123 122 122 121 118 120 120 121 120 120 121 120 122 123 123 125 129 132 134 139 148 149 151 155 152 153 0 0 0 0 0
    0 0 0 0 0 0 0 0 0 0 0 0 0 0 0 0 0 0 0 0 0 0 0 0 0 0 0 0 0 0 0 0 0 0 0 0 0 0 0 0 0 0 0 0 0 0 0 0 0 0 0 0 0 0 0 0 0 0 0 0 0 0 0 0 0 0 0 0 0 -193 -193 120 -193 -193 -193 -193 -193 -177 -193 -193 -193 116 119 -193 119 120 -193 -193 -193 -177 -209 -193 120 122 -193 121 122 121 121 119 119 118 117 115 117 116 116 116 117 117 117 117 118 117 120 121 122 122 122 121 121 122 122 122 121 117 116 112 109 111 113 117 118 117 118 119 119 -193 -209 -193 -193 -209 -177 -177 -193 -209 -209 121 121 120 120 118 118 119 118 118 117 116 116 117 118 118 119 117 118 119 118 118 117 117 116 116 117 116 114 117 116 117 118 118 118 119 119 119 118 118 117 116 116 114 113 115 115 116 117 118 118 118 119 119 119 120 119 119 119 120 119 120 119 118 119 119 119 119 118 119 117 121 121 -193 122 122 122 122 122 122 123 123 123 122 123 122 122 122 123 121 121 120 119 118 119 119 118 120 118 118 119 120 120 120 119 120 119 123 127 129 132 134 133 133 132 130 131 128 125 123 122 122 121 120 121 120 122 122 123 124 124 124 127 126 127 125 124 125 126 125 125 124 124 124 124 123 122 118 120 120 121 120 120 120 119 121 122 123 125 128 132 135 141 -193 150 151 156 152 153 0 0 0 0 0
    0 0 0 0 0 0 0 0 0 0 0 0 0 0 0 0 0 0 0 0 0 0 0 0 0 0 0 0 0 0 0 0 0 0 0 0 0 0 0 0 0 0 0 0 0 0 0 0 0 0 0 0 0 0 0 0 0 0 0 0 0 0 0 0 0 0 0 0 0 120 -193 120 -193 -193 119 -193 -193 -193 -193 117 -193 116 118 118 119 120 -193 -193 -193 -193 -193 -193 120 122 -193 -193 -193 -193 -193 -193 -193 119 118 116 117 117 117 117 117 117 117 117 118 117 -193 121 122 122 122 121 121 122 122 121 120 117 117 115 111 113 114 117 118 117 118 118 118 119 -193 -193 -193 -193 -193 -209 -209 -193 -209 122 122 121 120 119 118 119 119 119 118 116 116 117 119 119 119 118 118 119 118 118 117 117 117 117 118 117 116 118 117 118 118 119 118 120 120 119 119 119 119 118 117 115 113 116 116 117 117 118 118 118 120 120 120 120 120 120 120 121 120 120 120 119 120 120 120 120 118 120 118 121 121 121 122 122 122 122 122 122 123 123 123 122 122 122 122 122 123 121 122 121 120 120 120 119 118 120 119 118 119 119 119 119 119 120 119 123 129 131 133 134 133 133 132 130 131 128 125 123 122 122 121 120 120 119 122 122 123 125 125 126 128 128 129 126 125 126 126 126 125 125 125 125 125 125 124 120 120 120 120 120 119 119 118 120 122 123 125 129 133 136 142 149 150 152 156 152 153 0 0 0 0 0
    0 0 0 0 0 0 0 0 0 0 0 0 0 0 0 0 0 0 0 0 0 0 0 0 0 0 0 0 0 0 0 0 0 0 0 0 0 0 0 0 0 0 0 0 0 0 0 0 0 0 0 0 0 0 0 0 0 0 0 0 0 0 0 0 0 0 0 0 0 119 -193 120 120 119 119 118 118 -193 -193 117 116 116 118 118 119 120 120 120 -193 -193 -193 119 120 122 -193 -209 -193 -193 -193 -193 -193 120 118 117 118 117 117 117 117 117 117 117 119 -193 -209 121 122 122 122 121 121 121 121 120 119 115 116 114 110 114 116 117 118 117 117 118 118 119 119 -193 -193 -209 -193 -193 -193 -193 -193 122 122 121 120 119 118 118 118 118 118 116 117 118 119 120 120 119 119 119 118 119 118 118 117 117 118 117 117 119 118 119 119 120 119 120 120 119 119 119 119 119 118 116 115 117 116 117 117 117 117 118 119 120 120 120 120 121 120 122 120 120 120 119 120 120 120 120 118 120 119 122 121 121 122 121 122 122 122 122 122 122 122 121 122 121 122 122 122 121 122 122 121 121 120 120 119 121 119 118 119 119 119 119 119 120 118 123 129 131 133 133 133 133 131 131 131 128 125 123 123 122 121 119 120 119 122 123 124 127 127 127 130 129 130 127 127 127 126 126 126 125 125 125 126 125 125 121 121 120 120 120 119 119 117 119 121 123 125 129 133 136 -193 -193 150 152 156 152 153 0 0 0 0 0
    0 0 0 0 0 0 0 0 0 0 0 0 0 0 0 0 0 0 0 0 0 0 0 0 0 0 0 0 0 0 0 0 0 0 0 0 0 0 0 0 0 0 0 0 0 0 0 0 0 0 0 0 0 0 0 0 0 0 0 0 0 0 0 0 0 0 0 0 0 119 119 120 120 119 119 118 118 117 117 117 116 115 118 117 118 120 120 120 120 -193 120 121 121 123 -193 -193 -193 -193 121 121 121 120 119 117 118 118 117 117 117 117 117 117 119 -193 -209 121 122 122 122 121 121 121 121 120 117 113 114 113 109 114 116 118 118 117 118 118 118 119 -193 -193 -193 -193 122 123 122 -193 -193 122 122 121 120 119 118 118 118 118 118 116 117 118 119 120 120 119 119 120 119 119 119 118 118 118 118 118 117 119 118 119 119 119 119 120 120 119 119 119 120 119 118 116 115 117 117 117 117 117 117 117 119 120 119 120 121 121 120 122 120 120 120 119 120 120 120 120 118 120 119 122 122 122 122 121 122 122 122 122 122 122 121 121 121 121 121 121 122 121 122 122 121 121 121 120 120 121 119 118 119 119 119 119 119 121 120 124 130 131 132 132 132 132 130 132 131 129 126 124 123 123 121 119 120 120 124 124 126 129 129 129 131 131 131 128 128 127 126 127 126 125 126 126 126 126 126 123 122 121 122 121 120 121 119 120 122 124 126 130 132 135 -209 -193 150 152 156 152 152 0 0 0 0 0
    0 0 0 0 0 0 0 0 0 0 0 0 0 0 0 0 0 0 0 0 0 0 0 0 0 0 0 0 0 0 0 0 0 0 0 0 0 0 0 0 0 0 0 0 0 0 0 0 0 0 0 0 0 0 0 0 0 0 0 0 0 0 0 0 0 0 0 0 0 118 119 120 120 119 119 118 118 117 117 117 116 115 118 117 118 120 120 120 120 120 120 -193 121 124 -193 120 120 120 120 121 121 120 119 118 118 118 118 118 117 117 116 117 119 118 -193 122 122 122 123 122 122 122 121 121 118 114 114 112 108 113 116 117 118 116 117 118 118 119 -193 -193 -193 120 122 123 122 -193 -193 122 122 121 120 119 118 118 118 118 117 116 117 117 119 120 120 119 119 119 118 119 119 118 118 118 119 118 117 119 118 118 119 119 118 120 120 120 119 120 120 120 118 116 115 117 117 117 116 116 116 117 119 119 119 120 121 122 121 124 121 121 120 120 120 120 120 120 118 121 119 122 122 122 122 121 121 122 121 122 122 122 121 121 122 121 121 121 121 120 121 121 121 120 120 120 119 121 119 119 119 119 119 119 119 122 121 124 131 132 132 132 131 131 129 132 131 130 126 124 124 124 121 119 120 121 125 125 128 130 130 130 131 131 131 128 129 127 126 127 127 126 127 126 128 127 128 124 123 122 123 122 121 122 121 121 123 125 127 131 132 135 -209 -193 148 151 155 152 152 0 0 0 0 0
    0 0 0 0 0 0 0 0 0 0 0 0 0 0 0 0 0 0 0 0 0 0 0 0 0 0 0 0 0 0 0 0 0 0 0 0 0 0 0 0 0 0 0 0 0 0 0 0 0 0 0 0 0 0 0 0 0 0 0 0 0 0 0 0 0 0 0 0 0 118 119 120 120 119 119 118 118 117 117 117 116 115 117 -193 118 119 120 120 120 120 120 -193 122 124 -193 119 120 120 120 121 121 120 119 118 119 118 118 118 118 117 116 117 118 118 121 122 122 122 123 123 122 122 122 121 118 115 114 113 109 114 116 117 117 116 117 117 117 118 -193 118 118 118 121 122 -193 -209 -209 121 122 120 120 118 118 118 118 118 117 115 116 117 119 119 119 118 119 119 118 119 119 119 118 118 119 118 118 120 119 119 119 120 119 120 120 119 119 119 119 119 118 115 114 117 117 117 116 116 116 117 119 119 119 119 121 122 121 124 121 121 120 120 121 121 120 120 118 120 119 121 121 120 121 120 121 121 121 121 121 121 121 121 122 121 121 121 121 120 121 121 121 120 120 119 119 121 119 119 119 119 119 119 120 122 122 125 132 133 133 132 132 132 130 133 132 132 127 124 125 125 123 120 121 122 126 126 129 131 130 130 131 130 131 128 129 127 126 127 127 126 127 126 128 128 128 126 124 124 125 124 123 123 122 122 123 125 127 131 132 135 -193 -193 146 151 155 151 152 0 0 0 0 0
    0 0 0 0 0 0 0 0 0 0 0 0 0 0 0 0 0 0 0 0 0 0 0 0 0 0 0 0 0 0 0 0 0 0 0 0 0 0 0 0 0 0 0 0 0 0 0 0 0 0 0 0 0 0 0 0 0 0 0 0 0 0 0 0 0 0 0 0 0 118 119 120 120 119 119 118 118 118 118 117 116 115 118 -193 -193 119 120 119 120 120 120 121 122 125 122 120 121 120 120 121 122 120 120 119 119 118 118 118 118 117 116 117 118 117 120 121 122 122 123 123 123 123 123 122 118 116 115 113 110 113 115 117 117 115 117 117 117 118 117 117 117 117 121 122 -193 -193 -209 121 122 119 119 118 118 117 117 117 117 115 116 117 118 119 119 118 119 119 118 119 119 118 118 118 120 119 118 121 120 120 119 120 119 120 120 119 119 118 119 119 118 114 114 117 117 117 117 117 116 117 119 119 118 118 119 121 121 123 121 121 120 120 121 120 120 120 118 119 119 120 120 119 120 120 121 121 120 121 121 121 121 120 122 121 121 121 122 121 122 122 121 121 121 120 121 122 120 119 119 119 119 119 120 123 123 126 133 134 134 134 133 133 132 135 133 133 127 125 126 126 124 122 124 125 129 129 131 132 131 131 131 131 132 129 129 126 126 126 127 125 127 126 127 128 129 128 126 126 129 127 126 126 124 122 124 127 129 132 133 135 136 140 146 151 155 151 152 0 0 0 0 0
    0 0 0 0 0 0 0 0 0 0 0 0 0 0 0 0 0 0 0 0 0 0 0 0 0 0 0 0 0 0 0 0 0 0 0 0 0 0 0 0 0 0 0 0 0 0 0 0 0 0 0 0 0 0 0 0 0 0 0 0 0 0 0 0 0 0 0 0 0 119 120 120 120 119 119 118 119 118 118 118 116 115 118 117 118 119 119 119 119 120 120 121 123 126 123 119 121 120 120 121 121 120 120 119 120 118 118 118 117 117 116 115 118 115 118 120 121 122 123 -193 -193 -193 -193 -193 118 116 116 113 110 113 116 117 117 116 117 117 117 118 117 117 117 117 121 122 121 -193 -193 122 123 120 119 118 117 117 117 117 116 114 116 117 118 119 119 118 119 119 119 119 119 119 118 118 121 120 119 122 121 121 120 120 120 120 120 119 118 118 119 119 117 113 113 117 118 117 116 116 116 116 118 118 117 116 118 120 120 122 121 120 120 120 121 120 119 119 117 117 117 118 118 118 119 120 120 120 120 121 121 120 120 119 121 120 122 122 122 122 123 123 122 122 122 121 122 123 120 120 120 120 120 120 121 123 124 125 132 133 132 132 131 132 130 132 132 132 131 132 134 135 135 136 137 137 135 133 135 134 133 133 133 132 132 131 130 127 126 127 127 126 128 127 128 129 130 130 129 128 133 129 127 128 126 122 124 128 129 132 133 135 136 142 144 150 155 151 151 0 0 0 0 0
    0 0 0 0 0 0 0 0 0 0 0 0 0 0 0 0 0 0 0 0 0 0 0 0 0 0 0 0 0 0 0 0 0 0 0 0 0 0 0 0 0 0 0 0 0 0 0 0 0 0 0 0 0 0 0 0 0 0 0 0 0 0 0 0 0 0 0 0 0 120 120 120 121 120 119 118 119 118 119 118 116 115 117 117 118 119 119 119 119 120 120 121 123 126 123 118 121 119 119 121 121 120 120 119 120 118 118 118 117 117 115 115 117 115 118 119 121 121 123 -193 -193 -193 -193 -209 -193 117 117 114 109 112 116 116 118 116 117 117 117 118 117 117 117 116 121 122 121 123 120 124 125 120 120 118 117 117 117 117 116 114 116 116 118 119 119 118 119 119 119 119 119 119 119 119 121 121 120 122 122 121 121 121 120 120 120 119 119 119 119 120 118 112 113 117 118 117 116 116 116 116 118 118 117 115 117 120 120 122 121 120 120 120 120 120 118 118 116 116 116 117 118 117 119 119 120 120 119 120 120 119 119 118 120 119 122 121 122 122 122 123 123 122 122 121 123 123 121 121 121 121 120 122 122 125 124 125 130 131 130 129 127 129 125 127 129 131 131 134 137 138 138 139 140 141 139 137 137 135 135 134 133 132 132 132 131 129 127 129 130 130 132 131 131 132 132 132 132 129 133 133 132 134 128 121 123 128 129 131 131 135 -193 141 142 149 154 150 151 0 0 0 0 0
    0 0 0 0 0 0 0 0 0 0 0 0 0 0 0 0 0 0 0 0 0 0 0 0 0 0 0 0 0 0 0 0 0 0 0 0 0 0 0 0 0 0 0 0 0 0 0 0 0 0 0 0 0 0 0 0 0 0 0 0 0 0 0 0 0 0 0 0 0 120 121 120 120 120 119 118 119 118 119 118 116 115 117 116 117 118 119 118 119 120 120 121 123 127 124 118 122 120 120 122 122 121 120 119 120 118 118 117 117 116 115 114 117 115 118 119 121 -193 -193 -193 -209 -209 -209 -209 -209 117 117 114 110 112 115 116 118 115 117 117 117 117 117 117 117 115 121 122 120 124 121 124 127 120 119 117 117 116 116 116 114 112 115 115 117 119 119 118 119 119 119 119 119 120 119 119 121 121 120 122 123 121 120 121 121 120 120 120 120 120 120 121 119 113 114 118 118 117 116 117 116 117 118 119 117 115 117 120 120 122 121 120 119 119 120 120 118 118 116 116 116 116 117 117 119 120 120 120 119 120 120 120 119 118 120 119 121 121 121 122 122 123 123 122 123 121 124 124 122 122 121 121 121 123 123 125 124 124 129 130 129 128 126 127 123 125 128 131 132 135 138 139 139 140 141 142 140 137 137 135 135 134 133 131 132 131 131 129 126 129 131 132 133 133 133 134 133 134 134 132 135 136 137 138 137 131 133 132 133 133 132 135 137 142 143 150 154 150 151 0 0 0 0 0
    0 0 0 0 0 0 0 0 0 0 0 0 0 0 0 0 0 0 0 0 0 0 0 0 0 0 0 0 0 0 0 0 0 0 0 0 0 0 0 0 0 0 0 0 0 0 0 0 0 0 0 0 0 0 0 0 0 0 0 0 0 0 0 0 0 0 0 0 0 120 121 120 120 120 119 118 119 118 119 118 116 116 117 116 117 118 118 118 119 119 120 121 123 127 126 120 124 -193 121 123 124 121 -209 119 120 117 118 117 117 116 115 114 117 -193 118 120 122 -193 -193 -193 -209 -209 -209 -209 -209 117 -209 -209 110 113 116 116 119 116 117 117 117 118 117 117 117 115 122 124 121 125 123 125 126 119 119 117 116 116 115 115 113 112 115 115 117 118 119 118 120 120 119 119 119 -193 -193 120 122 121 121 123 125 123 122 123 122 120 120 120 120 121 121 -193 119 114 115 119 119 118 117 118 117 117 119 119 117 115 117 119 120 122 121 120 119 120 120 120 118 118 116 115 115 114 116 117 118 120 120 120 120 120 121 120 120 119 121 119 122 123 123 124 123 124 124 123 124 123 127 127 125 123 122 123 122 125 124 125 124 124 129 130 128 127 125 126 123 123 127 131 133 137 139 140 140 141 141 143 140 138 137 135 135 134 133 131 132 131 131 130 128 131 134 134 136 137 136 137 136 136 138 135 136 137 138 140 140 137 138 135 136 135 133 136 140 145 145 150 154 150 150 0 0 0 0 0
    0 0 0 0 0 0 0 0 0 0 0 0 0 0 0 0 0 0 0 0 0 0 0 0 0 0 0 0 0 0 0 0 0 0 0 0 0 0 0 0 0 0 0 0 0 0 0 0 0 0 0 0 0 0 0 0 0 0 0 0 0 0 0 0 0 0 0 0 0 123 124 122 121 121 121 119 120 119 119 118 117 116 117 117 117 117 118 118 119 -193 -193 122 124 127 129 -193 -193 -193 -193 126 129 -209 -209 120 121 118 118 118 117 116 116 114 118 -193 -193 122 124 -209 -193 -193 -209 -209 -209 -209 -209 -209 -209 -209 -209 119 -209 119 -209 118 119 118 118 119 118 117 118 115 122 125 122 126 126 128 131 121 121 117 117 116 115 115 113 112 116 116 119 -193 -177 119 121 121 121 -193 121 -193 122 122 124 123 123 125 126 124 125 126 127 123 124 122 122 123 -193 -193 -209 114 115 119 120 118 118 118 117 118 119 121 119 118 121 122 122 125 123 122 121 121 122 120 118 118 117 115 115 114 116 117 119 121 121 120 121 121 122 121 122 -193 124 -209 -193 -193 -193 134 131 131 128 126 127 128 133 133 130 125 124 125 124 128 126 126 126 125 130 131 129 127 125 126 122 121 127 132 135 137 139 141 141 142 142 143 140 138 138 136 135 134 132 131 132 132 132 132 131 133 136 137 140 140 140 140 139 139 141 137 139 139 141 143 144 141 140 137 138 137 135 137 142 145 146 150 154 150 150 0 0 0 0 0
    0 0 0 0 0 0 0 0 0 0 0 0 0 0 0 0 0 0 0 0 0 0 0 0 0 0 0 0 0 0 0 0 0 0 0 0 0 0 0 0 0 0 0 0 0 0 0 0 0 0 0 0 0 0 0 0 0 0 0 0 0 0 0 0 0 0 0 0 0 126 128 125 123 123 123 121 121 121 121 119 119 118 118 118 118 118 -193 118 119 -193 -193 124 126 131 134 -193 136 134 134 134 136 -209 -209 123 123 119 119 118 119 118 119 117 118 -209 -209 -209 -209 -209 -209 -193 -193 137 137 -193 -209 -209 -209 -209 -209 133 138 138 139 -193 124 -193 119 120 118 117 118 114 123 128 124 129 133 133 135 126 128 120 119 119 117 116 115 115 119 118 -209 -177 -177 -193 124 125 125 123 124 124 125 124 127 125 125 127 128 126 129 130 131 128 132 129 130 134 -193 -193 -209 -193 -193 -193 122 120 119 119 118 119 120 123 121 122 127 131 132 133 131 130 126 125 129 -193 -193 120 120 -209 119 118 119 119 121 123 124 122 123 125 126 126 -193 -209 -209 -209 -209 -193 137 140 138 138 134 -193 132 133 137 137 134 129 128 132 132 134 131 130 129 128 132 133 132 130 126 128 123 123 131 136 137 138 139 141 142 142 142 142 140 139 138 136 135 135 133 132 132 132 132 133 134 135 140 139 142 142 142 142 141 141 142 139 143 141 145 146 148 145 143 140 141 139 138 139 146 147 148 150 154 150 151 0 0 0 0 0
    0 0 0 0 0 0 0 0 0 0 0 0 0 0 0 0 0 0 0 0 0 0 0 0 0 0 0 0 0 0 0 0 0 0 0 0 0 0 0 0 0 0 0 0 0 0 0 0 0 0 0 0 0 0 0 0 0 0 0 0 0 0 0 0 0 0 0 0 0 131 133 131 127 127 126 125 124 124 123 121 121 122 120 120 -209 -193 -209 118 -209 -209 -209 133 134 136 139 140 139 139 138 139 139 141 139 132 130 123 121 121 122 121 122 122 -209 -209 -193 -209 139 141 140 142 143 141 141 138 -193 -209 -209 -193 -193 137 141 139 139 140 138 138 136 130 -209 -193 -193 115 124 133 -193 134 136 136 138 136 137 139 135 137 140 -209 -209 -209 144 149 -209 -209 -193 -209 135 136 134 133 132 132 132 130 133 130 131 133 133 134 135 134 135 134 136 136 136 138 138 139 -193 142 -193 140 135 131 127 128 125 124 127 135 -193 134 137 137 137 137 137 -193 133 133 -193 -209 -209 124 129 129 125 125 126 123 128 130 133 132 132 135 135 137 -209 -209 138 -193 139 139 140 142 140 141 138 138 137 138 139 139 137 135 135 137 137 137 135 133 133 132 134 135 134 133 129 132 130 130 135 138 138 139 141 142 142 143 142 142 141 140 139 138 137 137 134 133 133 133 133 135 136 137 143 141 144 143 143 143 142 142 143 140 145 142 147 148 149 148 145 142 144 142 141 143 150 149 149 151 155 151 151 0 0 0 0 0
    0 0 0 0 0 0 0 0 0 0 0 0 0 0 0 0 0 0 0 0 0 0 0 0 0 0 0 0 0 0 0 0 0 0 0 0 0 0 0 0 0 0 0 0 0 0 0 0 0 0 0 0 0 0 0 0 0 0 0 0 0 0 0 0 0 0 0 0 0 134 135 134 132 132 132 131 129 130 126 -193 -209 -193 -209 -209 -209 -177 -209 -209 -209 -193 138 139 138 138 141 141 141 141 139 140 140 142 141 137 136 136 133 130 130 130 128 131 -193 -209 -193 -193 141 143 142 142 143 141 142 139 -193 138 138 140 141 138 144 140 140 141 140 140 139 138 139 -209 -193 -193 130 138 -193 136 137 137 138 138 138 142 138 139 141 145 144 144 145 146 141 147 145 140 140 139 137 137 136 137 136 135 136 134 134 136 136 137 137 136 137 137 137 138 137 139 139 141 141 143 142 143 139 138 136 138 137 137 136 140 139 138 139 139 139 138 138 138 137 137 139 -193 -193 136 137 137 135 135 135 134 134 135 137 138 138 139 139 140 139 140 140 141 141 140 141 142 141 141 139 139 139 139 141 140 139 138 138 139 139 139 137 135 135 135 135 137 135 134 130 133 133 132 137 139 139 140 141 142 142 142 142 142 141 141 139 139 138 139 137 136 135 135 134 138 138 140 144 142 144 144 143 143 142 142 143 140 145 142 146 146 147 146 145 142 145 142 143 146 151 151 151 152 156 152 152 0 0 0 0 0
    0 0 0 0 0 0 0 0 0 0 0 0 0 0 0 0 0 0 0 0 0 0 0 0 0 0 0 0 0 0 0 0 0 0 0 0 0 0 0 0 0 0 0 0 0 0 0 0 0 0 0 0 0 0 0 0 0 0 0 0 0 0 0 0 0 0 0 0 0 135 135 -193 135 135 136 134 133 133 130 -193 -209 -209 -209 -209 -209 -209 -209 -209 142 143 141 142 140 140 142 142 141 142 140 141 141 143 142 139 139 139 138 138 137 138 137 138 -193 -193 -193 -193 142 144 142 141 141 140 141 139 139 138 139 141 140 139 147 141 141 143 142 142 142 141 141 138 140 139 135 140 139 138 137 137 138 137 137 142 138 139 140 142 143 143 144 144 141 147 144 141 143 141 139 138 137 138 137 137 137 136 136 137 137 139 137 137 139 138 138 139 139 140 140 143 142 143 143 144 141 139 138 140 140 142 140 144 142 141 142 142 140 140 139 140 138 138 141 140 140 139 140 139 138 137 138 137 137 138 139 139 140 140 141 141 140 141 141 141 141 140 142 142 141 141 140 140 140 141 142 140 140 140 141 141 140 141 138 137 137 137 137 137 136 135 131 135 135 134 138 140 140 141 141 143 143 143 143 141 141 141 140 141 140 141 138 137 136 136 135 140 139 141 145 142 145 144 144 144 142 143 143 140 145 142 146 145 147 145 145 142 146 143 146 146 151 151 151 152 157 153 153 0 0 0 0 0
    0 0 0 0 0 0 0 0 0 0 0 0 0 0 0 0 0 0 0 0 0 0 0 0 0 0 0 0 0 0 0 0 0 0 0 0 0 0 0 0 0 0 0 0 0 0 0 0 0 0 0 0 0 0 0 0 0 0 0 0 0 0 0 0 0 0 0 0 0 135 135 -193 137 136 137 136 -193 -193 -209 -209 -209 -209 -193 -193 -193 -193 145 144 145 145 143 143 141 141 143 142 142 143 141 142 141 143 143 140 141 141 140 141 140 141 140 141 146 -193 -193 143 143 143 141 141 140 139 140 139 139 139 139 141 141 140 148 142 142 144 143 143 143 142 143 138 141 142 137 140 140 140 138 138 139 138 138 142 138 139 139 141 141 142 142 143 140 145 142 141 143 142 139 139 138 139 138 138 138 137 137 138 138 139 138 138 140 139 139 140 140 141 140 144 141 142 141 142 140 137 136 140 139 142 141 145 143 142 143 143 141 141 140 141 139 139 141 140 140 140 140 141 139 138 139 138 139 140 141 140 141 141 141 142 141 141 141 141 141 140 143 143 142 143 143 142 142 142 143 141 142 142 143 143 143 144 141 140 140 139 139 140 139 139 137 138 138 137 142 141 141 141 141 143 142 143 142 140 140 141 139 140 139 140 138 138 137 137 136 141 139 142 145 143 145 144 144 144 143 143 143 141 145 141 145 144 145 144 144 142 146 142 146 147 151 151 152 153 157 153 153 0 0 0 0 0</data></disparity>
</opencv_storage>
