<?xml version="1.0"?>
<opencv_storage>
<gps_time_stamp>39042</gps_time_stamp>
<gps_x>-1.3940505981445312e+001</gps_x>
<gps_y>1.5485614538192749e+000</gps_y>
<gps_z>-4.1697888374328613e+000</gps_z>
<image_time_stamp>26964</image_time_stamp>
<disparity type_id="opencv-matrix">
  <rows>94</rows>
  <cols>320</cols>
  <dt>s</dt>
  <data>
    0 0 0 0 0 0 0 0 0 0 0 0 0 0 0 0 0 0 0 0 0 0 0 0 0 0 0 0 0 0 0 0 0 0 0 0 0 0 0 0 0 0 0 0 0 0 0 0 0 0 0 0 0 0 0 0 0 0 0 0 0 0 0 0 0 0 0 0 0 0 0 0 0 0 0 -193 -193 10 10 10 10 10 11 11 0 9 9 9 10 12 12 11 11 9 9 9 9 0 9 0 0 0 0 0 0 0 0 0 0 9 0 10 0 10 10 9 0 0 0 0 0 0 0 0 0 0 0 0 0 0 0 0 0 0 0 0 0 0 0 12 16 10 13 18 12 10 12 10 10 10 0 0 0 0 0 0 0 0 0 8 16 22 19 19 20 18 20 24 13 10 0 -193 -193 -193 -193 -193 -193 -193 -193 -193 -193 -193 0 11 13 0 0 15 11 11 11 -193 -193 -193 11 12 9 10 11 11 12 11 12 12 11 10 9 0 0 0 0 0 0 9 16 12 11 12 11 12 11 10 10 0 10 9 9 9 9 10 10 10 12 11 13 14 14 16 20 20 21 16 15 20 15 15 15 15 15 13 15 17 11 24 24 24 23 21 17 17 15 20 16 15 15 14 15 16 16 16 11 14 19 18 19 14 19 19 21 23 -193 27 27 28 26 25 25 25 24 21 21 22 19 24 27 36 29 33 31 31 31 33 31 31 30 32 30 30 31 31 31 31 30 29 30 0 0 0 0 0
    0 0 0 0 0 0 0 0 0 0 0 0 0 0 0 0 0 0 0 0 0 0 0 0 0 0 0 0 0 0 0 0 0 0 0 0 0 0 0 0 0 0 0 0 0 0 0 0 0 0 0 0 0 0 0 0 0 0 0 0 0 0 0 0 0 0 0 0 0 0 0 0 0 0 0 -193 -193 10 10 10 10 10 11 11 0 10 10 10 11 12 14 12 12 10 10 10 10 9 10 0 0 0 0 0 0 0 0 0 0 9 9 10 9 11 11 10 0 0 0 0 0 0 0 0 0 0 0 0 0 0 0 0 0 0 -193 -193 0 0 0 12 16 10 12 17 12 10 12 10 10 9 0 0 0 0 0 0 0 0 0 0 14 21 15 17 19 17 19 -209 11 10 0 -193 -193 -193 -193 -193 -193 -193 -193 -193 -193 -193 -193 10 12 0 0 15 11 11 11 -193 -193 -193 11 12 9 10 11 11 12 11 12 12 12 11 10 0 0 0 0 0 0 9 16 11 11 12 11 12 11 10 10 0 9 9 9 9 9 10 11 11 13 12 13 15 15 15 19 20 21 16 15 20 15 15 15 15 15 13 16 18 11 24 24 23 22 21 17 16 15 20 16 15 15 14 14 16 16 16 11 14 19 18 19 13 19 18 21 -193 -193 27 27 28 27 26 26 27 25 22 22 22 21 25 27 35 29 33 31 31 31 32 30 31 30 32 30 30 31 31 31 32 31 29 30 0 0 0 0 0
    0 0 0 0 0 0 0 0 0 0 0 0 0 0 0 0 0 0 0 0 0 0 0 0 0 0 0 0 0 0 0 0 0 0 0 0 0 0 0 0 0 0 0 0 0 0 0 0 0 0 0 0 0 0 0 0 0 0 0 0 0 0 0 0 0 0 0 0 0 0 0 0 0 0 0 -193 -193 10 9 10 -193 10 12 12 9 10 11 11 11 12 15 13 13 10 10 10 10 10 10 0 0 0 0 0 0 0 0 0 0 9 9 11 9 12 12 10 0 0 0 0 0 0 0 0 0 0 0 0 0 0 0 0 0 -193 -193 -193 0 0 0 12 15 10 11 14 11 10 12 10 9 9 9 0 0 0 0 0 0 0 0 0 11 15 11 12 14 14 16 16 11 10 -193 -193 -193 -193 -193 -193 -193 -193 -193 -193 -193 -193 -193 9 11 0 0 -193 11 11 11 -193 -193 -193 12 12 9 10 11 11 12 11 12 12 12 11 10 0 0 0 0 9 0 9 16 11 11 12 11 13 11 10 10 0 10 9 9 10 10 10 11 11 15 12 14 15 15 15 19 19 20 14 15 19 15 15 15 15 15 13 16 18 11 25 26 27 24 23 18 18 17 21 16 15 15 14 14 15 15 15 10 13 18 18 18 12 19 17 20 -193 -177 27 27 27 28 27 27 27 26 24 24 24 25 26 28 35 29 34 31 31 31 32 30 32 31 32 30 31 31 31 32 32 31 30 31 0 0 0 0 0
    0 0 0 0 0 0 0 0 0 0 0 0 0 0 0 0 0 0 0 0 0 0 0 0 0 0 0 0 0 0 0 0 0 0 0 0 0 0 0 0 0 0 0 0 0 0 0 0 0 0 0 0 0 0 0 0 0 0 0 0 0 0 0 0 0 0 0 0 0 0 0 0 0 0 0 9 -193 9 9 9 -193 10 12 12 9 11 11 12 11 12 15 13 14 11 10 10 10 10 11 0 0 0 0 0 0 0 0 0 0 9 9 11 9 12 12 10 0 0 0 0 0 0 0 0 0 0 0 0 0 0 0 0 0 -193 -177 -193 0 0 0 11 15 10 10 13 10 10 12 10 9 9 9 0 0 -177 0 0 0 0 0 0 9 11 10 11 15 14 16 16 11 10 -193 -193 -193 -193 -193 -193 -193 385 -193 0 0 0 0 9 10 0 0 -193 -193 11 -193 11 11 10 12 13 9 11 11 11 11 11 12 12 12 11 10 9 0 0 9 9 0 9 17 12 11 12 12 13 11 10 10 0 10 10 10 10 10 11 12 12 16 13 14 15 15 15 18 19 20 14 15 19 15 15 15 15 15 13 16 18 12 25 27 31 29 25 22 22 21 23 18 17 16 15 14 15 15 15 10 12 16 16 16 11 16 14 19 -193 -177 27 27 27 28 27 27 28 27 25 25 25 26 26 28 34 30 34 31 31 31 32 30 31 31 32 30 30 30 31 31 31 30 30 31 0 0 0 0 0
    0 0 0 0 0 0 0 0 0 0 0 0 0 0 0 0 0 0 0 0 0 0 0 0 0 0 0 0 0 0 0 0 0 0 0 0 0 0 0 0 0 0 0 0 0 0 0 0 0 0 0 0 0 0 0 0 0 0 0 0 0 0 0 0 0 0 0 0 0 0 0 0 0 0 0 9 -193 9 9 9 -193 10 12 12 10 12 12 12 11 12 16 13 14 11 10 10 10 11 11 0 0 0 0 0 0 0 0 0 0 9 9 11 9 11 11 10 0 0 0 0 0 0 0 0 0 0 0 0 0 0 0 0 0 -193 -177 -193 0 0 0 11 14 9 10 13 11 10 12 10 9 9 -177 -177 -177 -177 0 0 0 0 0 0 9 11 9 12 15 14 15 14 10 10 -193 -193 -193 388 387 386 386 386 -193 0 0 0 0 0 9 0 0 -193 -193 -193 -193 11 11 10 12 13 9 10 10 10 10 11 12 12 11 11 10 10 9 9 0 9 0 0 16 11 11 12 12 13 10 10 10 0 11 10 11 11 10 12 12 12 17 13 14 14 16 16 18 19 20 13 15 20 15 15 15 15 15 13 17 18 12 26 28 34 33 30 24 24 24 25 20 18 17 16 14 15 15 15 10 12 15 15 15 10 15 13 18 -193 -177 26 26 27 28 27 27 27 27 25 25 25 26 25 28 34 30 34 31 30 30 31 30 31 31 31 29 29 30 31 31 30 30 30 31 0 0 0 0 0
    0 0 0 0 0 0 0 0 0 0 0 0 0 0 0 0 0 0 0 0 0 0 0 0 0 0 0 0 0 0 0 0 0 0 0 0 0 0 0 0 0 0 0 0 0 0 0 0 0 0 0 0 0 0 0 0 0 0 0 0 0 0 0 0 0 0 0 0 0 0 0 0 0 0 0 0 0 9 0 0 -193 10 12 13 10 12 12 12 11 12 17 13 14 11 11 11 11 11 11 0 0 0 0 0 0 0 0 -193 0 9 9 11 9 11 11 10 0 0 0 0 0 0 0 0 0 0 0 0 0 0 0 0 0 -193 -177 -193 0 0 0 11 13 9 10 13 11 11 12 10 9 9 9 -177 -177 -177 0 0 0 0 0 0 0 9 0 -193 -209 13 13 10 9 9 -193 -193 -193 -193 -193 385 386 386 -193 0 0 0 0 0 0 0 0 -193 -193 -193 -193 11 10 10 12 12 9 10 10 9 10 10 11 11 11 10 10 9 9 0 0 0 0 0 16 11 11 11 11 13 10 10 10 0 11 11 12 12 11 13 14 14 18 13 15 14 15 15 17 19 19 13 15 20 16 16 16 16 16 15 18 19 13 26 29 33 33 31 28 26 25 26 21 19 17 17 14 14 14 14 10 12 17 16 16 11 16 13 17 -193 -177 26 26 26 27 26 27 27 26 24 24 25 25 25 28 33 30 33 31 30 30 30 30 30 30 30 28 28 29 30 30 29 30 30 31 0 0 0 0 0
    0 0 0 0 0 0 0 0 0 0 0 0 0 0 0 0 0 0 0 0 0 0 0 0 0 0 0 0 0 0 0 0 0 0 0 0 0 0 0 0 0 0 0 0 0 0 0 0 0 0 0 0 0 0 0 0 0 0 0 0 0 0 0 0 0 0 0 0 0 0 0 0 0 0 0 0 0 0 0 0 -193 10 12 13 11 14 12 12 11 12 17 13 14 11 10 10 10 11 11 0 0 0 0 0 0 0 0 -193 0 9 9 11 9 11 12 10 0 0 0 0 0 0 0 0 0 0 0 0 0 0 0 0 0 0 -193 0 0 0 0 11 13 9 11 13 12 11 12 10 9 9 9 0 0 0 0 0 0 0 0 0 0 0 0 0 -209 12 11 9 9 10 0 0 0 -193 0 -193 -193 -193 0 0 0 0 0 0 0 0 0 -193 11 11 11 11 10 10 11 12 9 9 9 9 9 10 10 11 10 9 9 9 0 0 0 0 0 0 14 10 11 11 11 13 11 10 10 0 12 11 13 12 12 13 14 14 19 14 15 13 15 15 17 18 18 12 14 20 16 16 16 16 16 16 20 20 16 27 29 33 34 34 32 26 26 25 21 19 17 17 13 14 14 14 10 13 19 18 18 12 18 14 18 22 -177 27 27 27 27 26 26 26 26 24 24 24 24 25 27 31 30 33 31 30 30 30 29 30 29 28 27 27 29 29 29 29 29 30 30 0 0 0 0 0
    0 0 0 0 0 0 0 0 0 0 0 0 0 0 0 0 0 0 0 0 0 0 0 0 0 0 0 0 0 0 0 0 0 0 0 0 0 0 0 0 0 0 0 0 0 0 0 0 0 0 0 0 0 0 0 0 0 0 0 0 0 0 0 0 0 0 0 0 0 0 9 9 0 0 0 0 0 0 0 0 -193 9 12 12 11 15 13 13 11 11 16 12 14 10 10 10 10 11 11 0 0 0 0 0 0 0 0 0 0 9 9 11 9 11 11 10 0 0 0 0 0 0 0 0 0 0 0 0 0 0 0 0 0 0 0 0 0 0 0 10 13 10 11 14 12 11 12 10 9 9 9 0 0 0 0 0 0 0 0 0 0 0 0 0 10 10 10 9 9 11 0 0 0 0 0 0 0 0 0 0 0 0 0 0 0 0 0 -193 11 11 11 11 10 9 11 12 0 9 9 9 9 10 10 10 10 9 9 9 0 0 0 0 0 0 14 10 11 11 11 14 11 10 10 0 13 12 14 13 12 14 15 15 19 14 15 13 16 15 16 18 18 12 14 20 16 15 17 17 17 17 -193 21 20 27 30 32 34 34 34 26 26 25 21 19 17 17 -193 14 14 14 10 13 20 19 20 12 21 16 20 23 -177 27 27 27 27 26 26 26 26 23 23 23 23 25 26 29 29 32 30 30 30 29 29 30 29 28 27 27 29 29 29 28 28 30 30 0 0 0 0 0
    0 0 0 0 0 0 0 0 0 0 0 0 0 0 0 0 0 0 0 0 0 0 0 0 0 0 0 0 0 0 0 0 0 0 0 0 0 0 0 0 0 0 0 0 0 0 0 0 0 0 0 0 0 0 0 0 0 0 0 0 0 0 0 0 0 0 0 0 0 0 9 9 0 0 0 0 0 0 0 0 -193 9 11 11 11 15 13 13 12 11 17 12 14 11 10 10 10 11 11 0 0 0 0 0 0 0 0 0 0 9 0 10 9 10 11 9 0 0 0 0 0 0 0 0 0 0 0 0 0 0 0 0 0 0 0 0 0 0 0 10 13 9 10 12 12 11 12 10 9 9 9 0 0 0 0 0 0 9 0 0 0 0 0 0 9 9 9 0 9 12 9 0 0 0 0 0 0 0 0 0 0 0 0 0 9 0 0 -193 11 11 11 11 10 9 11 11 0 0 0 0 9 10 10 10 10 9 10 9 0 0 0 0 0 0 13 10 11 11 11 14 11 10 10 0 14 12 15 13 13 14 15 15 19 14 16 13 16 16 17 19 18 12 15 20 16 15 17 17 17 -193 -193 22 21 28 31 33 34 35 35 27 26 25 21 19 17 17 -193 14 14 14 -193 13 20 20 20 13 23 19 21 23 -209 28 28 28 27 26 27 26 26 23 23 23 22 25 26 28 28 32 30 30 31 30 29 30 29 28 27 26 29 28 28 27 27 29 29 0 0 0 0 0
    0 0 0 0 0 0 0 0 0 0 0 0 0 0 0 0 0 0 0 0 0 0 0 0 0 0 0 0 0 0 0 0 0 0 0 0 0 0 0 0 0 0 0 0 0 0 0 0 0 0 0 0 0 0 0 0 0 0 0 0 0 0 0 0 0 0 0 0 0 0 9 10 0 0 0 0 0 0 0 0 0 0 10 11 -193 -193 15 15 12 11 16 13 14 11 10 10 10 11 12 0 0 0 0 0 0 0 0 0 0 0 0 10 9 10 10 0 0 0 0 0 0 0 0 0 0 0 0 0 0 0 0 0 0 0 0 0 0 0 0 10 12 0 9 11 12 10 11 10 9 0 9 0 0 0 0 0 0 9 0 0 0 0 0 0 0 0 8 0 10 12 10 0 0 0 0 0 0 0 0 0 0 0 0 0 9 0 0 15 11 11 12 11 10 9 11 11 0 0 0 0 0 10 10 10 10 9 10 10 8 0 0 0 0 0 13 10 10 10 10 13 11 10 10 0 15 12 15 13 13 15 15 15 19 14 16 13 17 16 17 19 18 12 16 21 16 16 17 17 17 18 -193 -193 -193 28 31 33 34 35 34 27 26 25 22 19 17 17 13 14 14 14 -193 13 20 19 20 12 23 20 22 23 -193 28 28 28 27 26 26 26 26 23 23 23 22 24 26 28 29 32 30 30 31 30 30 30 29 28 27 27 28 28 27 27 26 29 29 0 0 0 0 0
    0 0 0 0 0 0 0 0 0 0 0 0 0 0 0 0 0 0 0 0 0 0 0 0 0 0 0 0 0 0 0 0 0 0 0 0 0 0 0 0 0 0 0 0 0 0 0 0 0 0 0 0 0 0 0 0 0 0 0 0 0 0 0 0 0 0 0 0 0 0 11 12 0 0 0 0 0 0 0 0 0 9 11 12 14 19 18 17 14 12 16 12 14 10 10 10 10 11 12 0 0 0 0 0 0 0 0 0 0 0 0 9 9 10 10 0 0 0 0 0 0 0 0 0 0 0 0 0 0 0 0 0 0 0 0 0 0 0 0 9 10 0 9 10 11 10 10 9 0 0 0 0 0 0 0 0 0 0 0 0 0 0 0 0 9 0 9 9 11 11 10 9 0 0 0 0 0 0 0 0 0 0 0 0 10 0 0 16 11 12 12 11 10 9 10 11 0 0 0 0 0 10 10 10 9 9 10 9 0 0 0 0 0 0 12 10 10 10 10 13 10 10 10 0 15 12 15 13 13 15 16 16 19 14 16 14 18 17 18 20 19 12 17 21 17 16 17 17 17 18 22 23 -209 28 31 33 34 35 35 28 26 25 21 19 17 17 13 14 14 14 -193 13 20 19 20 13 24 22 23 23 -193 28 28 28 27 26 26 26 26 23 22 23 22 24 27 28 29 31 30 30 31 30 30 30 29 27 26 26 28 28 26 26 26 28 29 0 0 0 0 0
    0 0 0 0 0 0 0 0 0 0 0 0 0 0 0 0 0 0 0 0 0 0 0 0 0 0 0 0 0 0 0 0 0 0 0 0 0 0 0 0 0 0 0 0 0 0 0 0 0 0 0 0 0 0 0 0 0 0 0 0 0 0 0 0 0 0 0 0 0 0 12 13 -193 -193 0 0 0 0 0 -209 -193 9 12 12 16 20 20 19 16 14 16 12 14 10 10 10 10 11 12 0 0 0 0 0 0 0 0 0 0 0 0 9 9 10 11 9 0 0 0 0 0 0 0 0 0 0 0 0 0 9 0 0 0 0 0 0 0 0 0 9 9 0 9 10 11 10 10 9 0 0 0 0 0 0 0 0 0 0 0 0 0 0 0 9 10 9 10 10 11 11 10 9 0 0 0 0 0 0 0 0 0 0 0 0 10 0 0 16 11 12 12 11 10 9 10 11 0 0 0 0 0 10 10 10 9 9 10 9 9 0 0 0 0 0 11 9 10 10 9 12 10 9 9 0 15 12 15 13 13 15 16 16 19 14 16 14 18 18 18 20 19 13 19 22 18 16 17 17 17 18 21 23 -193 28 30 32 33 34 34 27 25 24 21 19 17 17 13 14 15 15 -193 14 21 20 21 15 25 23 23 23 -193 28 28 28 27 26 26 26 26 22 22 22 21 24 26 28 28 30 30 30 30 30 30 30 28 27 26 25 28 28 26 25 25 28 29 0 0 0 0 0
    0 0 0 0 0 0 0 0 0 0 0 0 0 0 0 0 0 0 0 0 0 0 0 0 0 0 0 0 0 0 0 0 0 0 0 0 0 0 0 0 0 0 0 0 0 0 0 0 0 0 0 0 0 0 0 0 0 0 0 0 0 0 0 0 0 0 0 0 0 0 13 14 -193 -209 -193 -193 -209 -209 -209 -209 -209 9 -209 -193 16 20 19 19 17 15 16 13 14 11 10 10 10 11 11 0 0 0 0 0 0 0 0 0 0 0 0 9 9 10 11 9 0 0 0 0 0 0 0 0 0 0 0 0 0 10 0 0 0 0 0 0 0 0 0 9 0 0 9 10 10 9 9 9 0 0 0 0 0 0 0 0 0 0 0 0 0 0 0 8 9 9 9 9 10 10 9 0 0 0 0 0 0 0 0 0 0 0 0 0 9 0 0 15 11 12 11 11 9 9 10 11 0 0 0 0 0 10 11 11 9 9 10 9 9 9 0 0 0 0 11 9 9 9 9 11 9 9 9 0 15 12 15 13 13 15 16 16 19 14 16 14 18 19 19 20 20 14 20 22 18 17 17 17 18 18 21 22 -193 27 30 31 32 32 26 24 23 22 19 17 16 15 13 14 14 15 -193 14 21 21 21 15 25 23 24 23 -193 29 29 29 27 26 26 26 26 21 22 22 21 24 26 28 28 30 30 29 29 29 29 30 27 26 25 25 28 28 25 25 25 28 29 0 0 0 0 0
    0 0 0 0 0 0 0 0 0 0 0 0 0 0 0 0 0 0 0 0 0 0 0 0 0 0 0 0 0 0 0 0 0 0 0 0 0 0 0 0 0 0 0 0 0 0 0 0 0 0 0 0 0 0 0 0 0 0 0 0 0 0 0 0 0 0 0 0 0 0 14 14 -193 -193 -209 -209 -209 -209 -209 -209 -209 -209 -193 -193 16 19 18 18 16 15 15 13 13 11 10 10 10 11 11 0 0 0 0 0 0 0 0 0 0 0 0 9 10 11 11 10 0 0 0 0 0 0 0 0 0 0 0 0 9 10 0 0 0 0 0 0 0 0 0 9 0 0 0 8 9 0 0 9 0 0 0 0 0 0 0 0 0 0 0 0 0 0 0 0 0 0 9 9 10 10 9 0 0 0 0 0 0 0 0 0 0 0 0 0 9 0 0 14 11 11 11 11 9 9 10 11 0 0 0 0 0 11 11 11 10 10 11 10 10 10 0 9 9 0 12 10 10 9 9 11 0 0 0 0 14 12 14 13 13 15 16 16 19 14 16 14 18 19 19 21 20 14 21 23 19 17 17 17 18 18 21 22 -193 26 29 29 31 30 22 21 19 20 17 16 15 15 12 14 15 15 -193 15 22 21 22 17 25 25 25 24 -193 29 29 29 27 26 26 26 26 21 22 22 22 25 27 28 28 29 30 29 28 29 29 30 27 26 25 25 28 28 25 25 25 28 29 0 0 0 0 0
    0 0 0 0 0 0 0 0 0 0 0 0 0 0 0 0 0 0 0 0 0 0 0 0 0 0 0 0 0 0 0 0 0 0 0 0 0 0 0 0 0 0 0 0 0 0 0 0 0 0 0 0 0 0 0 0 0 0 0 0 0 0 0 0 0 0 0 0 0 0 13 14 -177 -209 -209 -193 -193 -209 -209 -193 -209 -209 -193 -193 17 18 18 18 16 15 14 13 13 11 10 11 10 11 11 0 0 0 0 0 0 0 0 0 0 0 0 0 10 11 12 10 9 0 0 0 0 9 0 0 0 0 -193 9 9 11 0 0 0 0 0 0 0 0 0 9 0 0 0 0 0 0 0 9 0 0 0 0 0 0 0 0 0 0 0 0 0 0 0 0 0 0 0 0 9 10 9 0 0 0 0 0 0 0 0 0 0 0 0 0 9 0 0 14 10 11 11 11 9 9 10 11 0 0 0 0 9 11 12 12 10 10 11 10 10 11 9 10 10 9 12 10 10 10 9 10 0 0 0 0 13 11 13 13 13 14 15 15 19 14 16 15 18 20 20 21 21 15 22 23 19 18 17 17 17 18 20 21 -193 26 28 28 31 29 20 19 18 20 16 15 15 14 12 14 15 15 -193 15 22 21 22 18 25 25 25 24 -193 29 29 29 28 26 26 26 26 22 22 23 22 25 27 28 28 29 30 29 29 30 29 30 28 27 26 26 29 28 25 25 24 28 29 0 0 0 0 0
    0 0 0 0 0 0 0 0 0 0 0 0 0 0 0 0 0 0 0 0 0 0 0 0 0 0 0 0 0 0 0 0 0 0 0 0 0 0 0 0 0 0 0 0 0 0 0 0 0 0 0 0 0 0 0 0 0 0 0 0 0 0 0 0 0 0 0 0 0 0 13 -193 -193 -193 -209 -177 -193 -193 -209 -193 -193 -193 -209 13 17 18 17 18 16 15 14 13 14 11 11 11 10 11 11 0 0 0 0 0 0 0 0 0 0 0 0 0 10 11 12 10 10 9 0 0 0 9 0 0 0 0 -193 8 9 11 0 9 9 9 9 0 8 0 0 9 0 0 0 0 0 0 0 0 0 0 0 0 0 0 0 0 0 0 0 0 0 0 0 0 0 0 0 0 9 9 9 0 0 0 0 0 0 0 0 0 0 0 0 0 10 0 0 13 10 11 11 11 10 9 11 12 9 9 0 9 9 11 12 12 11 11 12 11 11 12 9 10 10 10 11 10 10 9 0 10 0 0 0 0 13 11 13 13 13 14 15 15 19 14 15 15 18 20 20 21 21 16 23 23 20 18 16 17 16 17 19 20 -193 25 26 27 28 26 19 19 17 19 16 15 15 14 12 15 15 15 11 15 21 21 21 18 24 24 25 24 -193 29 29 29 28 27 26 26 27 23 23 23 24 25 27 29 28 29 30 29 29 30 29 30 29 27 26 27 29 28 26 26 25 29 30 0 0 0 0 0
    0 0 0 0 0 0 0 0 0 0 0 0 0 0 0 0 0 0 0 0 0 0 0 0 0 0 0 0 0 0 0 0 0 0 0 0 0 0 0 0 0 0 0 0 0 0 0 0 0 0 0 0 0 0 0 0 0 0 0 0 0 0 0 0 0 0 0 0 0 9 12 -193 -193 -193 -209 -177 -193 -177 -193 -193 -177 -209 -209 13 17 17 17 17 15 15 14 13 14 11 11 11 10 11 11 0 0 0 0 0 0 0 0 0 0 0 0 0 10 12 12 10 10 9 0 0 0 10 9 0 9 0 0 8 9 12 9 10 10 9 9 9 9 9 0 0 0 0 0 0 0 0 0 0 0 0 0 0 0 0 0 0 0 0 0 0 0 0 0 0 0 0 0 0 9 9 0 0 0 0 0 0 0 0 0 0 0 0 0 0 10 0 0 12 10 11 11 11 10 10 11 12 9 9 0 9 10 11 12 12 11 11 12 11 12 14 10 10 10 10 10 9 9 9 0 10 0 0 0 0 13 12 13 13 13 15 15 15 19 14 16 15 18 20 21 22 21 16 23 24 20 18 15 -193 15 16 18 19 13 22 22 23 23 23 18 17 16 19 16 15 15 15 12 15 16 16 11 15 20 20 21 17 24 24 24 -193 -177 29 29 29 29 -193 26 26 27 24 24 25 25 26 27 30 29 30 30 29 29 30 29 30 29 27 26 27 28 28 26 26 25 28 30 0 0 0 0 0
    0 0 0 0 0 0 0 0 0 0 0 0 0 0 0 0 0 0 0 0 0 0 0 0 0 0 0 0 0 0 0 0 0 0 0 0 0 0 0 0 0 0 0 0 0 0 0 0 0 0 0 0 0 0 0 0 0 0 0 0 0 0 0 0 0 0 0 0 0 10 13 13 -209 12 13 -177 -209 -193 -209 -193 -209 16 14 14 17 17 17 17 15 15 14 14 14 12 11 11 11 11 11 0 0 0 0 0 0 0 0 0 0 0 0 0 10 11 12 10 10 9 0 0 9 10 9 9 9 0 0 0 9 12 9 11 10 10 10 9 10 10 0 0 0 0 0 0 0 0 0 0 0 0 0 0 0 0 0 0 0 0 0 0 0 0 0 0 0 0 0 0 9 9 0 0 0 0 0 0 0 0 0 0 0 0 0 0 10 0 0 11 10 11 11 11 11 10 11 13 10 10 9 9 10 11 12 12 11 11 13 12 13 15 10 10 10 9 9 9 0 9 0 10 9 0 0 0 13 12 12 13 14 14 15 15 20 15 16 16 18 21 21 22 22 17 24 24 20 19 15 -193 15 16 18 19 13 21 21 21 21 22 17 16 16 19 16 15 15 15 12 15 16 16 11 15 20 20 20 18 24 -193 26 -209 -209 29 29 29 -193 -193 -193 26 27 24 25 26 26 26 28 31 30 30 29 28 28 29 29 30 29 28 27 28 29 28 26 26 25 29 30 0 0 0 0 0
    0 0 0 0 0 0 0 0 0 0 0 0 0 0 0 0 0 0 0 0 0 0 0 0 0 0 0 0 0 0 0 0 0 0 0 0 0 0 0 0 0 0 0 0 0 0 0 0 0 0 0 0 0 0 0 0 0 0 0 0 0 0 0 0 0 0 0 0 0 12 14 14 -193 14 16 -209 -209 -209 -209 271 -209 18 14 14 16 16 16 16 14 15 14 14 14 12 11 11 11 11 11 0 0 0 0 0 0 0 0 0 0 0 0 0 11 12 12 10 11 10 9 9 9 10 9 9 9 0 0 0 0 12 10 12 11 10 10 10 10 10 0 0 0 0 0 0 0 9 0 0 0 0 0 0 0 0 0 0 0 0 0 0 0 0 0 0 0 9 0 0 0 0 0 0 0 0 0 0 0 0 0 0 0 0 0 0 9 0 0 11 10 11 11 11 11 10 12 13 10 10 0 9 10 10 11 12 11 11 12 12 12 14 9 10 9 9 0 0 0 9 0 10 11 10 10 10 14 13 13 14 15 14 15 15 20 15 16 16 18 21 21 22 22 18 24 24 21 19 15 -193 15 16 17 17 12 18 18 18 17 21 15 15 15 19 16 15 15 14 12 15 16 16 11 14 19 19 20 19 -193 -177 30 -209 38 31 30 30 30 28 27 27 27 25 25 26 27 26 29 32 30 30 29 28 27 29 28 30 29 28 27 28 29 28 26 27 26 29 30 0 0 0 0 0
    0 0 0 0 0 0 0 0 0 0 0 0 0 0 0 0 0 0 0 0 0 0 0 0 0 0 0 0 0 0 0 0 0 0 0 0 0 0 0 0 0 0 0 0 0 0 0 0 0 0 0 0 0 0 0 0 0 0 0 0 0 0 0 0 0 0 0 0 0 13 13 13 -193 11 10 -209 -209 -209 -209 274 0 16 12 13 15 15 15 15 14 15 14 14 14 12 12 12 11 11 11 0 0 0 0 0 0 0 0 0 0 0 0 0 11 13 12 10 11 10 9 9 9 10 9 9 9 0 0 0 0 13 10 12 11 10 10 11 11 11 0 0 0 0 0 0 0 9 0 0 0 0 0 0 0 0 0 0 0 0 0 0 0 0 0 0 0 0 0 0 0 9 9 0 0 0 0 0 0 0 0 0 0 0 0 0 9 0 0 10 9 11 11 11 11 10 11 13 10 10 0 0 9 10 10 11 10 10 12 11 11 13 9 9 9 0 0 0 0 9 9 10 13 11 12 12 15 14 14 16 15 14 15 14 20 15 16 15 18 20 21 22 22 17 24 24 21 19 15 16 15 16 17 17 11 17 16 16 15 21 15 15 15 19 16 15 15 14 12 15 16 16 11 15 19 19 19 20 -193 -193 35 56 39 35 32 32 32 29 28 27 27 25 25 26 26 27 29 32 30 31 30 29 29 31 29 32 32 30 29 30 30 28 27 27 26 29 30 0 0 0 0 0
    0 0 0 0 0 0 0 0 0 0 0 0 0 0 0 0 0 0 0 0 0 0 0 0 0 0 0 0 0 0 0 0 0 0 0 0 0 0 0 0 0 0 0 0 0 0 0 0 0 0 0 0 0 0 0 0 0 0 0 0 0 0 0 0 0 0 0 0 0 14 13 12 0 9 0 -209 -193 -193 -193 277 0 14 12 13 14 14 14 15 13 14 14 14 14 12 12 12 11 12 11 0 0 0 0 0 0 0 0 0 0 0 0 0 11 12 11 9 11 9 0 0 0 9 9 9 9 0 0 0 0 12 10 12 11 10 10 11 11 11 0 9 0 0 0 0 0 9 0 0 0 0 0 0 0 0 0 0 0 0 0 0 0 0 0 0 0 0 0 0 0 9 9 0 0 0 0 0 0 0 0 0 0 0 0 0 0 0 0 9 9 10 10 10 10 10 11 12 10 10 0 0 0 9 9 9 9 10 11 10 10 12 0 9 0 0 0 0 0 10 10 11 15 13 14 13 16 16 15 17 17 15 15 14 20 15 16 15 18 20 21 22 22 17 24 24 21 18 15 16 15 16 17 17 11 17 16 17 16 21 15 15 15 19 16 15 15 14 12 15 16 16 11 14 18 18 19 20 25 -193 35 43 39 36 34 34 34 30 29 28 27 25 25 25 26 27 29 33 32 32 33 -193 34 -193 36 37 -193 36 34 33 31 28 27 28 26 30 30 0 0 0 0 0
    0 0 0 0 0 0 0 0 0 0 0 0 0 0 0 0 0 0 0 0 0 0 0 0 0 0 0 0 0 0 0 0 0 0 0 0 0 0 0 0 0 0 0 0 0 0 0 0 0 0 0 0 0 0 0 0 0 0 0 0 0 0 0 0 0 0 0 0 0 13 11 11 0 0 0 -193 -193 -193 -193 -193 0 15 12 13 14 14 14 15 13 14 13 14 14 12 12 12 11 11 11 9 0 0 0 0 0 0 0 0 0 0 0 0 10 12 11 10 11 9 0 0 0 9 9 9 9 0 0 0 0 12 10 11 11 10 10 10 11 11 0 0 0 0 0 0 0 9 0 0 0 0 0 0 0 0 0 0 0 0 0 0 0 0 0 0 0 0 0 0 0 9 10 0 9 0 0 0 0 0 0 0 0 0 0 0 0 0 0 0 0 10 10 10 10 10 11 12 10 11 0 0 0 9 9 9 9 10 11 10 10 11 0 0 0 0 0 0 0 11 10 12 17 14 16 14 17 16 15 17 17 15 16 14 20 16 16 15 18 20 21 22 21 17 24 24 21 18 16 16 15 16 17 17 11 17 16 17 16 21 15 15 15 19 16 16 15 15 12 16 16 16 11 14 19 19 20 22 26 -193 37 41 39 37 34 34 34 30 29 28 27 26 26 27 27 27 32 37 37 36 36 -193 38 -209 40 40 47 39 38 36 33 29 28 29 28 31 31 0 0 0 0 0
    0 0 0 0 0 0 0 0 0 0 0 0 0 0 0 0 0 0 0 0 0 0 0 0 0 0 0 0 0 0 0 0 0 0 0 0 0 0 0 0 0 0 0 0 0 0 0 0 0 0 0 0 0 0 0 0 0 0 0 0 0 0 0 0 0 0 0 0 0 14 10 11 -193 -193 -193 -209 -193 -193 0 -209 0 15 12 13 15 15 15 16 14 15 13 14 14 12 12 12 11 11 11 9 0 0 0 0 0 0 0 0 0 0 0 0 10 11 11 10 11 10 9 9 9 9 9 0 9 0 0 0 0 10 9 10 10 10 10 10 10 10 0 0 0 0 0 0 0 9 0 0 0 0 0 0 0 0 0 0 0 0 0 0 0 0 0 0 0 0 0 0 0 9 10 9 9 0 0 0 0 0 0 0 0 0 0 0 0 0 0 0 0 10 10 10 10 10 11 11 10 11 0 0 0 0 0 9 9 9 11 10 10 11 0 0 0 0 0 0 0 11 11 12 18 16 17 15 17 16 16 17 18 15 16 13 20 16 16 15 18 19 21 21 21 17 24 24 20 18 16 16 15 16 17 17 11 18 16 18 17 21 15 16 16 20 17 17 16 15 13 17 18 17 11 15 -193 19 22 25 31 37 39 44 40 38 35 35 34 30 29 28 27 26 27 28 28 28 36 39 40 38 38 -209 40 49 45 45 49 40 41 39 36 31 30 31 30 32 33 0 0 0 0 0
    0 0 0 0 0 0 0 0 0 0 0 0 0 0 0 0 0 0 0 0 0 0 0 0 0 0 0 0 0 0 0 0 0 0 0 0 0 0 0 0 0 0 0 0 0 0 0 0 0 0 0 0 0 0 0 0 0 0 0 0 0 0 0 0 0 0 0 0 0 14 10 -193 -193 -193 -193 -193 -193 0 0 -209 0 13 11 13 15 15 15 16 14 15 13 14 14 12 12 11 11 12 11 10 9 0 0 0 0 0 0 0 0 0 0 0 9 10 11 10 11 9 9 0 0 0 0 0 0 0 0 0 0 9 0 9 9 9 9 9 9 9 0 0 0 0 0 0 0 9 0 0 0 0 0 0 0 0 0 0 0 0 0 0 0 0 0 0 0 0 0 0 0 9 10 9 9 0 0 0 0 0 0 0 0 0 0 0 0 0 0 0 0 10 10 10 10 10 11 11 10 11 0 0 0 0 0 9 10 10 12 11 11 11 9 0 0 0 0 0 0 12 11 13 19 16 18 15 17 17 17 17 18 15 16 13 21 16 16 15 18 19 20 21 21 16 23 24 20 17 15 15 15 16 17 17 11 19 18 20 20 22 17 17 18 22 18 18 18 17 14 -193 -193 -193 11 16 -193 -193 23 30 37 40 41 45 40 39 36 36 35 31 30 29 28 27 27 30 29 29 38 40 42 39 39 44 42 51 46 47 50 43 43 41 38 36 33 35 -193 35 -209 0 0 0 0 0
    0 0 0 0 0 0 0 0 0 0 0 0 0 0 0 0 0 0 0 0 0 0 0 0 0 0 0 0 0 0 0 0 0 0 0 0 0 0 0 0 0 0 0 0 0 0 0 0 0 0 0 0 0 0 0 0 0 0 0 0 0 0 0 0 0 0 0 0 0 14 10 11 -209 -193 -193 -209 -193 0 0 0 0 13 11 13 15 15 15 16 13 15 13 14 14 12 12 11 12 13 12 12 10 9 9 0 0 0 0 0 0 0 0 0 9 10 10 9 10 9 0 0 0 0 0 0 0 0 0 0 0 0 0 0 0 0 0 0 0 0 0 0 0 0 0 0 0 0 0 0 0 0 0 0 0 0 0 0 0 0 0 0 0 0 0 0 0 0 0 0 0 9 10 9 9 9 0 0 0 0 0 0 0 0 0 0 0 0 0 0 0 10 9 10 9 10 10 10 10 11 0 0 0 0 0 9 10 10 12 12 12 11 10 9 9 9 0 0 0 12 11 12 20 16 18 15 17 17 17 18 18 15 17 13 21 16 16 14 18 -193 20 20 21 -193 23 24 20 17 16 15 15 17 18 18 12 21 21 22 23 23 20 19 20 23 20 20 20 19 -193 -177 -177 -177 -193 -209 -209 -193 27 37 40 41 41 44 40 40 37 37 36 31 30 29 27 27 27 30 29 30 39 42 44 42 43 51 46 51 48 48 50 44 44 43 40 39 36 37 -193 -193 -209 0 0 0 0 0
    0 0 0 0 0 0 0 0 0 0 0 0 0 0 0 0 0 0 0 0 0 0 0 0 0 0 0 0 0 0 0 0 0 0 0 0 0 0 0 0 0 0 0 0 0 0 0 0 0 0 0 0 0 0 0 0 0 0 0 0 0 0 0 0 0 0 0 0 0 13 9 11 0 0 0 -209 -193 0 0 0 0 13 12 13 16 15 15 16 14 16 13 14 14 12 13 12 13 14 13 14 13 12 12 0 0 0 0 0 0 0 0 0 9 10 10 9 10 9 0 0 0 0 0 0 0 0 0 0 0 0 0 0 0 0 0 0 0 0 0 0 0 0 0 0 0 0 0 0 0 0 0 0 0 0 0 0 0 0 0 0 0 0 0 0 0 0 0 0 0 9 10 9 9 9 0 0 0 0 0 0 0 0 0 0 0 0 0 0 0 -193 9 10 9 10 10 10 11 12 0 0 0 9 9 10 11 11 12 12 12 11 11 10 10 10 9 0 9 12 11 12 20 16 18 15 17 17 16 17 18 14 16 12 20 15 15 14 18 -193 19 20 20 -193 23 24 20 17 16 16 15 17 18 18 12 22 22 23 24 24 21 21 22 24 21 21 -193 -193 -177 -177 -177 -177 -193 -193 -193 33 38 40 41 41 41 43 40 40 38 38 36 32 31 31 28 28 28 31 30 32 41 42 45 44 46 52 48 52 49 49 50 45 45 44 41 41 38 39 -193 -193 -193 0 0 0 0 0
    0 0 0 0 0 0 0 0 0 0 0 0 0 0 0 0 0 0 0 0 0 0 0 0 0 0 0 0 0 0 0 0 0 0 0 0 0 0 0 0 0 0 0 0 0 0 0 0 0 0 0 0 0 0 0 0 0 0 0 0 0 0 0 0 0 0 0 0 0 11 0 10 0 0 0 -193 -193 -193 0 -193 0 13 12 14 17 16 16 17 14 16 13 14 13 12 13 13 13 16 14 17 16 17 17 0 0 0 0 0 0 0 0 0 9 11 11 10 11 9 0 0 0 0 0 0 0 0 0 0 0 0 0 0 0 0 0 0 0 0 9 9 8 0 0 0 0 0 0 0 0 0 0 0 0 0 0 0 0 0 0 0 0 0 0 0 0 0 0 0 0 9 9 0 -193 -193 0 0 0 0 0 0 0 0 0 0 0 0 0 0 0 -193 -193 -193 -193 -193 10 10 12 14 9 10 10 10 11 12 14 12 13 13 12 12 12 11 11 10 10 0 9 12 11 12 20 15 18 16 17 17 16 17 17 14 17 12 20 15 14 13 17 -193 19 19 20 -193 22 24 20 16 16 16 16 17 18 19 13 23 23 23 26 25 22 23 23 29 23 -193 -209 -193 -177 -193 -193 -193 -209 32 39 39 41 40 41 41 40 42 40 40 38 38 37 34 33 34 30 30 29 35 34 36 42 43 45 45 47 51 48 51 49 49 49 46 46 46 43 43 40 41 -193 -209 -193 0 0 0 0 0
    0 0 0 0 0 0 0 0 0 0 0 0 0 0 0 0 0 0 0 0 0 0 0 0 0 0 0 0 0 0 0 0 0 0 0 0 0 0 0 0 0 0 0 0 0 0 0 0 0 0 0 0 0 0 0 0 0 0 0 0 0 0 0 0 0 0 0 0 0 10 0 10 0 0 0 0 -193 -193 0 9 0 13 13 14 18 17 17 18 15 17 14 14 14 12 15 15 15 18 18 20 21 22 21 9 0 0 0 0 0 0 0 0 9 11 11 10 11 9 9 0 0 0 0 0 0 0 0 0 0 0 0 0 0 0 0 0 0 0 9 9 0 0 0 0 0 0 0 0 0 0 0 0 0 0 0 0 0 0 0 0 0 0 0 0 0 0 0 0 0 9 0 0 -193 -193 0 0 0 0 0 0 0 0 0 0 0 0 0 0 0 -193 -193 -193 -177 -193 9 9 12 15 10 12 13 13 14 14 16 14 15 13 13 12 12 11 12 11 10 9 9 11 11 11 20 15 18 15 16 16 15 16 16 14 16 11 19 14 13 13 17 -193 18 18 18 -193 20 23 19 15 15 16 16 18 19 19 13 24 23 24 27 27 -193 28 28 38 26 26 -193 -193 -193 31 34 33 29 36 40 40 41 41 41 41 41 42 41 40 39 39 38 35 34 36 32 33 36 41 40 41 43 44 46 46 48 51 48 51 49 49 49 47 47 47 43 44 41 42 43 44 -193 0 0 0 0 0
    0 0 0 0 0 0 0 0 0 0 0 0 0 0 0 0 0 0 0 0 0 0 0 0 0 0 0 0 0 0 0 0 0 0 0 0 0 0 0 0 0 0 0 0 0 0 0 0 0 0 0 0 0 0 0 0 0 0 0 0 0 0 0 0 0 0 0 0 0 10 0 11 0 9 9 9 -193 -193 0 10 9 13 15 14 19 18 17 18 16 18 15 15 15 14 17 18 18 -193 -193 -193 -193 24 24 11 9 0 0 0 0 0 0 0 0 10 10 10 11 9 9 0 0 0 0 0 0 0 0 0 0 0 0 0 0 0 0 0 0 0 9 9 0 0 0 0 0 0 0 0 0 -177 0 0 0 0 0 0 0 0 0 0 0 0 0 0 0 0 0 0 0 0 0 -193 -193 391 0 0 0 0 0 0 0 0 0 0 0 0 0 0 0 -193 -193 -193 -193 -193 9 9 12 16 11 16 17 18 18 19 19 16 16 14 14 13 12 11 12 10 10 9 9 10 11 10 19 14 18 15 16 16 16 16 17 14 16 12 19 14 13 13 -193 -193 16 17 17 -193 18 23 18 15 15 17 17 19 20 20 14 25 25 26 28 29 39 37 39 40 36 33 37 34 -193 36 37 37 35 39 41 41 42 41 42 42 41 42 41 40 39 38 37 36 35 37 37 39 41 42 42 42 44 45 46 46 48 50 48 50 49 49 49 47 46 47 44 44 42 43 43 44 47 0 0 0 0 0
    0 0 0 0 0 0 0 0 0 0 0 0 0 0 0 0 0 0 0 0 0 0 0 0 0 0 0 0 0 0 0 0 0 0 0 0 0 0 0 0 0 0 0 0 0 0 0 0 0 0 0 0 0 0 0 0 0 0 0 0 0 0 0 0 0 0 0 0 0 10 0 11 9 9 10 10 9 10 10 11 10 13 16 14 19 18 18 18 16 18 16 16 17 15 19 20 21 -193 -177 -209 -177 25 -209 -193 0 0 0 0 0 0 0 0 0 10 10 10 10 9 0 0 0 0 0 0 0 0 0 0 0 0 0 0 0 0 0 0 0 0 9 9 0 0 0 0 0 0 0 0 0 9 0 0 0 0 0 0 0 0 0 0 0 0 0 0 0 0 0 0 0 0 0 -193 -193 -193 0 0 0 0 0 0 0 0 0 0 0 0 0 0 0 0 0 -193 -193 -193 0 0 12 16 13 19 20 22 21 21 21 18 17 14 14 13 12 11 12 10 10 8 9 9 10 10 18 14 17 15 15 16 16 16 16 14 16 12 18 13 12 12 14 -193 15 16 16 12 17 22 18 15 16 18 17 19 20 21 16 25 27 28 28 31 38 39 40 41 39 38 40 39 -193 39 39 39 39 40 42 41 43 42 42 42 41 42 41 40 39 38 38 37 37 39 40 41 42 43 43 43 44 46 46 47 49 50 48 49 48 48 47 46 45 46 44 44 43 43 44 44 46 0 0 0 0 0
    0 0 0 0 0 0 0 0 0 0 0 0 0 0 0 0 0 0 0 0 0 0 0 0 0 0 0 0 0 0 0 0 0 0 0 0 0 0 0 0 0 0 0 0 0 0 0 0 0 0 0 0 0 0 0 0 0 0 0 0 0 0 0 0 0 0 0 0 0 9 0 12 9 10 11 10 10 10 10 11 10 14 17 14 19 18 18 18 17 19 18 18 20 19 22 24 24 26 28 28 -193 27 -193 -193 12 0 0 0 0 0 0 0 0 9 0 9 0 0 0 0 0 0 0 0 0 0 0 0 0 0 0 0 0 0 0 0 0 0 9 10 0 0 0 0 0 0 0 0 0 9 0 0 0 0 0 0 0 0 0 0 0 0 0 0 0 0 0 0 0 0 -193 -193 -193 -193 0 0 0 0 0 0 0 0 0 0 0 0 0 0 0 0 0 -193 0 0 0 0 11 17 14 20 23 24 22 22 22 19 18 14 14 13 12 11 12 10 10 0 9 9 9 9 18 13 17 14 15 16 16 17 17 14 17 12 19 14 13 12 14 14 15 16 16 12 17 22 17 15 16 19 18 20 21 21 18 26 28 30 29 33 37 40 40 40 39 39 40 40 41 40 40 40 40 41 42 41 43 41 41 41 41 42 41 40 40 39 41 40 40 42 43 43 44 44 44 44 45 46 46 48 49 49 48 48 48 47 46 47 45 47 45 45 44 45 46 46 47 0 0 0 0 0
    0 0 0 0 0 0 0 0 0 0 0 0 0 0 0 0 0 0 0 0 0 0 0 0 0 0 0 0 0 0 0 0 0 0 0 0 0 0 0 0 0 0 0 0 0 0 0 0 0 0 0 0 0 0 0 0 0 0 0 0 0 0 0 0 0 0 0 0 0 9 0 12 9 10 12 11 11 11 11 12 11 15 17 14 19 18 18 18 18 20 20 20 22 22 25 27 27 29 30 30 31 29 27 19 16 12 0 9 0 9 0 9 9 10 0 0 0 0 0 0 0 0 0 0 0 0 9 0 0 0 0 0 0 0 0 0 0 0 9 11 9 0 0 0 0 10 0 0 0 9 0 0 0 0 0 0 0 0 0 0 0 0 0 0 0 0 0 0 0 0 -193 -193 -193 -193 0 0 0 0 0 0 0 0 0 0 0 0 0 0 0 0 -193 -193 0 0 0 0 11 17 17 23 25 26 24 23 23 20 19 15 15 13 12 11 12 10 10 0 0 0 0 0 -193 12 16 14 15 16 16 18 18 15 19 13 20 15 14 14 14 15 15 16 16 13 17 22 17 16 17 19 19 21 22 22 20 27 30 32 29 34 37 39 39 40 39 39 40 40 41 41 40 41 40 41 42 41 43 41 41 41 40 41 41 39 39 37 41 41 42 43 44 44 45 45 45 45 45 46 46 48 50 50 49 48 48 48 46 47 45 47 45 45 45 46 46 46 47 0 0 0 0 0
    0 0 0 0 0 0 0 0 0 0 0 0 0 0 0 0 0 0 0 0 0 0 0 0 0 0 0 0 0 0 0 0 0 0 0 0 0 0 0 0 0 0 0 0 0 0 0 0 0 0 0 0 0 0 0 0 0 0 0 0 0 0 0 0 0 0 0 0 0 9 9 13 10 10 13 12 12 12 12 12 11 17 18 15 20 19 19 20 21 22 22 23 25 25 28 30 30 32 32 33 32 29 27 17 14 13 11 11 10 10 9 11 12 13 9 9 0 0 0 0 0 0 0 0 0 0 9 0 0 0 0 0 0 0 0 0 0 0 9 10 9 0 0 9 9 11 9 9 9 9 0 0 0 0 0 0 0 0 0 0 0 0 0 -193 0 0 0 0 0 -193 -193 -193 -193 -193 -193 0 0 0 0 0 0 0 0 0 0 0 0 0 0 0 -193 0 0 9 9 0 13 20 21 25 28 29 28 27 24 22 20 16 15 14 12 11 12 10 10 0 0 0 0 0 15 12 16 14 15 16 17 18 18 16 20 14 20 17 15 17 15 15 15 17 16 14 17 22 16 16 18 20 20 22 23 23 -193 27 30 32 29 34 37 39 39 40 40 39 41 40 41 41 40 41 41 41 42 41 43 41 40 41 39 40 40 39 38 35 39 42 42 43 44 43 45 45 45 45 45 46 47 49 51 50 49 48 48 48 46 47 45 47 45 45 45 45 46 46 46 0 0 0 0 0
    0 0 0 0 0 0 0 0 0 0 0 0 0 0 0 0 0 0 0 0 0 0 0 0 0 0 0 0 0 0 0 0 0 0 0 0 0 0 0 0 0 0 0 0 0 0 0 0 0 0 0 0 0 0 0 0 0 0 0 0 0 0 0 0 0 0 0 0 0 9 9 13 10 11 14 12 12 13 13 13 12 18 18 16 21 20 20 21 22 23 23 25 27 27 30 31 30 31 33 33 32 30 27 16 13 15 12 12 11 13 10 13 17 19 10 10 11 10 9 9 10 9 0 0 0 9 11 9 9 0 0 0 0 0 0 0 0 0 9 11 9 0 9 10 10 11 10 9 9 10 0 0 0 0 0 0 0 0 0 9 -193 -209 -209 -193 -193 0 0 0 -193 -193 -193 -193 -193 -193 -193 -193 -193 9 -177 14 26 25 -193 -193 0 0 0 0 0 -193 -193 0 0 10 10 9 14 22 24 27 31 33 32 31 28 23 22 17 15 14 12 11 12 10 10 0 0 0 0 0 14 11 15 14 15 17 18 19 19 17 21 16 21 19 18 20 16 16 16 18 17 15 18 21 16 16 18 21 20 22 23 24 -177 28 30 33 29 34 36 39 38 40 40 39 40 41 42 41 40 41 41 41 43 41 43 40 41 41 39 41 40 38 38 34 39 42 42 43 44 44 45 45 45 45 45 46 47 48 51 50 50 49 48 48 46 48 45 48 46 46 46 46 46 46 46 0 0 0 0 0
    0 0 0 0 0 0 0 0 0 0 0 0 0 0 0 0 0 0 0 0 0 0 0 0 0 0 0 0 0 0 0 0 0 0 0 0 0 0 0 0 0 0 0 0 0 0 0 0 0 0 0 0 0 0 0 0 0 0 0 0 0 0 0 0 0 0 0 0 0 9 9 14 11 11 14 12 13 13 14 13 12 18 18 16 21 20 21 21 23 24 24 26 28 29 32 32 30 32 33 34 33 31 28 25 24 24 22 18 16 18 13 17 22 23 12 13 17 14 18 15 16 14 9 11 14 12 16 10 12 0 0 0 0 0 0 0 0 0 10 12 9 9 10 10 12 13 11 10 10 11 10 10 10 9 0 9 11 12 12 15 26 29 27 29 29 28 -209 -209 -177 -193 -193 -193 -193 0 9 -193 11 13 15 25 28 28 28 -193 -209 9 9 0 0 -193 0 0 0 10 11 10 16 24 26 29 32 35 35 35 34 -193 -193 18 16 14 12 11 12 10 9 0 0 0 0 0 13 11 15 14 15 17 18 20 20 18 22 18 22 21 20 22 17 17 16 18 17 16 18 21 15 16 19 21 20 23 24 25 -177 28 31 33 29 35 36 39 38 39 40 39 40 40 -193 41 40 41 41 40 43 42 43 41 41 41 40 41 41 39 39 35 39 42 42 42 44 43 45 45 45 45 45 47 47 48 51 50 50 48 48 47 46 48 46 49 46 47 46 46 47 47 46 0 0 0 0 0
    0 0 0 0 0 0 0 0 0 0 0 0 0 0 0 0 0 0 0 0 0 0 0 0 0 0 0 0 0 0 0 0 0 0 0 0 0 0 0 0 0 0 0 0 0 0 0 0 0 0 0 0 0 0 0 0 0 0 0 0 0 0 0 0 0 0 0 0 0 0 9 12 10 11 13 12 12 13 14 13 12 18 17 15 20 20 21 -193 23 24 24 27 31 31 34 32 31 34 35 34 35 32 30 27 28 28 26 23 23 22 19 23 25 26 20 17 23 21 25 23 23 25 15 20 25 20 22 13 18 0 0 11 11 0 -209 0 9 0 10 13 10 10 11 11 15 16 17 14 13 16 13 15 16 13 11 12 18 18 20 22 27 31 29 30 31 29 27 -209 -193 -177 -209 -209 0 0 10 14 14 19 24 27 30 29 29 -193 -193 12 11 0 0 0 0 0 0 10 12 10 19 25 28 31 33 35 36 36 35 28 -209 18 17 15 12 11 12 9 9 0 0 0 0 0 14 11 15 14 15 17 19 21 21 -193 23 -193 23 -193 22 24 18 18 17 20 18 17 18 21 15 16 19 21 20 23 24 -209 -177 28 31 34 29 36 37 39 37 38 39 39 39 40 277 -193 -193 -193 -193 40 43 42 43 41 41 41 40 42 41 39 39 35 39 41 41 42 44 43 45 45 45 45 45 46 46 48 50 49 49 48 48 47 46 48 46 49 46 47 46 46 47 46 46 0 0 0 0 0
    0 0 0 0 0 0 0 0 0 0 0 0 0 0 0 0 0 0 0 0 0 0 0 0 0 0 0 0 0 0 0 0 0 0 0 0 0 0 0 0 0 0 0 0 0 0 0 0 0 0 0 0 0 0 0 0 0 0 0 0 0 0 0 0 0 0 0 0 0 0 9 12 10 10 13 12 12 13 14 13 12 19 17 15 -193 20 -193 -177 -193 -193 26 29 34 34 36 34 33 35 35 34 34 31 30 28 29 28 27 25 25 25 24 26 28 28 26 22 -193 -193 27 27 26 27 -193 25 27 24 25 19 22 23 11 17 18 -193 -209 -193 11 9 11 13 10 11 11 12 19 20 22 22 21 22 21 22 24 22 20 22 24 22 23 25 28 32 30 30 31 30 29 28 -193 -193 -209 -209 0 0 11 19 21 23 27 29 32 30 30 -193 -193 -193 -193 0 0 -193 0 0 0 10 15 16 23 26 29 33 34 36 37 37 37 40 -209 -193 18 16 12 11 11 0 9 0 0 0 0 0 14 12 15 14 15 18 20 22 21 -193 23 -193 -193 -193 23 25 -193 -193 19 21 19 -193 19 21 14 16 19 -193 -193 -193 -193 -193 -177 29 32 34 29 36 37 39 36 37 39 38 38 39 -193 -193 -193 -193 660 40 43 42 43 40 41 41 40 41 41 39 39 35 39 41 40 41 43 42 44 44 44 44 44 46 46 47 49 48 48 47 47 47 46 48 46 48 46 46 46 46 46 46 46 0 0 0 0 0
    0 0 0 0 0 0 0 0 0 0 0 0 0 0 0 0 0 0 0 0 0 0 0 0 0 0 0 0 0 0 0 0 0 0 0 0 0 0 0 0 0 0 0 0 0 0 0 0 0 0 0 0 0 0 0 0 0 0 0 0 0 0 0 0 0 0 0 0 0 0 10 12 10 11 13 12 12 14 15 13 12 20 17 16 -193 21 -193 -177 -193 -193 30 32 36 35 37 36 34 36 36 35 35 32 31 30 31 29 28 26 26 26 26 28 31 31 31 -209 -193 -193 31 30 29 30 27 27 29 26 27 24 26 28 20 23 -193 -193 -209 -193 12 9 11 12 10 11 12 12 21 24 26 27 26 26 25 26 27 26 25 26 26 26 26 26 28 32 30 30 31 31 30 29 30 29 -209 -209 9 10 14 24 26 26 30 31 33 31 31 -193 -193 -193 -209 0 -193 -193 0 0 0 11 19 24 26 28 30 34 35 36 37 38 37 39 -193 -209 20 18 13 11 11 0 0 0 0 0 0 0 14 12 16 14 16 18 20 22 21 -193 -177 -193 -193 -193 -177 -193 -193 -193 20 22 -193 -193 164 165 14 16 19 -177 -193 291 292 -193 -177 30 33 34 30 36 36 38 35 37 38 37 38 39 -177 -193 -193 657 660 -193 43 -193 43 -193 41 41 40 41 40 39 38 34 39 40 40 40 42 42 44 43 43 43 43 45 45 46 48 47 47 47 47 47 46 48 46 48 46 46 46 46 46 46 46 0 0 0 0 0
    0 0 0 0 0 0 0 0 0 0 0 0 0 0 0 0 0 0 0 0 0 0 0 0 0 0 0 0 0 0 0 0 0 0 0 0 0 0 0 0 0 0 0 0 0 0 0 0 0 0 0 0 0 0 0 0 0 0 0 0 0 0 0 0 0 0 0 0 0 9 11 13 10 11 13 12 13 15 16 13 13 21 17 18 -193 -193 -193 -177 -193 32 34 34 37 36 38 37 36 36 36 35 35 33 32 32 33 31 29 28 28 28 28 31 33 34 35 -193 -193 -193 33 32 30 31 28 28 29 27 27 26 27 30 26 26 -193 -193 -209 -209 -193 0 9 11 9 10 11 13 23 26 29 34 29 29 28 28 30 29 28 29 28 29 28 28 30 32 30 30 31 31 30 30 31 30 -193 -209 19 20 24 27 29 28 33 33 34 32 31 26 25 -193 -193 0 -193 293 -193 9 10 15 -193 26 28 30 31 34 35 35 36 37 36 37 -193 -209 22 20 15 12 12 0 0 0 9 9 0 9 15 13 16 15 16 18 20 21 21 21 23 -193 -193 -193 -177 -193 -193 -193 21 23 -193 163 163 164 14 15 18 -193 -193 290 291 -193 -193 30 33 34 30 36 36 38 35 36 37 37 37 38 -177 38 -193 -193 659 -193 42 -193 43 658 -193 -193 -193 42 41 39 39 35 38 39 39 40 41 41 43 42 42 42 42 44 44 46 47 46 47 47 47 47 46 47 46 48 46 46 46 46 47 46 46 0 0 0 0 0
    0 0 0 0 0 0 0 0 0 0 0 0 0 0 0 0 0 0 0 0 0 0 0 0 0 0 0 0 0 0 0 0 0 0 0 0 0 0 0 0 0 0 0 0 0 0 0 0 0 0 0 0 0 0 0 0 0 0 0 0 0 0 0 0 0 0 0 0 0 12 15 15 11 12 14 12 13 15 17 14 13 21 17 19 -177 -193 -193 -177 -193 36 36 36 39 38 39 38 36 37 36 35 35 34 32 33 33 32 30 28 28 29 30 33 35 34 35 35 36 34 34 33 31 30 29 29 28 26 27 27 29 32 28 29 -193 -193 -193 -209 -209 -193 0 9 -193 -193 -193 13 -193 27 32 37 33 32 32 31 33 31 30 30 30 31 31 30 32 33 31 31 32 32 32 32 33 32 28 28 26 26 27 30 32 31 35 34 35 33 32 26 25 21 -193 -209 -193 -177 -209 -193 -193 22 27 29 32 34 34 35 36 36 37 37 37 37 39 -193 27 23 19 13 12 0 0 9 9 9 9 9 16 13 16 15 16 17 20 21 21 20 23 -193 -193 -193 -177 -193 -193 -193 22 23 -193 162 163 164 14 15 18 -193 149 -193 -193 -193 146 30 33 34 30 36 36 37 34 36 37 36 37 38 -193 38 37 -193 -193 -193 42 -193 -193 658 -193 -193 -193 42 41 39 39 35 38 39 39 40 40 41 42 42 42 42 42 43 43 45 46 45 46 46 47 46 46 47 46 49 47 47 47 47 47 46 47 0 0 0 0 0
    0 0 0 0 0 0 0 0 0 0 0 0 0 0 0 0 0 0 0 0 0 0 0 0 0 0 0 0 0 0 0 0 0 0 0 0 0 0 0 0 0 0 0 0 0 0 0 0 0 0 0 0 0 0 0 0 0 0 0 0 0 0 0 0 0 0 0 0 0 17 19 17 12 13 14 12 14 16 18 14 14 21 17 -193 -177 -193 29 -193 35 37 38 38 39 38 39 38 37 37 37 36 36 34 33 34 34 32 30 28 28 30 31 34 35 35 35 36 37 35 35 33 32 31 30 30 27 26 27 28 31 34 31 32 33 31 -209 -209 -209 -209 0 -193 -193 -193 -209 12 -209 30 35 38 36 35 34 34 34 33 32 32 31 32 32 32 33 34 32 31 33 33 33 33 34 34 30 33 31 30 31 33 35 33 36 35 35 33 32 26 25 22 -209 -209 -209 -177 -209 -193 -209 -209 33 34 34 35 35 35 36 36 36 37 36 36 38 37 31 27 22 15 13 0 0 9 10 10 9 10 16 13 16 15 16 17 20 21 21 20 23 21 -193 -193 23 -193 -193 -193 22 24 22 -193 -193 -193 13 14 18 -193 149 -193 149 148 145 30 33 34 30 35 36 37 34 36 37 37 37 37 38 38 37 -209 -193 -193 42 -193 -193 -193 42 42 41 42 41 39 39 36 39 40 40 40 41 42 43 42 42 41 41 42 43 44 45 45 46 46 47 46 46 47 46 49 47 48 47 47 48 47 48 0 0 0 0 0
    0 0 0 0 0 0 0 0 0 0 0 0 0 0 0 0 0 0 0 0 0 0 0 0 0 0 0 0 0 0 0 0 0 0 0 0 0 0 0 0 0 0 0 0 0 0 0 0 0 0 0 0 0 0 0 0 0 0 0 0 0 0 0 0 0 0 0 0 0 22 23 17 12 13 14 12 14 17 20 16 17 23 19 -193 -177 -193 31 -193 35 37 38 38 39 38 38 37 36 36 36 36 35 35 34 35 34 33 30 28 28 30 30 33 34 34 35 36 37 36 35 34 32 32 30 31 27 26 28 28 32 35 33 35 -193 -193 -209 -209 -193 -209 -193 -209 -193 -193 -177 -193 -209 -193 36 39 37 36 36 35 35 34 33 33 32 32 34 33 33 34 31 30 32 33 33 33 35 35 33 37 37 36 37 36 36 35 37 35 34 32 31 25 25 22 -209 -209 -209 -209 -209 -209 -177 -193 37 37 37 37 36 36 36 37 37 37 36 37 38 38 34 33 -193 19 13 0 0 9 10 11 10 10 17 13 16 15 16 17 20 21 21 20 23 21 21 -193 23 -209 -193 -193 23 24 22 -193 -193 -193 13 14 17 -193 -193 -193 149 148 145 30 33 34 31 35 36 37 34 36 37 37 36 37 38 37 37 40 40 -193 42 -193 44 -193 42 42 41 42 41 40 40 38 40 41 41 41 42 42 43 42 41 41 41 42 43 44 45 45 46 46 47 46 47 47 46 48 47 48 48 47 48 47 48 0 0 0 0 0
    0 0 0 0 0 0 0 0 0 0 0 0 0 0 0 0 0 0 0 0 0 0 0 0 0 0 0 0 0 0 0 0 0 0 0 0 0 0 0 0 0 0 0 0 0 0 0 0 0 0 0 0 0 0 0 0 0 0 0 0 0 0 0 0 0 0 0 0 0 23 -193 18 13 14 14 12 16 20 22 21 21 25 -193 -193 -193 -193 34 -193 38 39 39 39 39 38 39 38 37 36 36 36 35 35 34 35 34 32 30 27 27 29 31 33 34 34 35 36 37 36 35 34 32 33 30 30 25 25 28 29 34 36 35 37 -209 -209 -193 -193 -193 -193 -193 -209 -209 -193 -177 -193 -209 -193 36 38 37 35 35 35 35 34 33 33 31 32 34 33 34 34 32 30 33 34 34 35 36 37 35 40 39 38 38 37 37 35 36 36 34 32 31 25 25 22 -193 779 -209 -209 -209 -209 -177 -209 -193 39 39 38 37 37 37 37 37 37 36 36 38 37 35 35 32 27 15 0 0 10 12 12 11 11 18 14 17 16 17 17 20 21 20 20 22 21 20 -193 23 -209 -193 -193 24 25 22 -193 -193 -193 13 14 17 -193 149 -193 149 148 -177 30 34 33 31 35 36 37 33 35 36 36 36 36 37 37 37 40 40 39 -193 -193 43 -193 42 42 41 42 41 40 41 38 41 41 41 41 42 43 43 42 42 41 41 42 42 44 45 45 45 46 46 46 46 47 45 48 46 48 47 47 47 46 47 0 0 0 0 0
    0 0 0 0 0 0 0 0 0 0 0 0 0 0 0 0 0 0 0 0 0 0 0 0 0 0 0 0 0 0 0 0 0 0 0 0 0 0 0 0 0 0 0 0 0 0 0 0 0 0 0 0 0 0 0 0 0 0 0 0 0 0 0 0 0 0 0 0 0 22 23 21 20 18 16 15 21 -193 27 -209 27 30 31 -193 -209 32 36 38 38 39 39 39 38 37 38 37 36 36 36 35 35 33 33 34 32 30 28 25 26 29 32 34 34 34 35 36 37 36 35 34 33 34 31 30 25 27 -177 34 36 37 37 38 -209 -209 -177 -177 -177 -177 -193 -209 -209 -193 286 -193 -209 -193 36 37 36 35 35 34 35 34 32 33 32 32 34 33 34 34 33 31 34 35 35 36 37 37 36 40 40 39 39 38 37 36 37 36 34 33 32 26 25 -193 779 -193 -193 -193 -209 -209 -177 -177 -193 40 39 38 37 37 37 37 37 38 36 36 38 37 35 35 34 31 21 0 0 11 14 14 13 14 19 16 18 17 18 18 20 20 20 20 22 20 20 21 22 -209 24 -193 24 25 23 -193 22 -193 13 14 17 -193 149 -193 149 148 -177 31 34 34 32 35 36 36 33 35 35 36 36 35 37 36 37 39 39 38 41 -193 43 -193 42 42 41 42 41 40 41 38 41 41 42 41 42 43 44 43 42 42 42 42 43 44 44 45 45 46 46 46 46 46 45 48 46 47 47 46 47 45 46 0 0 0 0 0
    0 0 0 0 0 0 0 0 0 0 0 0 0 0 0 0 0 0 0 0 0 0 0 0 0 0 0 0 0 0 0 0 0 0 0 0 0 0 0 0 0 0 0 0 0 0 0 0 0 0 0 0 0 0 0 0 0 0 0 0 0 0 0 0 0 0 0 0 0 26 28 27 29 28 27 30 31 35 36 37 38 37 37 39 40 36 37 38 38 38 38 38 37 37 37 37 36 36 36 35 34 32 31 32 29 28 26 24 25 29 32 34 34 34 36 36 37 35 34 33 32 33 33 32 29 34 38 39 39 39 39 40 -209 -209 -177 -177 -177 -177 -209 -209 -209 -209 285 -193 -193 -193 36 37 36 35 35 35 35 34 32 34 33 33 35 34 35 35 34 33 35 36 36 36 37 37 36 40 40 39 39 37 37 36 37 37 34 33 31 26 26 -193 -193 -193 298 -193 -177 -209 -177 -209 -193 41 39 39 37 38 38 38 38 38 36 37 38 38 37 36 36 35 28 -193 0 11 17 17 14 16 20 16 19 18 19 18 20 20 20 20 22 20 19 21 22 -193 25 25 25 25 23 23 23 22 14 14 17 -193 -193 -193 -177 -177 -177 31 34 34 32 35 36 36 33 35 35 35 36 35 37 37 37 39 39 38 40 40 42 -193 41 41 41 42 41 40 41 38 41 42 43 42 43 44 45 44 43 43 43 43 43 44 44 45 45 45 45 45 45 45 44 47 46 47 47 46 46 45 46 0 0 0 0 0
    0 0 0 0 0 0 0 0 0 0 0 0 0 0 0 0 0 0 0 0 0 0 0 0 0 0 0 0 0 0 0 0 0 0 0 0 0 0 0 0 0 0 0 0 0 0 0 0 0 0 0 0 0 0 0 0 0 0 0 0 0 0 0 0 0 0 0 0 0 29 31 29 30 30 29 33 33 36 37 37 38 38 37 39 40 37 38 37 37 37 37 38 37 36 37 36 36 36 36 36 35 34 33 34 30 30 27 25 26 30 32 34 34 34 35 36 36 35 33 33 31 32 33 34 34 37 40 -177 40 40 41 42 -209 -209 -177 -177 -177 -209 -209 -193 -209 286 284 288 -209 37 38 38 37 36 36 35 36 35 33 34 34 33 36 35 36 36 35 34 36 37 37 38 38 39 38 41 41 41 40 38 38 36 36 36 34 32 31 27 26 -193 780 -193 -177 -177 283 -209 -209 -209 42 42 41 40 38 38 38 38 38 38 36 36 37 37 36 36 35 35 30 40 -209 16 23 23 21 22 22 19 20 19 20 19 21 20 20 20 21 20 19 -193 21 25 25 26 26 26 24 24 23 23 15 15 17 -193 -193 -193 -193 -193 -193 31 33 33 32 34 35 35 33 35 35 35 35 34 36 36 36 38 38 38 39 39 42 41 41 41 41 42 41 41 42 39 41 42 44 43 44 45 46 44 44 44 44 44 44 44 44 44 44 44 44 44 44 45 43 47 46 47 47 46 47 46 47 0 0 0 0 0
    0 0 0 0 0 0 0 0 0 0 0 0 0 0 0 0 0 0 0 0 0 0 0 0 0 0 0 0 0 0 0 0 0 0 0 0 0 0 0 0 0 0 0 0 0 0 0 0 0 0 0 0 0 0 0 0 0 0 0 0 0 0 0 0 0 0 0 0 0 28 30 28 28 28 28 31 30 32 33 35 36 37 36 38 39 37 38 37 38 37 37 38 37 37 37 37 36 36 36 35 34 34 32 34 29 30 27 24 26 31 33 34 34 34 34 35 36 35 33 34 32 34 36 36 37 39 40 41 40 40 42 43 -193 -193 -177 -177 -177 -209 -209 -193 -209 -209 -193 -193 37 39 39 38 38 36 36 35 35 35 33 34 34 33 36 36 37 37 37 36 37 37 38 38 39 40 39 41 42 41 41 39 38 37 36 36 34 32 31 27 26 -193 -193 -209 -177 -177 -209 -209 -193 -193 42 42 40 40 38 38 38 38 38 38 36 36 37 37 36 36 35 36 32 40 39 26 29 36 30 31 28 23 23 21 21 20 21 21 20 20 21 20 18 -193 21 25 26 28 27 28 25 25 25 24 17 17 18 21 20 22 -193 25 -193 29 32 32 31 33 34 34 33 34 34 35 34 31 34 35 36 37 38 37 39 39 41 41 41 41 41 41 42 41 42 40 41 43 45 44 44 45 46 45 44 44 44 44 44 45 44 44 44 44 44 44 43 44 43 48 46 48 48 47 47 47 47 0 0 0 0 0
    0 0 0 0 0 0 0 0 0 0 0 0 0 0 0 0 0 0 0 0 0 0 0 0 0 0 0 0 0 0 0 0 0 0 0 0 0 0 0 0 0 0 0 0 0 0 0 0 0 0 0 0 0 0 0 0 0 0 0 0 0 0 0 0 0 0 0 0 0 29 30 28 28 29 29 33 31 33 33 34 36 37 36 38 39 38 38 37 38 37 38 38 37 37 36 37 36 35 35 35 34 33 32 34 29 31 28 25 27 32 33 34 33 34 33 35 36 35 34 35 34 37 39 38 40 41 41 42 41 42 44 45 49 46 -209 -193 -209 -209 -209 -209 -209 -209 -209 -193 -209 40 40 39 39 38 38 37 37 36 35 36 36 35 37 36 38 38 38 38 37 38 38 39 40 40 39 41 42 41 41 39 39 37 36 37 35 34 32 28 28 -193 -193 -209 -177 -177 -209 -209 -193 -193 43 44 42 41 38 38 39 39 39 39 37 37 37 38 37 37 36 36 35 40 40 34 36 38 37 37 36 33 29 26 24 24 24 -209 -193 -193 23 23 20 -193 -193 31 30 32 31 31 27 27 26 25 20 20 20 22 20 22 24 25 26 29 31 33 33 33 35 34 35 35 35 35 34 30 32 35 35 36 37 36 37 38 40 40 40 40 40 41 41 41 42 41 42 43 45 45 45 45 47 45 45 45 45 45 44 45 44 44 44 44 44 44 43 44 43 47 46 49 48 48 48 47 48 0 0 0 0 0
    0 0 0 0 0 0 0 0 0 0 0 0 0 0 0 0 0 0 0 0 0 0 0 0 0 0 0 0 0 0 0 0 0 0 0 0 0 0 0 0 0 0 0 0 0 0 0 0 0 0 0 0 0 0 0 0 0 0 0 0 0 0 0 0 0 0 0 0 0 32 33 29 29 33 33 36 34 34 35 36 37 38 36 38 39 -193 39 38 38 36 38 38 37 36 36 36 35 34 35 34 34 32 32 33 29 32 29 26 28 32 33 34 33 34 33 35 36 35 35 37 37 40 40 39 41 41 41 42 42 43 48 50 53 52 57 -209 -209 -209 -209 -209 -209 42 -193 41 43 42 42 42 40 39 39 38 39 38 37 39 38 37 39 38 38 38 39 39 38 38 38 39 40 40 40 41 42 41 41 40 39 38 36 37 35 34 33 29 28 27 28 -193 -193 -177 -209 -209 -193 -193 42 42 40 39 37 37 38 38 38 38 37 37 37 38 37 37 37 37 37 41 41 38 39 40 40 40 40 40 42 41 41 39 40 -209 -209 -193 40 39 -193 41 47 50 44 39 38 36 32 30 28 28 26 25 23 24 23 24 25 25 26 27 29 34 37 36 36 36 36 36 36 36 34 31 32 35 35 35 37 36 37 37 39 39 39 39 40 41 41 41 42 41 42 44 45 45 45 46 48 46 46 46 46 46 45 46 45 44 44 44 44 44 43 45 -193 47 46 49 48 48 47 47 48 0 0 0 0 0
    0 0 0 0 0 0 0 0 0 0 0 0 0 0 0 0 0 0 0 0 0 0 0 0 0 0 0 0 0 0 0 0 0 0 0 0 0 0 0 0 0 0 0 0 0 0 0 0 0 0 0 0 0 0 0 0 0 0 0 0 0 0 0 0 0 0 0 0 0 29 30 29 29 35 34 36 34 34 36 36 38 37 35 38 40 -193 39 38 38 36 37 38 36 36 35 36 35 34 35 33 33 32 31 31 28 31 29 26 29 32 33 34 33 34 34 36 37 36 36 39 39 41 41 40 42 42 42 43 44 45 52 52 54 54 57 57 -209 -209 -209 -209 43 45 49 44 47 45 45 46 43 42 42 40 41 40 39 41 42 -193 -193 -193 39 39 39 39 38 38 38 39 40 40 40 40 42 41 41 40 40 39 37 38 36 35 34 30 29 28 -193 -193 -193 -177 -209 -209 43 -193 42 42 40 39 38 38 38 39 40 39 38 39 39 39 38 38 38 37 38 39 39 38 39 40 40 40 40 40 42 40 39 38 39 -193 41 42 41 41 42 43 46 47 47 41 -209 38 36 34 34 33 33 35 31 34 35 36 37 35 35 35 32 38 39 38 36 36 37 36 35 35 33 31 32 34 34 34 36 36 37 37 39 39 38 39 39 40 41 40 42 41 42 43 44 45 44 45 48 46 46 46 46 47 45 46 45 44 44 44 44 44 43 44 -193 47 45 48 48 48 47 47 48 0 0 0 0 0
    0 0 0 0 0 0 0 0 0 0 0 0 0 0 0 0 0 0 0 0 0 0 0 0 0 0 0 0 0 0 0 0 0 0 0 0 0 0 0 0 0 0 0 0 0 0 0 0 0 0 0 0 0 0 0 0 0 0 0 0 0 0 0 0 0 0 0 0 0 27 29 30 30 -193 34 36 34 35 36 37 38 37 36 38 40 -209 39 39 38 36 38 38 37 36 36 37 35 34 35 33 34 32 32 31 28 33 30 28 30 33 34 34 34 35 35 37 38 38 38 41 41 42 42 41 43 42 43 44 45 46 53 52 54 54 56 56 55 52 52 49 45 47 49 46 49 47 50 51 47 54 52 50 48 46 50 53 57 58 59 -193 40 39 40 40 38 38 39 38 40 40 40 39 41 40 41 41 40 39 39 39 38 37 36 31 31 30 31 -193 -193 -209 -209 41 43 41 41 42 40 40 38 38 39 40 41 40 39 40 39 40 39 39 38 37 38 38 36 37 38 39 39 39 39 38 40 39 38 38 38 40 41 42 42 41 42 42 44 45 -209 -209 -209 -209 -209 36 35 35 35 38 37 38 40 40 39 37 36 35 32 38 39 38 38 38 39 37 35 34 33 30 30 32 31 32 34 35 36 36 38 38 38 38 39 40 41 40 42 40 42 43 44 45 44 45 48 46 46 46 46 47 45 46 45 44 44 43 43 43 43 44 -177 46 45 47 47 47 47 46 48 0 0 0 0 0
    0 0 0 0 0 0 0 0 0 0 0 0 0 0 0 0 0 0 0 0 0 0 0 0 0 0 0 0 0 0 0 0 0 0 0 0 0 0 0 0 0 0 0 0 0 0 0 0 0 0 0 0 0 0 0 0 0 0 0 0 0 0 0 0 0 0 0 0 0 34 34 34 34 -193 35 36 34 35 36 36 37 37 36 38 39 41 39 39 39 36 37 36 36 36 36 37 35 33 36 32 35 32 33 32 30 34 31 30 32 34 34 35 35 36 36 38 39 39 40 43 42 42 43 42 43 43 44 45 45 47 53 52 53 54 56 55 55 52 52 50 46 49 50 48 49 49 52 53 51 56 56 56 55 55 57 57 58 60 60 60 44 45 44 41 38 38 39 38 39 39 38 38 40 39 40 40 40 39 39 40 39 37 36 32 32 31 33 36 34 -193 41 41 42 40 41 40 38 39 37 39 39 40 41 40 41 41 40 41 39 39 38 38 38 37 34 37 37 38 37 37 37 36 36 36 36 37 38 40 42 44 43 44 44 42 43 45 -209 -209 -209 -209 -209 -193 -209 40 40 41 42 41 44 43 40 36 35 32 31 37 41 40 41 42 44 42 40 38 35 33 32 34 32 32 34 34 35 35 38 38 37 37 38 40 40 39 41 39 41 43 44 45 44 45 48 46 46 46 46 47 45 46 44 44 43 43 43 43 42 -193 194 -193 -193 -193 47 47 47 46 48 0 0 0 0 0
    0 0 0 0 0 0 0 0 0 0 0 0 0 0 0 0 0 0 0 0 0 0 0 0 0 0 0 0 0 0 0 0 0 0 0 0 0 0 0 0 0 0 0 0 0 0 0 0 0 0 0 0 0 0 0 0 0 0 0 0 0 0 0 0 0 0 0 0 0 39 38 37 37 38 37 37 35 34 36 36 37 37 37 38 39 42 40 39 39 35 37 36 37 37 37 37 36 35 37 35 37 35 35 34 33 36 33 33 34 36 35 36 36 37 37 40 41 41 41 45 44 44 45 43 45 44 45 46 45 48 54 53 53 54 55 55 55 53 52 51 48 50 51 50 51 50 53 55 53 57 57 58 57 58 59 59 59 61 61 60 49 54 48 43 38 38 39 39 40 40 39 37 40 39 40 39 39 38 38 39 39 37 37 33 34 34 35 38 37 38 41 42 42 40 41 40 39 40 38 39 40 41 41 41 43 42 41 41 40 40 39 39 38 37 33 37 37 37 37 36 36 34 34 32 33 36 37 41 43 44 44 45 45 42 40 42 -209 -209 -209 -209 -209 -209 -209 -209 41 42 44 42 45 42 -209 36 35 30 30 35 40 39 41 42 45 45 41 38 34 32 30 34 33 33 36 36 36 36 38 38 37 38 38 40 40 40 41 40 41 43 44 46 44 45 48 45 45 45 45 46 44 45 44 43 43 43 43 42 -193 -193 -177 -193 -193 -193 47 47 47 47 48 0 0 0 0 0
    0 0 0 0 0 0 0 0 0 0 0 0 0 0 0 0 0 0 0 0 0 0 0 0 0 0 0 0 0 0 0 0 0 0 0 0 0 0 0 0 0 0 0 0 0 0 0 0 0 0 0 0 0 0 0 0 0 0 0 0 0 0 0 0 0 0 0 0 0 41 40 39 38 39 38 38 36 34 35 35 36 36 36 38 38 42 41 40 39 36 37 37 37 37 37 37 36 35 37 35 36 36 36 35 35 38 36 36 36 37 36 36 36 37 37 41 43 42 44 48 46 46 46 45 46 45 46 46 46 49 54 54 54 54 55 55 55 53 53 52 49 51 52 51 52 52 54 56 54 57 58 59 58 59 60 60 59 62 62 61 53 56 45 42 38 37 39 39 41 41 40 38 39 38 40 39 38 38 37 38 39 39 38 36 37 38 38 40 39 39 40 42 43 40 41 39 40 40 38 39 40 41 42 42 43 42 41 41 41 40 39 39 38 36 32 37 37 37 36 34 35 33 32 29 31 33 32 38 43 43 43 43 43 39 38 40 -209 -209 -209 -209 -209 -209 -209 -209 -209 43 45 42 43 40 38 34 31 27 28 31 35 36 39 40 41 42 38 35 28 30 28 29 31 30 36 36 36 36 38 39 39 39 39 40 41 41 41 41 42 43 45 46 44 44 47 45 45 45 45 45 43 45 44 43 43 43 43 43 -193 -193 -177 -193 -193 47 48 48 47 47 48 0 0 0 0 0
    0 0 0 0 0 0 0 0 0 0 0 0 0 0 0 0 0 0 0 0 0 0 0 0 0 0 0 0 0 0 0 0 0 0 0 0 0 0 0 0 0 0 0 0 0 0 0 0 0 0 0 0 0 0 0 0 0 0 0 0 0 0 0 0 0 0 0 0 0 41 41 41 38 41 39 38 37 34 36 35 36 36 36 38 39 42 41 41 41 36 38 37 37 37 37 37 36 34 36 34 36 35 36 35 34 37 35 36 36 37 37 36 36 37 38 41 44 43 46 51 48 48 48 46 47 46 48 48 48 51 55 55 55 55 56 56 56 55 55 54 52 53 54 53 53 53 55 56 55 58 58 59 58 58 58 59 58 59 60 60 52 53 55 47 38 37 37 37 41 40 38 37 38 38 39 38 38 38 37 39 41 41 41 40 41 41 41 42 41 41 40 42 43 42 42 37 37 38 38 40 42 43 43 43 45 44 42 42 41 40 39 39 38 37 32 38 37 36 37 34 35 33 30 26 30 32 31 37 43 43 42 42 41 35 36 38 -209 -209 -209 -209 -209 -209 -209 -209 -209 44 47 43 42 -193 -209 36 34 29 30 34 38 37 40 40 39 40 33 28 26 28 26 26 29 27 35 36 35 37 38 39 39 39 39 41 41 41 41 42 42 43 45 47 44 44 47 45 45 45 45 45 44 46 45 44 44 43 43 43 43 44 -193 -193 45 47 48 48 48 47 49 0 0 0 0 0
    0 0 0 0 0 0 0 0 0 0 0 0 0 0 0 0 0 0 0 0 0 0 0 0 0 0 0 0 0 0 0 0 0 0 0 0 0 0 0 0 0 0 0 0 0 0 0 0 0 0 0 0 0 0 0 0 0 0 0 0 0 0 0 0 0 0 0 0 0 43 43 43 41 46 42 41 39 36 -193 -193 37 37 37 40 40 41 41 40 41 36 37 36 36 36 37 37 36 34 36 35 36 35 36 34 34 36 34 35 35 36 36 35 35 37 37 42 44 44 50 52 49 49 49 47 48 48 49 48 49 52 55 55 55 55 56 56 56 55 55 55 53 54 55 54 54 55 56 57 56 58 58 59 58 58 58 58 57 58 60 59 53 56 57 51 39 37 37 35 40 39 37 36 37 37 38 37 37 37 38 40 42 42 41 41 42 41 41 41 41 39 38 41 41 41 42 -193 37 38 41 43 44 45 44 44 46 44 42 42 41 40 39 39 37 36 31 38 36 36 36 34 35 34 31 28 32 35 33 37 43 42 41 41 41 35 35 37 -209 -209 -209 -209 -209 -209 -209 -209 -209 -209 49 -209 -209 -209 -209 34 -193 -209 29 34 39 37 38 38 37 32 28 26 27 29 27 27 30 28 35 38 36 37 38 40 40 39 40 41 41 41 41 42 42 43 46 47 44 45 47 45 45 45 45 46 44 46 46 44 44 44 44 44 43 44 -193 46 45 47 48 48 48 47 49 0 0 0 0 0
    0 0 0 0 0 0 0 0 0 0 0 0 0 0 0 0 0 0 0 0 0 0 0 0 0 0 0 0 0 0 0 0 0 0 0 0 0 0 0 0 0 0 0 0 0 0 0 0 0 0 0 0 0 0 0 0 0 0 0 0 0 0 0 0 0 0 0 0 0 43 44 44 43 51 47 44 40 36 -209 -193 37 36 37 39 40 40 38 38 40 35 36 34 35 35 37 37 36 34 36 35 37 35 36 33 34 35 34 34 34 35 35 35 36 37 38 43 45 46 53 52 50 50 50 49 49 49 50 49 51 53 55 55 54 55 56 56 56 55 55 56 55 55 56 55 55 55 56 58 -193 57 58 58 58 58 58 58 57 58 59 58 52 55 57 52 42 39 38 37 41 40 38 37 37 36 37 35 36 35 37 40 42 42 41 41 42 41 41 40 40 38 36 40 39 38 41 38 35 38 42 43 44 45 44 44 46 44 42 41 41 40 39 38 37 36 30 38 36 35 34 32 33 31 32 30 32 35 34 38 43 43 42 38 38 32 33 35 -209 -193 -209 0 -209 -209 -209 -209 113 -209 -193 -193 -193 -193 35 33 35 -209 29 31 37 36 38 38 35 32 29 29 31 33 28 28 33 31 37 39 39 41 38 40 40 40 40 41 41 41 41 42 42 43 46 48 45 46 48 46 46 45 46 47 45 47 46 45 45 44 44 44 43 44 43 46 45 47 47 47 47 47 48 0 0 0 0 0
    0 0 0 0 0 0 0 0 0 0 0 0 0 0 0 0 0 0 0 0 0 0 0 0 0 0 0 0 0 0 0 0 0 0 0 0 0 0 0 0 0 0 0 0 0 0 0 0 0 0 0 0 0 0 0 0 0 0 0 0 0 0 0 0 0 0 0 0 0 44 45 46 44 52 51 48 44 39 38 36 35 35 37 39 38 36 34 35 38 32 35 32 34 35 37 36 36 35 36 35 36 35 35 32 34 34 34 34 34 35 36 36 37 37 39 44 46 -193 -193 53 52 51 51 50 50 51 51 50 51 51 54 53 53 53 54 54 55 54 55 56 56 56 57 56 56 56 57 58 56 57 57 58 58 58 58 58 57 57 59 58 53 55 57 54 43 40 38 38 42 42 38 -193 38 37 -193 -193 -193 34 37 40 42 42 41 41 42 41 41 40 40 38 37 39 38 38 41 -193 38 40 43 44 44 46 44 44 47 44 41 -193 -193 40 38 38 36 35 30 37 35 34 33 31 31 31 33 33 34 36 35 38 42 41 42 34 33 30 33 34 -209 -193 -209 0 -209 -209 -209 -209 113 -209 -193 -209 -209 -193 -209 32 35 -209 32 32 38 37 38 39 37 36 34 33 35 35 29 29 -209 35 38 39 42 43 40 42 41 41 41 42 42 41 41 42 42 43 46 48 45 46 48 46 46 45 45 46 44 46 46 44 44 44 44 43 43 43 43 45 44 46 47 46 46 46 47 0 0 0 0 0
    0 0 0 0 0 0 0 0 0 0 0 0 0 0 0 0 0 0 0 0 0 0 0 0 0 0 0 0 0 0 0 0 0 0 0 0 0 0 0 0 0 0 0 0 0 0 0 0 0 0 0 0 0 0 0 0 0 0 0 0 0 0 0 0 0 0 0 0 0 46 47 49 46 55 55 -209 49 -209 -209 -209 -193 -193 37 -193 38 35 34 35 37 30 32 30 33 34 37 36 36 35 36 35 36 34 35 31 35 33 34 34 35 36 37 37 37 38 40 46 -209 -209 -209 -193 53 52 52 51 51 51 51 50 50 50 52 52 52 52 53 54 54 55 56 57 57 57 58 56 56 57 57 57 56 56 57 58 57 57 57 57 56 56 58 57 52 56 58 55 46 41 -193 38 43 43 -209 -209 -209 -209 -209 -209 -209 30 34 39 42 42 41 41 42 41 41 40 40 38 37 39 38 38 41 41 41 41 44 45 44 46 44 44 45 44 41 -193 40 39 38 38 36 35 30 36 34 33 32 30 30 31 33 34 36 -193 36 39 42 42 42 34 32 28 32 33 -209 -193 -209 0 -209 -209 -209 -209 113 -209 -193 -209 -193 -209 -209 31 34 -209 33 34 39 37 38 39 37 36 35 33 -193 -193 -193 -193 -193 -209 39 39 41 43 39 43 42 41 41 42 42 42 42 43 42 43 47 48 45 46 48 46 46 45 45 46 44 46 45 44 44 43 44 43 42 43 42 45 44 46 46 46 46 46 48 0 0 0 0 0
    0 0 0 0 0 0 0 0 0 0 0 0 0 0 0 0 0 0 0 0 0 0 0 0 0 0 0 0 0 0 0 0 0 0 0 0 0 0 0 0 0 0 0 0 0 0 0 0 0 0 0 0 0 0 0 0 0 0 0 0 0 0 0 0 0 0 0 0 0 46 49 50 48 55 57 57 -209 -209 -209 -193 -193 -193 37 -193 37 37 35 32 36 27 31 29 33 34 37 35 36 35 36 35 35 34 35 31 35 32 34 36 36 37 38 -209 -209 -209 -209 -209 -209 -193 -209 -209 53 52 51 51 51 51 51 48 49 48 50 52 52 52 53 54 55 56 57 58 58 59 59 57 57 57 58 57 56 55 56 57 56 56 56 56 56 56 57 56 51 56 58 56 -209 42 -193 39 43 45 -209 -209 -209 -209 -193 -209 -209 -209 29 38 42 42 41 42 43 42 42 41 40 37 37 38 37 38 41 -193 41 41 45 46 45 46 44 43 44 43 41 -193 40 39 38 38 36 35 30 37 36 34 32 30 30 32 34 35 37 -193 37 40 43 43 42 34 32 28 31 32 -209 -193 -209 -193 -209 -209 -209 -209 111 -209 -209 -209 35 -193 -209 30 34 -209 34 35 39 37 37 38 35 35 35 33 35 -193 -193 -193 -209 -209 -209 -193 44 48 38 42 42 41 41 42 42 42 42 42 42 42 45 48 45 45 47 46 46 45 45 46 44 46 45 44 44 43 44 43 42 42 42 45 44 46 46 46 46 47 48 0 0 0 0 0
    0 0 0 0 0 0 0 0 0 0 0 0 0 0 0 0 0 0 0 0 0 0 0 0 0 0 0 0 0 0 0 0 0 0 0 0 0 0 0 0 0 0 0 0 0 0 0 0 0 0 0 0 0 0 0 0 0 0 0 0 0 0 0 0 0 0 0 0 0 45 48 51 48 56 59 63 62 -209 -209 85 -225 -225 -225 -225 -225 -225 -225 -225 -225 -225 30 30 35 35 37 36 36 36 36 36 36 34 35 32 36 36 36 -193 -209 -193 -209 -209 -193 -193 -193 -193 -193 -193 -209 -209 54 53 52 51 52 52 51 47 49 47 49 53 52 53 54 56 56 57 59 60 60 60 61 59 59 59 59 58 -209 55 56 57 55 54 55 55 55 55 56 56 51 56 59 55 -209 -193 -193 38 43 45 -209 -209 -209 -209 -193 -193 -209 -209 -209 38 43 43 42 43 43 42 42 41 41 37 37 38 37 37 41 -193 -209 42 46 47 45 47 44 43 44 43 -209 -193 -193 40 38 38 37 36 32 38 36 35 34 32 32 34 36 37 38 -193 38 40 43 43 44 36 34 30 34 35 -209 -209 -209 -209 -193 -193 -209 -209 -209 -209 -209 32 32 31 29 30 34 -209 34 35 39 37 38 38 35 35 -193 33 -193 -193 -193 -209 -209 -209 -209 -209 -209 59 40 44 46 43 42 43 42 42 42 43 43 42 44 46 44 45 46 46 46 45 45 46 45 46 46 44 44 44 44 43 43 43 43 46 44 47 47 46 46 47 48 0 0 0 0 0
    0 0 0 0 0 0 0 0 0 0 0 0 0 0 0 0 0 0 0 0 0 0 0 0 0 0 0 0 0 0 0 0 0 0 0 0 0 0 0 0 0 0 0 0 0 0 0 0 0 0 0 0 0 0 0 0 0 0 0 0 0 0 0 0 0 0 0 0 0 46 50 52 50 55 58 -209 -209 -209 -225 -225 -225 -225 -225 -225 -225 -225 -225 -225 -225 -225 -225 -225 -225 -225 -225 -225 -225 -225 -225 -225 -225 -225 -225 -225 -225 -225 -225 -225 -225 -225 -225 -225 -225 -225 -225 -225 -225 -225 -225 -193 53 54 52 51 51 51 51 47 51 50 50 54 54 54 55 57 57 58 60 62 61 61 62 61 60 60 60 58 -193 54 55 56 54 53 53 54 54 54 55 55 51 56 59 56 -209 -193 -193 36 42 44 -209 -177 -209 188 -193 -193 -209 -209 -209 -209 -209 44 43 43 44 42 42 40 40 36 36 -193 36 -209 -193 0 0 -193 -177 47 46 46 43 43 43 -193 -209 -209 -193 40 38 38 -193 37 33 38 36 35 34 32 33 35 37 38 38 -193 39 41 45 47 51 -209 -209 -193 -209 -209 54 -209 58 58 57 59 59 58 57 54 52 47 40 41 -193 37 38 33 35 36 39 38 38 39 37 -193 -193 -193 -193 -193 -209 -209 -209 -209 66 69 68 69 -209 47 47 43 42 43 42 42 41 42 42 42 42 45 44 45 47 46 46 45 46 46 45 47 45 43 44 43 44 43 43 43 43 46 44 47 46 46 46 47 48 0 0 0 0 0
    0 0 0 0 0 0 0 0 0 0 0 0 0 0 0 0 0 0 0 0 0 0 0 0 0 0 0 0 0 0 0 0 0 0 0 0 0 0 0 0 0 0 0 0 0 0 0 0 0 0 0 0 0 0 0 0 0 0 0 0 0 0 0 0 0 0 0 0 0 48 51 53 52 -193 -225 -225 -225 -225 -225 -225 -225 -225 -225 -225 -225 -225 -225 -225 -225 -225 -225 -225 -225 -225 -225 -225 -225 -225 -225 -225 -225 -225 -225 -225 -225 -225 -225 -225 -225 -225 -225 -225 -225 -225 -225 -225 -225 -225 -225 -225 53 52 52 51 51 51 50 47 51 51 53 54 55 55 56 58 58 59 61 63 62 62 62 60 -193 -193 -193 -209 -209 -193 55 55 53 51 51 53 54 53 55 54 52 57 59 59 -193 -225 -225 -225 40 43 -209 -193 -209 187 -193 -209 234 245 -209 -193 -193 -193 43 43 43 41 41 39 38 35 35 -193 36 -193 -193 0 0 -193 53 -193 -225 -193 -193 -193 -209 -193 -177 -177 -209 -193 0 0 -177 -177 34 38 34 33 31 -193 31 35 -193 39 -193 -193 -193 -193 45 49 53 -209 -209 48 54 58 59 61 62 61 60 60 61 60 59 58 58 58 56 55 57 50 51 52 43 40 41 40 39 40 37 37 -193 -193 -193 -209 -209 -193 -209 65 67 68 68 69 71 -209 -209 40 40 40 40 39 39 40 36 40 40 43 44 45 46 46 46 45 46 46 44 45 43 42 42 42 43 41 42 42 43 45 44 46 46 45 46 47 47 0 0 0 0 0
    0 0 0 0 0 0 0 0 0 0 0 0 0 0 0 0 0 0 0 0 0 0 0 0 0 0 0 0 0 0 0 0 0 0 0 0 0 0 0 0 0 0 0 0 0 0 0 0 0 0 0 0 0 0 0 0 0 0 0 0 0 0 0 0 0 0 0 0 0 51 53 56 -225 -225 -225 -225 -225 -225 -225 -225 -225 -225 -225 -225 -225 -225 -225 -225 -225 -225 -225 -225 -225 -225 -225 -225 -225 -225 -225 -225 -225 -225 -225 -225 -225 -225 -225 -225 -225 -225 -225 -225 -225 -225 -225 -225 -225 -225 -225 -225 52 51 50 51 51 51 50 45 48 48 50 52 51 52 54 56 58 58 61 63 63 63 63 -193 -193 -193 -193 -193 -193 -209 -209 -193 52 50 51 53 55 54 56 55 54 59 62 62 -225 -225 -225 -225 -225 -225 -225 -225 -225 -225 -209 -209 -209 -225 -177 -225 -225 43 42 42 42 -225 -225 -225 -225 -225 -225 -225 -225 -225 -225 -225 -225 -225 -225 -225 -225 -225 -225 -225 -225 -209 -193 -193 -193 0 0 0 -177 -177 28 38 36 34 -193 -193 30 34 -193 -193 -209 -193 -193 -209 44 48 54 -209 -209 50 56 59 61 61 62 61 59 61 62 62 60 60 61 62 60 60 60 57 57 60 -193 44 43 42 41 41 39 39 -193 -193 -193 -193 -193 65 63 64 66 67 68 68 70 70 -209 -193 -193 38 39 39 39 39 32 39 39 43 45 47 47 47 46 44 44 44 42 42 40 39 39 41 42 39 41 40 42 43 42 45 44 43 44 46 46 0 0 0 0 0
    0 0 0 0 0 0 0 0 0 0 0 0 0 0 0 0 0 0 0 0 0 0 0 0 0 0 0 0 0 0 0 0 0 0 0 0 0 0 0 0 0 0 0 0 0 0 0 0 0 0 0 0 0 0 0 0 0 0 0 0 0 0 0 0 0 0 0 0 0 52 55 57 -193 -225 -225 -225 -225 -225 -225 -225 -225 -225 -225 -225 -225 -225 -225 -225 -225 -225 -225 -225 -225 -225 -225 -225 -225 -225 -225 -225 -225 -225 -225 -225 -225 -225 -225 -225 -225 -225 -225 -225 -225 -225 -225 -225 -225 -225 -225 -225 -225 53 51 51 51 52 51 46 47 48 50 51 49 50 50 53 55 55 61 -193 64 63 65 -193 -193 -193 -193 -193 -193 -209 -209 -193 52 50 50 52 54 54 55 54 53 58 61 61 -225 -225 -225 -225 -225 -225 -225 -225 -225 -225 -225 -225 -225 -225 -225 -225 -225 -225 -225 -225 -225 -225 -225 -225 -225 -225 -225 -225 -225 -225 -225 -225 -225 -225 -225 -225 -225 -225 -225 -225 -225 -225 -225 -225 -225 0 0 0 -177 -177 30 39 40 -209 -193 -225 28 34 -193 -193 -193 -193 -193 -209 45 49 54 -209 -209 49 55 58 61 60 61 58 57 61 62 61 59 59 60 61 61 61 60 57 60 62 -193 44 43 42 41 42 40 41 41 43 -193 60 61 63 61 62 63 65 67 66 68 69 68 -209 -209 -193 39 38 37 32 -193 -193 -209 43 46 47 46 46 44 42 42 42 41 39 37 37 35 38 38 35 37 36 39 38 38 -209 -209 -193 -209 -193 -193 0 0 0 0 0
    0 0 0 0 0 0 0 0 0 0 0 0 0 0 0 0 0 0 0 0 0 0 0 0 0 0 0 0 0 0 0 0 0 0 0 0 0 0 0 0 0 0 0 0 0 0 0 0 0 0 0 0 0 0 0 0 0 0 0 0 0 0 0 0 0 0 0 0 0 -193 58 61 70 -209 -209 -225 -225 -225 -225 -225 -225 -225 -225 -225 -225 -225 -225 -225 -225 -225 -225 -225 -225 -225 -225 -225 -225 -225 -225 -225 -225 -225 -225 -225 -225 -225 -225 -225 -225 -225 -225 -225 -225 -225 -225 -225 -225 -225 -225 -225 -225 -225 52 52 51 53 52 48 47 48 50 52 48 50 49 51 -209 -193 -193 -209 -193 -193 70 -209 -193 -193 -193 -193 -193 -209 -209 -193 51 49 49 52 55 54 55 54 53 59 64 64 -225 -225 -225 -225 -225 -225 -225 -225 -225 -225 -225 -225 -225 -225 -225 -225 -225 -225 -225 -225 -225 -225 -225 -225 -225 -225 -225 -225 -225 -225 -225 -225 -225 -225 -225 -225 -225 -225 -225 -225 -225 -225 -225 -225 -225 -225 -225 -225 -225 -225 -225 -225 -225 -225 -225 -225 -225 -225 -225 -225 -225 -225 -225 -225 -225 51 55 56 -193 -193 57 60 63 62 63 59 57 60 62 60 59 58 59 60 60 60 60 58 61 62 58 51 44 42 40 40 39 41 42 45 55 60 61 62 61 62 63 64 66 65 68 69 68 -193 -209 -209 39 40 40 -209 -193 -209 -209 46 49 51 48 47 44 42 42 42 41 39 37 35 31 34 -209 27 29 29 30 27 32 -193 -177 -209 -209 -209 -209 0 0 0 0 0
    0 0 0 0 0 0 0 0 0 0 0 0 0 0 0 0 0 0 0 0 0 0 0 0 0 0 0 0 0 0 0 0 0 0 0 0 0 0 0 0 0 0 0 0 0 0 0 0 0 0 0 0 0 0 0 0 0 0 0 0 0 0 0 0 0 0 0 0 0 -209 65 69 74 -209 -209 -225 -225 -225 -225 -225 -225 -225 -225 -225 -225 -225 -225 -225 -225 -225 -225 -225 -225 -225 -225 -225 -225 -225 -225 -225 -225 -225 -225 -225 -225 -225 -225 -225 -225 -225 -225 -225 -225 -225 -225 -225 -225 -225 -225 -225 -225 -225 -225 48 47 49 49 46 45 45 49 52 52 53 52 54 -209 -209 -193 -193 -209 -209 -209 -209 -209 -209 -209 -209 -209 -209 -209 -209 50 48 48 51 54 54 54 54 52 59 65 -225 -225 -225 -225 -225 -225 -225 -225 -225 -225 -225 -225 -225 -225 -225 -225 -225 -225 -225 -225 -225 -225 -225 -225 -225 -225 -225 -225 -225 -225 -225 -225 -225 -225 -225 -225 -225 -225 -225 -225 -225 -225 -225 -225 -225 -225 -225 -225 -225 -225 -225 -225 -225 -225 -225 -225 -225 -225 -225 -225 -225 -225 -225 -225 -225 -225 -225 57 59 60 59 59 62 65 63 64 60 58 60 62 60 59 58 59 60 59 59 59 57 61 62 61 -193 48 -209 -193 -193 -193 41 -193 -209 59 63 61 62 61 63 64 63 65 64 67 69 69 62 -209 -209 -209 -193 -209 -193 -193 44 -193 50 52 54 52 51 50 45 45 44 42 41 39 37 -209 -209 -209 27 27 27 26 25 29 -177 99 -193 -209 -209 -209 0 0 0 0 0
    0 0 0 0 0 0 0 0 0 0 0 0 0 0 0 0 0 0 0 0 0 0 0 0 0 0 0 0 0 0 0 0 0 0 0 0 0 0 0 0 0 0 0 0 0 0 0 0 0 0 0 0 0 0 0 0 0 0 0 0 0 0 0 0 0 0 0 0 0 -209 -209 -209 -209 -209 -209 -225 -225 -225 -225 -225 -225 -225 -225 -225 -225 -225 -225 -225 -225 -225 -225 -225 -225 -225 -225 -225 -225 -225 -225 -225 -225 -225 -225 -225 -225 -225 -225 -225 -225 -225 -225 -225 -225 -225 -225 -225 -225 -225 -225 -225 -225 -225 -225 -225 -225 -225 -225 -225 43 43 46 -225 -225 -225 -225 -225 -225 -225 -225 -225 -225 -177 -209 -209 -209 -209 351 355 -177 -177 358 -225 -225 48 49 52 55 54 55 54 52 58 -225 -225 -225 -225 -225 -225 -225 -225 -225 -225 -225 -225 -225 -225 -225 -225 -225 -225 -225 -225 -225 -225 -225 -225 -225 -225 -225 -225 -225 -225 -225 -225 -225 -225 -225 -225 -225 -225 -225 -225 -225 -225 -225 -225 -225 -225 -225 -225 -225 -225 -225 -225 -225 -225 -225 -225 -225 -225 -225 -225 -225 -225 -225 -225 -225 -225 -225 -225 -225 61 62 59 60 62 65 63 64 60 58 60 62 60 59 58 59 60 59 59 59 57 61 62 61 -193 -193 -209 -209 -209 -193 -209 62 62 65 65 62 62 61 62 62 60 62 60 61 65 62 -193 48 -193 40 40 41 42 42 45 47 51 52 54 53 52 51 45 44 43 43 41 40 38 37 39 -209 31 32 28 29 28 -193 -177 98 -193 -209 -209 -209 0 0 0 0 0
    0 0 0 0 0 0 0 0 0 0 0 0 0 0 0 0 0 0 0 0 0 0 0 0 0 0 0 0 0 0 0 0 0 0 0 0 0 0 0 0 0 0 0 0 0 0 0 0 0 0 0 0 0 0 0 0 0 0 0 0 0 0 0 0 0 0 0 0 0 -209 -209 -209 -209 -209 -225 -225 -225 -225 -225 -225 -225 -225 -225 -225 -225 -225 -225 -225 -225 -225 -225 -225 -225 -225 -225 -225 -225 -225 -225 -225 -225 -225 -225 -225 -225 -225 -225 -225 -225 -225 -225 -225 -225 -225 -225 -225 -225 -225 -225 -225 -225 -225 -225 -225 -225 -225 -225 -225 -225 -225 -225 -225 -225 -225 -225 -225 -225 -225 -225 -225 -225 -225 -225 -225 -225 -225 -225 -225 -225 -225 -225 -225 -225 -225 -225 -225 -225 -225 -225 -225 -225 -225 -225 -225 -225 -225 -225 -225 -225 -225 -225 -225 -225 -225 -225 -225 -225 -225 -225 -225 -225 -225 -225 -225 -225 -225 -225 -225 -225 -225 -225 -225 -225 -225 -225 -225 -225 -225 -225 -225 -225 -225 -225 -225 -225 -225 -225 -225 -225 -225 -225 -225 -225 -225 -225 -225 -225 -225 -225 -225 -225 -225 -225 -225 -225 -225 -225 -225 -225 -225 -225 -225 -225 59 60 62 65 63 64 59 57 60 62 60 59 58 59 60 59 59 59 58 62 63 62 62 61 69 71 72 71 67 67 69 69 68 64 62 62 64 64 61 62 60 62 65 63 59 48 -209 41 40 42 44 43 48 52 54 53 55 54 52 50 42 41 41 41 40 38 38 37 39 -209 -209 -209 -193 28 29 -193 -209 -193 -193 -209 -209 -209 0 0 0 0 0
    0 0 0 0 0 0 0 0 0 0 0 0 0 0 0 0 0 0 0 0 0 0 0 0 0 0 0 0 0 0 0 0 0 0 0 0 0 0 0 0 0 0 0 0 0 0 0 0 0 0 0 0 0 0 0 0 0 0 0 0 0 0 0 0 0 0 0 0 0 -209 -209 -209 -209 -209 -225 -225 -225 -225 -225 -225 -225 -225 -225 -225 -225 -225 -225 -225 -225 -225 -225 -225 -225 -225 -225 -225 -225 -225 -225 -225 -225 -225 -225 -225 -225 -225 -225 -225 -225 -225 -225 -225 -225 -225 -225 -225 -225 -225 -225 -225 -225 -225 -225 -225 -225 -225 -225 -225 -225 -225 -225 -225 -225 -225 -225 -225 -225 -225 -225 -225 -225 -225 -225 -225 -225 -225 -225 -225 -225 -225 -225 -225 -225 -225 -225 -225 -225 -225 -225 -225 -225 -225 -225 -225 -225 -225 -225 -225 -225 -225 -225 -225 -225 -225 -225 -225 -225 -225 -225 -225 -225 -225 -225 -225 -225 -225 -225 -225 -225 -225 -225 -225 -225 -225 -225 -225 -225 -225 -225 -225 -225 -225 -225 -225 -225 -225 -225 -225 -225 -225 -225 -225 -225 -225 -225 -225 -225 -225 -225 -225 -225 -225 -225 -225 -225 -225 -225 -225 -225 -225 -225 -225 -225 -225 -225 64 67 65 64 60 59 62 64 61 61 60 60 62 61 60 61 58 66 68 67 68 70 73 76 78 75 73 71 74 73 72 68 63 63 66 68 63 65 64 70 72 73 73 -209 72 -193 -209 -209 -209 -209 -193 58 67 -193 56 55 54 53 42 41 41 40 39 37 37 37 40 -209 -209 -209 -209 -209 -209 -193 -209 -193 -209 -209 -209 -209 0 0 0 0 0
    0 0 0 0 0 0 0 0 0 0 0 0 0 0 0 0 0 0 0 0 0 0 0 0 0 0 0 0 0 0 0 0 0 0 0 0 0 0 0 0 0 0 0 0 0 0 0 0 0 0 0 0 0 0 0 0 0 0 0 0 0 0 0 0 0 0 0 0 0 -209 -209 -209 -209 -209 -225 -225 -225 -225 -225 -225 -225 -225 -225 -225 -225 -225 -225 -225 -225 -225 -225 -225 -225 -225 -225 -225 -225 -225 -225 -225 -225 -225 -225 -225 -225 -225 -225 -225 -225 -225 -225 -225 -225 -225 -225 -225 -225 -225 -225 -225 -225 -225 -225 -225 -225 -225 -225 -225 -225 -225 -225 -225 -225 -225 -225 -225 -225 -225 -225 -225 -225 -225 -225 -225 -225 -225 -225 -225 -225 -225 -225 -225 -225 -225 -225 -225 -225 -225 -225 -225 -225 -225 -225 -225 -225 -225 -225 -225 -225 -225 -225 -225 -225 -225 -225 -225 -225 -225 -225 -225 -225 -225 -225 -225 -225 -225 -225 -225 -225 -225 -225 -225 -225 -225 -225 -225 -225 -225 -225 -225 -225 -225 -225 -225 -225 -225 -225 -225 -225 -225 -225 -225 -225 -225 -225 -225 -225 -225 -225 -225 -225 -225 -225 -225 -225 -225 -225 -225 -225 -225 -225 -225 -225 -225 -225 -225 -225 65 65 -193 58 65 67 63 62 63 64 65 63 62 62 60 71 73 72 73 74 75 81 83 80 77 72 75 75 75 71 62 62 67 -209 67 67 67 -193 74 76 80 86 80 86 85 88 89 87 85 -209 74 -193 57 55 56 56 42 41 42 42 41 39 38 -209 45 51 -209 -209 67 -209 -209 75 -209 82 -209 -209 -209 -209 0 0 0 0 0
    0 0 0 0 0 0 0 0 0 0 0 0 0 0 0 0 0 0 0 0 0 0 0 0 0 0 0 0 0 0 0 0 0 0 0 0 0 0 0 0 0 0 0 0 0 0 0 0 0 0 0 0 0 0 0 0 0 0 0 0 0 0 0 0 0 0 0 0 0 -209 -209 -209 -209 -209 -225 -225 -225 -225 -225 -225 -225 -225 -225 -225 -225 -225 -225 -225 -225 -225 -225 -225 -225 -225 -225 -225 -225 -225 -225 -225 -225 -225 -225 -225 -225 -225 -225 -225 -225 -225 -225 -225 -225 -225 -225 -225 -225 -225 -225 -225 -225 -225 -225 -225 -225 -225 -225 -225 -225 -225 -225 -225 -225 -225 -225 -225 -225 -225 -225 -225 -225 -225 -225 -225 -225 -225 -225 -225 -225 -225 -225 -225 -225 -225 -225 -225 -225 -225 -225 -225 -225 -225 -225 -225 -225 -225 -225 -225 -225 -225 -225 -225 -225 -225 -225 -225 -225 -225 -225 -225 -225 -225 -225 -225 -225 -225 -225 -225 -225 -225 -225 -225 -225 -225 -225 -225 -225 -225 -225 -225 -225 -225 -225 -225 -225 -225 -225 -225 -225 -225 -225 -225 -225 -225 -225 -225 -225 -225 -225 -225 -225 -225 -225 -225 -225 -225 -225 -225 -225 -225 -225 -225 -225 -225 -225 -225 -225 -225 -209 44 55 63 -209 -209 -209 -209 -209 -209 -209 -209 -209 -209 74 78 75 75 76 79 84 86 83 77 72 75 75 77 -209 59 60 -193 -209 -209 -209 -209 75 77 80 86 92 89 89 90 91 92 92 91 90 81 85 -209 57 58 57 -209 44 44 45 45 -193 43 48 49 52 56 -193 66 64 64 69 68 73 -209 -209 -209 -209 0 0 0 0 0
    0 0 0 0 0 0 0 0 0 0 0 0 0 0 0 0 0 0 0 0 0 0 0 0 0 0 0 0 0 0 0 0 0 0 0 0 0 0 0 0 0 0 0 0 0 0 0 0 0 0 0 0 0 0 0 0 0 0 0 0 0 0 0 0 0 0 0 0 0 -209 -209 -209 -209 -225 -225 -225 -225 -225 -225 -225 -225 -225 -225 -225 -225 -225 -225 -225 -225 -225 -225 -225 -225 -225 -225 -225 -225 -225 -225 -225 -225 -225 -225 -225 -225 -225 -225 -225 -225 -225 -225 -225 -225 -225 -225 -225 -225 -225 -225 -225 -225 -225 -225 -225 -225 -225 -225 -225 -225 -225 -225 -225 -225 -225 -225 -225 -225 -225 -225 -225 -225 -225 -225 -225 -225 -225 -225 -225 -225 -225 -225 -225 -225 -225 -225 -225 -225 -225 -225 -225 -225 -225 -225 -225 -225 -225 -225 -225 -225 -225 -225 -225 -225 -225 -225 -225 -225 -225 -225 -225 -225 -225 -225 -225 -225 -225 -225 -225 -225 -225 -225 -225 -225 -225 -225 -225 -225 -225 -225 -225 -225 -225 -225 -225 -225 -225 -225 -225 -225 -225 -225 -225 -225 -225 -225 -225 -225 -225 -225 -225 -225 -225 -225 -225 -225 -225 -225 -225 -225 -225 -225 -225 -225 -225 -225 -225 -225 -225 -225 -209 11 12 16 0 0 0 -209 -177 39 -209 -209 -209 -209 -209 83 83 84 86 87 88 86 80 72 74 75 79 -209 -209 65 -209 -209 -209 92 -209 85 85 88 89 94 90 91 92 93 93 94 93 92 86 88 -209 70 -209 60 -209 48 46 48 48 -193 50 52 53 54 58 63 67 66 66 69 67 72 73 -209 -193 -209 0 0 0 0 0
    0 0 0 0 0 0 0 0 0 0 0 0 0 0 0 0 0 0 0 0 0 0 0 0 0 0 0 0 0 0 0 0 0 0 0 0 0 0 0 0 0 0 0 0 0 0 0 0 0 0 0 0 0 0 0 0 0 0 0 0 0 0 0 0 0 0 0 0 0 -225 -225 -225 -225 -225 -225 -225 -225 -225 -225 -225 -225 -225 -225 -225 -225 -225 -225 -225 -225 -225 -225 -225 -225 -225 -225 -225 -225 -225 -225 -225 -225 -225 -225 -225 -225 -225 -225 -225 -225 -225 -225 -225 -225 -225 -225 -225 -225 -225 -225 -225 -225 -225 -225 -225 -225 -225 -225 -225 -225 -225 -225 -225 -225 -225 -225 -225 -225 -225 -225 -225 -225 -225 -225 -225 -225 -225 -225 -225 -225 -225 -225 -225 -225 -225 -225 -225 -225 -225 -225 -225 -225 -225 -225 -225 -225 -225 -225 -225 -225 -225 -225 -225 -225 -225 -225 -225 -225 -225 -225 -225 -225 -225 -225 -225 -225 -225 -225 -225 -225 -225 -225 -225 -225 -225 -225 -225 -225 -225 -225 -225 -225 -225 -225 -225 -225 -225 -225 -225 -225 -225 -225 -225 -225 -225 -225 -225 -225 -225 -225 -225 -225 -225 -225 -225 -225 -225 -225 -225 -225 -225 -225 -225 -225 -225 -225 -225 -225 -225 -225 -225 12 12 -209 0 0 9 25 33 39 -209 -209 -209 -209 -209 83 83 84 86 88 88 87 82 75 77 77 81 85 -209 -209 86 93 93 94 92 90 89 91 91 96 92 93 94 94 94 96 94 93 88 89 -193 79 -193 -209 -209 -209 -193 -193 -193 -209 -209 55 57 56 61 68 69 70 69 71 71 74 78 -209 -209 -209 0 0 0 0 0
    0 0 0 0 0 0 0 0 0 0 0 0 0 0 0 0 0 0 0 0 0 0 0 0 0 0 0 0 0 0 0 0 0 0 0 0 0 0 0 0 0 0 0 0 0 0 0 0 0 0 0 0 0 0 0 0 0 0 0 0 0 0 0 0 0 0 0 0 0 -225 -225 -225 -225 -225 -225 -225 -225 -225 -225 -225 -225 -225 -225 -225 -225 -225 -225 -225 -225 0 -256 -1 26451 -225 -225 -225 -225 -225 -225 -225 -225 -225 -225 -225 -225 -225 -225 -225 -225 -225 -225 -225 -225 -225 -225 -225 -225 -225 -225 -225 -225 -225 -225 -225 -225 -225 -225 -225 -225 -225 -225 -225 -225 -225 -225 -225 -225 -225 -225 -225 -225 -225 -225 -225 -225 -225 -225 -225 -225 -225 -225 -225 -225 -225 -225 -225 -225 -225 -225 -225 -225 -225 -225 -225 -225 -225 -225 -225 -225 -225 -225 -225 -225 -225 -225 -225 -225 -225 -225 -225 -225 -225 -225 -225 -225 -225 -225 -225 -225 -225 -225 -225 -225 -225 -225 -225 -225 -225 -225 -225 -225 -225 -225 -225 -225 -225 -225 -225 -225 -225 -225 -225 -225 -225 -225 -225 -225 -225 -225 -225 -225 -225 -225 -225 -225 -225 -225 -225 -225 -225 -225 -225 -225 -225 -225 -225 -225 -225 -225 -225 10 11 -209 -209 -209 -209 -193 35 -209 -209 -209 -209 -209 -209 -209 85 86 87 88 89 89 83 75 74 75 79 86 -209 -209 -209 93 93 94 94 93 91 93 93 98 93 95 96 94 95 97 94 93 89 91 91 89 93 93 92 97 98 -193 -209 98 -209 -209 -209 -209 69 72 71 72 71 73 73 75 80 -209 -209 -209 0 0 0 0 0
    0 0 0 0 0 0 0 0 0 0 0 0 0 0 0 0 0 0 0 0 0 0 0 0 0 0 0 0 0 0 0 0 0 0 0 0 0 0 0 0 0 0 0 0 0 0 0 0 0 0 0 0 0 0 0 0 0 0 0 0 0 0 0 0 0 0 0 0 0 -225 -225 -225 -225 -225 -225 -225 -225 -225 -225 -225 -225 -225 -225 -225 -225 -225 -225 -225 -225 -225 -225 -225 -225 -225 -225 -225 -225 -225 -225 -225 -225 -225 -225 -225 -225 -225 -225 -225 -225 -225 -225 -225 -225 -225 -225 -225 -225 -225 -225 -225 -225 -225 -225 -225 -225 -225 -225 -225 -225 -225 -225 -225 -225 -225 -225 -225 -225 -225 -225 -225 -225 -225 -225 -225 -225 -225 -225 -225 -225 -225 -225 -225 -225 -225 -225 -225 -225 -225 -225 -225 -225 -225 -225 -225 -225 -225 -225 -225 -225 -225 -225 -225 -225 -225 -225 -225 -225 -225 -225 -225 -225 -225 -225 -225 -225 -225 -225 -225 -225 -225 -225 -225 -225 -225 -225 -225 -225 -225 -225 -225 -225 -225 -225 -225 -225 -225 -225 -225 -225 -225 -225 -225 -225 -225 -225 -225 -225 -225 -225 -225 -225 -225 -225 -225 -225 -225 -225 -225 -225 -225 -225 -225 -225 -225 -225 -225 -225 -225 -225 -225 10 10 -209 -193 -209 -193 -209 -209 -209 -209 -209 -209 -209 -209 -209 88 87 87 89 89 89 80 76 -193 77 81 87 -209 -209 -209 94 93 93 93 94 91 93 94 98 94 96 98 96 95 97 95 94 90 92 92 90 94 96 93 97 98 97 96 95 -209 83 92 -193 -193 88 75 73 72 73 71 74 78 -209 -209 -209 0 0 0 0 0
    0 0 0 0 0 0 0 0 0 0 0 0 0 0 0 0 0 0 0 0 0 0 0 0 0 0 0 0 0 0 0 0 0 0 0 0 0 0 0 0 0 0 0 0 0 0 0 0 0 0 0 0 0 0 0 0 0 0 0 0 0 0 0 0 0 0 0 0 0 -225 -225 -225 -225 -225 -225 -225 -225 -225 -225 -225 -225 -225 -225 -225 -225 -225 -225 -225 -225 -225 -225 -225 -225 -225 -225 -225 -225 -225 -225 -225 -225 -225 -225 -225 -225 -225 -225 -225 -225 -225 -225 -225 -225 -225 -225 -225 -225 -225 -225 -225 -225 -225 -225 -225 -225 -225 -225 -225 -225 -225 -225 -225 -225 -225 -225 -225 -225 -225 -225 -225 -225 -225 -225 -225 -225 -225 -225 -225 -225 -225 -225 -225 -225 -225 -225 -225 -225 -225 -225 -225 -225 -225 -225 -225 -225 -225 -225 -225 -225 -225 -225 -225 -225 -225 -225 -225 -225 -225 -225 -225 -225 -225 -225 -225 -225 -225 -225 -225 -225 -225 -225 -225 -225 -225 -225 -225 -225 -225 -225 -225 -225 -225 -225 -225 -225 -225 -225 -225 -225 -225 -225 -225 -225 -225 -225 -225 -225 -225 -225 -225 -225 -225 -225 -225 -225 -225 -225 -225 -225 -225 -225 -225 -225 -225 -225 -225 -225 -225 -225 -225 10 11 -209 -209 -193 0 22 -209 -209 -209 -209 -209 -209 -209 -193 89 89 89 89 89 89 86 84 85 85 85 88 87 83 93 99 98 96 95 97 93 95 96 99 94 96 99 97 96 98 96 94 91 94 92 89 93 94 93 95 97 97 95 97 100 89 95 95 92 -193 82 76 74 75 74 75 79 81 79 -209 0 0 0 0 0
    0 0 0 0 0 0 0 0 0 0 0 0 0 0 0 0 0 0 0 0 0 0 0 0 0 0 0 0 0 0 0 0 0 0 0 0 0 0 0 0 0 0 0 0 0 0 0 0 0 0 0 0 0 0 0 0 0 0 0 0 0 0 0 0 0 0 0 0 0 -225 -225 -225 -225 -225 -225 -225 -225 -225 -225 -225 -225 -225 -225 -225 -225 -225 -225 -225 -225 -225 -225 -225 -225 -225 -225 -225 -225 -225 -225 -225 -225 -225 -225 -225 -225 -225 -225 -225 -225 -225 -225 -225 -225 -225 -225 -225 -225 -225 -225 -225 -225 -225 -225 -225 -225 -225 -225 -225 -225 -225 -225 -225 -225 -225 -225 -225 -225 -225 -225 -225 -225 -225 -225 -225 -225 -225 -225 -225 -225 -225 -225 -225 -225 -225 -225 -225 -225 -225 -225 -225 -225 -225 -225 -225 -225 -225 -225 -225 -225 -225 -225 -225 -225 -225 -225 -225 -225 -225 -225 -225 -225 -225 -225 -225 -225 -225 -225 -225 -225 -225 -225 -225 -225 -225 -225 -225 -225 -225 -225 -225 -225 -225 -225 -225 -225 -225 -225 -225 -225 -225 -225 -225 -225 -225 -225 -225 -225 -225 -225 -225 -225 -225 -225 -225 -225 -225 -225 -225 -225 -225 -225 -225 -225 -225 -225 -225 -225 -225 -225 -225 11 11 -209 -209 -193 0 23 -209 -209 -209 -209 -209 -209 -209 91 91 91 90 90 90 89 87 87 88 -209 85 -193 -193 90 101 103 102 98 96 99 95 96 98 100 94 96 100 98 97 99 98 95 93 95 93 89 92 92 92 94 96 96 95 98 101 97 100 102 96 93 85 78 74 77 77 76 82 85 -209 -209 0 0 0 0 0
    0 0 0 0 0 0 0 0 0 0 0 0 0 0 0 0 0 0 0 0 0 0 0 0 0 0 0 0 0 0 0 0 0 0 0 0 0 0 0 0 0 0 0 0 0 0 0 0 0 0 0 0 0 0 0 0 0 0 0 0 0 0 0 0 0 0 0 0 0 -225 -225 -225 -225 -225 -225 -225 -225 -225 -225 -225 -225 -225 -225 -225 -225 -225 -225 -225 -225 -225 -225 -225 -225 -225 -225 -225 -225 -225 -225 -225 -225 -225 -225 -225 -225 -225 -225 -225 -225 -225 -225 -225 -225 -225 -225 -225 -225 -225 -225 -225 -225 -225 -225 -225 -225 -225 -225 -225 -225 -225 -225 -225 -225 -225 -225 -225 -225 -225 -225 -225 -225 -225 -225 -225 -225 -225 -225 -225 -225 -225 -225 -225 -225 -225 -225 -225 -225 -225 -225 -225 -225 -225 -225 -225 -225 -225 -225 -225 -225 -225 -225 -225 -225 -225 -225 -225 -225 -225 -225 -225 -225 -225 -225 -225 -225 -225 -225 -225 -225 -225 -225 -225 -225 -225 -225 -225 -225 -225 -225 -225 -225 -225 -225 -225 -225 -225 -225 -225 -225 -225 -225 -225 -225 -225 -225 -225 -225 -225 -225 -225 -225 -225 -225 -225 -225 -225 -225 -225 -225 -225 -225 -225 -225 -225 -225 -225 -225 -225 -225 -225 -209 -209 -209 -209 -209 -193 -209 -209 -209 -209 -209 -209 -209 -209 -193 91 91 91 91 90 89 -193 -193 -209 -209 -209 -193 -193 -209 103 106 105 102 100 101 99 101 102 103 96 98 101 100 99 100 99 96 94 98 95 91 93 94 93 95 98 97 96 98 100 99 101 103 99 98 90 -209 -209 -209 -209 79 85 -193 -209 -209 0 0 0 0 0
    0 0 0 0 0 0 0 0 0 0 0 0 0 0 0 0 0 0 0 0 0 0 0 0 0 0 0 0 0 0 0 0 0 0 0 0 0 0 0 0 0 0 0 0 0 0 0 0 0 0 0 0 0 0 0 0 0 0 0 0 0 0 0 0 0 0 0 0 0 -225 -225 -225 -225 -225 -225 -225 -225 -225 -225 -225 -225 -225 -225 -225 -225 -225 -225 -225 -225 -225 -225 -225 -225 -225 -225 -225 -225 -225 -225 -225 -225 -225 -225 -225 -225 -225 -225 -225 -225 -225 -225 -225 -225 -225 -225 -225 -225 -225 -225 -225 -225 -225 -225 -225 -225 -225 -225 -225 -225 -225 -225 -225 -225 -225 -225 -225 -225 -225 -225 -225 -225 -225 -225 -225 -225 -225 -225 -225 -225 -225 -225 -225 -225 -225 -225 -225 -225 -225 -225 -225 -225 -225 -225 -225 -225 -225 -225 -225 -225 -225 -225 -225 -225 -225 -225 -225 -225 -225 -225 -225 -225 -225 -225 -225 -225 -225 -225 -225 -225 -225 -225 -225 -225 -225 -225 -225 -225 -225 -225 -225 -225 -225 -225 -225 -225 -225 -225 -225 -225 -225 -225 -225 -225 -225 -225 -225 -225 -225 -225 -225 -225 -225 -225 -225 -225 -225 -225 -225 -225 -225 -225 -225 -225 -225 -225 -225 -225 -225 -225 -225 -225 -209 -209 -209 -209 -209 -209 -209 -209 -209 -209 -209 -209 -209 -209 -209 -193 91 92 91 -209 -209 -209 -209 -209 -209 -209 -209 -209 106 111 108 106 102 102 101 102 102 -193 94 97 101 100 99 100 99 96 95 98 95 90 94 94 94 95 97 97 98 99 100 99 100 101 99 100 94 96 -209 -209 -209 -209 88 -209 -209 -193 0 0 0 0 0
    0 0 0 0 0 0 0 0 0 0 0 0 0 0 0 0 0 0 0 0 0 0 0 0 0 0 0 0 0 0 0 0 0 0 0 0 0 0 0 0 0 0 0 0 0 0 0 0 0 0 0 0 0 0 0 0 0 0 0 0 0 0 0 0 0 0 0 0 0 -225 -225 -225 -225 -225 -225 -225 -225 -225 -225 -225 -225 -225 -225 -225 -225 -225 -225 -225 -225 -225 -225 -225 -225 -225 -225 -225 -225 -225 -225 -225 -225 -225 -225 -225 -225 -225 -225 -225 -225 -225 -225 -225 -225 -225 -225 -225 -225 -225 -225 -225 -225 -225 -225 -225 -225 -225 -225 -225 -225 -225 -225 -225 -225 -225 -225 -225 -225 -225 -225 -225 -225 -225 -225 -225 -225 -225 -225 -225 -225 -225 -225 -225 -225 -225 -225 -225 -225 -225 -225 -225 -225 -225 -225 -225 -225 -225 -225 -225 -225 -225 -225 -225 -225 -225 -225 -225 -225 -225 -225 -225 -225 -225 -225 -225 -225 -225 -225 -225 -225 -225 -225 -225 -225 -225 -225 -225 -225 -225 -225 -225 -225 -225 -225 -225 -225 -225 -225 -225 -225 -225 -225 -225 -225 -225 -225 -225 -225 -225 -225 -225 -225 -225 -225 -225 -225 -225 -225 -225 -225 -225 -225 -225 -225 -225 -225 -225 -225 -225 -225 -225 -225 -225 -209 -209 -209 -209 -209 -209 -209 -209 -193 -209 -209 -209 -209 -209 -209 -193 -193 -209 -209 -209 92 -209 -209 -209 -209 -209 -209 -209 -209 -209 -209 105 107 -193 -193 107 -209 91 96 101 -209 99 100 96 93 96 98 93 90 93 94 94 97 98 98 98 99 100 99 100 100 99 100 97 99 -209 -209 -193 94 92 -209 -209 -193 0 0 0 0 0
    0 0 0 0 0 0 0 0 0 0 0 0 0 0 0 0 0 0 0 0 0 0 0 0 0 0 0 0 0 0 0 0 0 0 0 0 0 0 0 0 0 0 0 0 0 0 0 0 0 0 0 0 0 0 0 0 0 0 0 0 0 0 0 0 0 0 0 0 0 -225 -225 -225 -225 -225 -225 -225 -225 -225 -225 -225 -225 -225 -225 -225 -225 -225 -225 -225 -225 -225 -225 -225 -225 -225 -225 -225 -225 -225 -225 -225 -225 -225 -225 -225 -225 -225 -225 -225 -225 -225 -225 -225 -225 -225 -225 -225 -225 -225 -225 -225 -225 -225 -225 -225 -225 -225 -225 -225 -225 -225 -225 -225 -225 -225 -225 -225 -225 -225 -225 -225 -225 -225 -225 -225 -225 -225 -225 -225 -225 -225 -225 -225 -225 -225 -225 -225 -225 -225 -225 -225 -225 -225 -225 -225 -225 -225 -225 -225 -225 -225 -225 -225 -225 -225 -225 -225 -225 -225 -225 -225 -225 -225 -225 -225 -225 -225 -225 -225 -225 -225 -225 -225 -225 -225 -225 -225 -225 -225 -225 -225 -225 -225 -225 -225 -225 -225 -225 -225 -225 -225 -225 -225 -225 -225 -225 -225 -225 -225 -225 -225 -225 -225 -225 -225 -225 -225 -225 -225 -225 -225 -225 -225 -225 -225 -225 -225 -225 -225 -225 -225 -225 -225 -209 -209 -209 -209 -209 -209 -209 0 0 -193 -209 -209 -209 -209 -209 -209 -209 -209 -209 100 99 108 115 -209 115 -209 -209 -209 -209 -209 -209 -209 -209 121 -193 -193 -209 -209 97 -209 -209 -209 95 -209 -193 95 94 92 91 93 94 94 97 98 97 98 98 100 99 100 101 99 100 98 99 99 -193 -193 96 95 -193 -193 -193 0 0 0 0 0
    0 0 0 0 0 0 0 0 0 0 0 0 0 0 0 0 0 0 0 0 0 0 0 0 0 0 0 0 0 0 0 0 0 0 0 0 0 0 0 0 0 0 0 0 0 0 0 0 0 0 0 0 0 0 0 0 0 0 0 0 0 0 0 0 0 0 0 0 0 138 137 136 -225 -225 -225 -225 -225 -225 -225 -225 -225 -225 -225 -225 -225 -225 -225 -225 -225 -225 -225 -225 -225 -225 -225 -225 -225 -225 -225 -225 -225 -225 -225 -225 -225 -225 -225 -225 -225 -225 -225 -225 -225 -225 -225 -225 -225 -225 -225 -225 -225 -225 -225 -225 -225 -225 -225 -225 -225 -225 -225 -225 -225 -225 -225 -225 -225 -225 -225 -225 -225 -225 -225 -225 -225 -225 -225 -225 -225 -225 -225 -225 -225 -225 -225 -225 -225 -225 -225 -225 -225 -225 -225 -225 -225 -225 -225 -225 -225 -225 -225 -225 -225 -225 -225 -225 -225 -225 -225 -225 -225 -225 -225 -225 -225 -225 -225 -225 -225 -225 -225 -225 -225 -225 -225 -225 -225 -225 -225 -225 -225 -225 -225 -225 -225 -225 -225 -225 -225 -225 -225 -225 -225 -225 -225 -225 -225 -225 -225 -225 -225 -225 -225 -225 -225 -225 -225 -225 -225 -225 -225 -225 -225 -225 -225 -225 -225 -225 -225 -225 -225 -209 -209 -209 -209 -209 -209 -209 -209 0 0 -193 -209 -209 -209 -209 -193 -209 -209 -209 -209 -209 -209 112 118 120 120 120 120 121 -193 -209 -209 -209 -193 124 124 124 -209 94 95 95 -209 -209 98 101 -209 99 98 -209 95 97 96 96 98 99 100 101 100 101 101 102 102 100 101 99 101 101 101 100 97 96 -209 -193 -209 0 0 0 0 0
    0 0 0 0 0 0 0 0 0 0 0 0 0 0 0 0 0 0 0 0 0 0 0 0 0 0 0 0 0 0 0 0 0 0 0 0 0 0 0 0 0 0 0 0 0 0 0 0 0 0 0 0 0 0 0 0 0 0 0 0 0 0 0 0 0 0 0 0 0 138 137 135 135 134 132 133 126 -225 -225 -225 -225 -225 -225 -225 -225 -225 -225 -225 -225 -225 -225 -225 -225 -225 -225 -225 -225 -225 -225 -225 -225 -225 -225 -225 -225 -225 -225 -225 -225 -225 -225 -225 -225 -225 -225 -225 -225 -225 -225 -225 -225 -225 -225 -225 -225 -225 -225 -225 -225 -225 -225 -225 -225 -225 -225 -225 -225 -225 -225 -225 -225 -225 -225 -225 -225 -225 -225 -225 -225 -225 -225 -225 -225 -225 -225 -225 -225 -225 -225 -225 -225 -225 -225 -225 -225 -225 -225 -225 -225 -225 -225 -225 -225 -225 -225 -225 -225 -225 -225 -225 -225 -225 -225 -225 -225 -225 -225 -225 -225 -225 -225 -225 -225 -225 -225 -225 -225 -225 -225 -225 -225 -225 -225 -225 -225 -225 -225 -225 -225 -225 -225 -225 -225 -225 -225 -225 -225 -225 -225 -225 -225 -225 -225 -225 -225 -225 -225 -225 -225 -225 -225 -225 -225 -225 -225 -225 -225 -225 -225 -225 -225 -209 -209 -209 -209 -209 -209 -209 -209 0 0 -193 -209 -209 -209 -209 -193 -209 -209 -209 -209 -193 -193 112 119 120 122 123 125 127 131 127 128 126 129 126 125 124 123 -209 -209 -209 -209 -209 -209 -209 -209 120 122 -209 -209 -209 -209 -209 -209 103 -193 104 103 102 103 103 103 101 102 100 103 103 103 102 100 101 -209 -209 -209 0 0 0 0 0
    0 0 0 0 0 0 0 0 0 0 0 0 0 0 0 0 0 0 0 0 0 0 0 0 0 0 0 0 0 0 0 0 0 0 0 0 0 0 0 0 0 0 0 0 0 0 0 0 0 0 0 0 0 0 0 0 0 0 0 0 0 0 0 0 0 0 0 0 0 138 137 134 135 134 133 134 127 138 -209 145 150 151 -225 -225 -225 -225 -225 -225 -225 -225 -225 -225 -225 -225 -225 -225 -225 -225 -225 -225 -225 -225 -225 -225 -225 -225 -225 -225 -225 -225 -225 -225 -225 -225 -225 -225 -225 -225 -225 -225 -225 -225 -225 -225 -225 -225 -225 -225 -225 -225 -225 -225 -225 -225 -225 -225 -225 -225 -225 -225 -225 -225 -225 -225 -225 -225 -225 -225 -225 -225 -225 -225 -225 -225 -225 -225 -225 -225 -225 -225 -225 -225 -225 -225 -225 -225 -225 -225 -225 -225 -225 -225 -225 -225 -225 -225 -225 -225 -225 -225 -225 -225 -225 -225 -225 -225 -225 -225 -225 -225 -225 -225 -225 -225 -225 -225 -225 -225 -225 -225 -225 -225 -225 -225 -225 -225 -225 -225 -225 -225 -225 -225 -225 -225 -225 -225 -225 -225 -225 -225 -225 -225 -225 -225 -225 -225 -225 -225 -225 -225 -225 -225 -225 -225 -225 -225 -225 -225 -225 -225 -225 -209 -209 -209 -209 -209 -209 -209 -209 0 -193 -209 -209 -209 -209 -209 -209 -209 -209 -209 -209 -209 104 112 118 119 123 125 129 133 135 132 132 130 133 128 127 124 123 -209 -193 -193 125 124 124 -193 -193 123 123 124 123 -209 -209 -209 -209 -209 -209 109 104 103 104 104 104 103 103 101 104 105 106 104 102 103 107 -193 -209 0 0 0 0 0
    0 0 0 0 0 0 0 0 0 0 0 0 0 0 0 0 0 0 0 0 0 0 0 0 0 0 0 0 0 0 0 0 0 0 0 0 0 0 0 0 0 0 0 0 0 0 0 0 0 0 0 0 0 0 0 0 0 0 0 0 0 0 0 0 0 0 0 0 0 138 137 134 135 -209 134 -209 -209 -209 -209 -209 167 -209 -209 152 149 148 -225 -225 -225 -225 -225 -225 -225 -225 -225 -225 -225 -225 -225 -225 -225 -225 -225 -225 -225 -225 -225 -225 -225 -225 -225 -225 -225 -225 -225 -225 -225 -225 -225 -225 -225 -225 -225 -225 -225 -225 -225 -225 -225 -225 -225 -225 -225 -225 -225 -225 -225 -225 -225 -225 -225 -225 -225 -225 -225 -225 -225 -225 -225 -225 -225 -225 -225 -225 -225 -225 -225 -225 -225 -225 -225 -225 -225 -225 -225 -225 -225 -225 -225 -225 -225 -225 -225 -225 -225 -225 -225 -225 -225 -225 -225 -225 -225 -225 -225 -225 -225 -225 -225 -225 -225 -225 -225 -225 -225 -225 -225 -225 -225 -225 -225 -225 -225 -225 -225 -225 -225 -225 -225 -225 -225 -225 -225 -225 -225 -225 -225 -225 -225 -225 -225 -225 -225 -225 -225 -225 -225 -225 -225 -225 -225 -225 -225 -225 -225 -225 -225 -225 -225 -225 -225 -209 -209 -209 -209 -209 -209 -209 -209 -209 -209 -209 -209 -209 -209 -209 -209 -209 -209 -209 -209 -193 -193 112 118 118 124 -209 -209 -209 138 135 136 134 135 132 129 124 122 -193 119 123 125 124 124 122 123 124 124 124 123 121 -193 121 123 -209 123 123 -209 101 103 104 102 102 103 101 104 106 108 -193 -193 103 111 106 110 0 0 0 0 0
    0 0 0 0 0 0 0 0 0 0 0 0 0 0 0 0 0 0 0 0 0 0 0 0 0 0 0 0 0 0 0 0 0 0 0 0 0 0 0 0 0 0 0 0 0 0 0 0 0 0 0 0 0 0 0 0 0 0 0 0 0 0 0 0 0 0 0 0 0 139 138 136 137 -193 -209 -209 -209 -209 -209 -193 169 170 164 158 153 154 154 155 -225 -225 -225 -225 -225 -225 156 156 158 159 161 159 161 156 154 155 156 154 154 151 150 -225 -225 -225 -225 -225 -225 -225 -225 -225 -225 -225 -225 -225 -225 -225 -225 -225 -225 -225 -225 -225 -225 -225 -225 -225 -225 -225 -225 -225 -225 -225 -225 -225 -225 -225 -225 -225 -225 -225 -225 -225 -225 -225 -225 -225 -225 -225 -225 -225 -225 -225 -225 -225 -225 -225 -225 -225 -225 -225 -225 -225 -225 -225 -225 -225 -225 -225 -225 -225 -225 -225 -225 -225 -225 -225 -225 -225 -225 -225 -225 -225 -225 -225 -225 -225 -225 -225 -225 -225 -225 -225 -225 -225 -225 -225 -225 -225 -225 -225 -225 -225 -225 -225 -225 -225 -225 -225 -225 -225 -225 -225 -225 -225 -225 -225 -225 -225 -225 -225 -225 -225 -225 -225 -225 -225 -225 -225 -225 -225 -225 -225 -225 -209 -209 -209 -209 -209 -209 -209 -209 -209 -209 -209 -209 -209 -209 -209 12 19 -209 -209 -209 -209 -209 113 -209 -209 -209 -209 -209 -209 139 137 138 -193 136 134 132 125 121 119 118 123 125 125 124 122 124 124 124 125 123 122 -193 121 125 124 127 127 130 -209 -209 -209 97 100 102 100 104 106 108 106 -193 -209 113 117 114 0 0 0 0 0
    0 0 0 0 0 0 0 0 0 0 0 0 0 0 0 0 0 0 0 0 0 0 0 0 0 0 0 0 0 0 0 0 0 0 0 0 0 0 0 0 0 0 0 0 0 0 0 0 0 0 0 0 0 0 0 0 0 0 0 0 0 0 0 0 0 0 0 0 0 141 139 137 140 -193 -193 -209 -209 -193 168 165 168 169 165 161 157 166 162 157 -225 -225 -225 -225 160 163 156 157 158 157 160 158 158 154 153 153 154 154 153 150 150 145 154 -225 -225 -225 -225 -225 -225 -225 -225 -225 -225 -225 -225 -225 -225 -225 -225 -225 -225 -225 -225 -225 -225 -225 -225 -225 -225 -225 -225 -225 -225 -225 -225 -225 -225 -225 -225 -225 -225 -225 -225 -225 -225 -225 -225 -225 -225 -225 -225 -225 -225 -225 -225 -225 -225 -225 -225 -225 -225 -225 -225 -225 -225 -225 -225 -225 -225 -225 -225 -225 -225 -225 -225 -225 -225 -225 -225 -225 -225 -225 -225 -225 -225 -225 -225 -225 -225 -225 -225 -225 -225 -225 -225 -225 -225 -225 -225 -225 -225 -225 -225 -225 -225 -225 -225 -225 -225 -225 -225 -225 -225 -225 -225 -225 -225 -225 -225 -225 -225 -225 -225 -225 -225 -225 -225 -225 -225 -225 -225 -225 -209 -209 121 127 -209 -209 -209 -209 -209 -209 -209 -209 -209 -209 -209 15 14 16 18 19 18 13 -209 -209 -209 -209 -209 -209 -209 -209 140 139 139 -193 137 135 134 132 -209 -209 -193 124 -209 128 -209 125 129 129 129 129 125 123 -193 121 125 123 126 127 131 -209 66 -209 -209 98 99 100 104 105 109 -209 -193 -193 117 121 118 0 0 0 0 0
    0 0 0 0 0 0 0 0 0 0 0 0 0 0 0 0 0 0 0 0 0 0 0 0 0 0 0 0 0 0 0 0 0 0 0 0 0 0 0 0 0 0 0 0 0 0 0 0 0 0 0 0 0 0 0 0 0 0 0 0 0 0 0 0 0 0 0 0 0 -177 141 140 -193 -209 -193 -193 159 160 169 167 168 169 167 165 163 169 -193 157 -225 -225 -225 160 160 163 156 157 158 157 157 156 156 153 152 152 154 153 153 150 150 148 154 157 -225 -225 -225 -225 -225 -225 -225 -225 -225 -225 -225 -225 -225 -225 -225 -225 -225 -225 -225 -225 -225 -225 -225 -225 -225 -225 -225 -225 -225 -225 -225 -225 -225 -225 -225 -225 -225 -225 -225 -225 -225 -225 -225 -225 -225 -225 -225 -225 -225 -225 -225 -225 -225 -225 -225 -225 -225 -225 -225 -225 -225 -225 -225 -225 -225 -225 -225 -225 -225 -225 -225 -225 -225 -225 -225 -225 -225 -225 -225 -225 -225 -225 -225 -225 -225 -225 -225 -225 -225 -225 -225 -225 -225 -225 -225 -225 -225 -225 -225 -225 -225 -225 -225 -225 -225 -225 -225 -225 -225 -225 -225 -225 -209 -209 -209 -209 -209 -209 0 0 0 0 0 0 -209 -209 -193 -193 -193 -209 -209 -177 -209 -209 -193 -209 -209 -209 -209 -209 -209 -209 -209 -209 -209 -209 -209 -209 -209 -209 -209 -209 -209 -209 -193 -209 -209 -209 138 138 139 -193 137 137 137 137 -193 130 124 130 133 132 132 133 133 132 133 134 129 127 125 122 126 126 129 129 133 -193 -193 -193 -209 -209 -209 101 107 -193 110 -209 -209 -209 118 123 121 0 0 0 0 0
    0 0 0 0 0 0 0 0 0 0 0 0 0 0 0 0 0 0 0 0 0 0 0 0 0 0 0 0 0 0 0 0 0 0 0 0 0 0 0 0 0 0 0 0 0 0 0 0 0 0 0 0 0 0 0 0 0 0 0 0 0 0 0 0 0 0 0 0 0 -193 -209 -209 -209 -209 -209 161 168 166 170 169 169 170 169 167 167 169 -193 157 -225 -225 -225 158 157 160 155 155 155 155 155 155 155 153 152 153 154 154 154 151 151 150 155 157 -225 -225 -225 -225 -225 -225 -225 -225 -225 -225 -225 -225 -225 -225 -225 -225 -225 -225 -225 -225 -225 -225 -225 -225 -225 -225 -225 -225 -225 -225 -225 -225 -225 -225 -225 -225 -225 -225 -225 -225 -225 -225 -225 -225 -225 -225 -225 -225 -225 -225 -225 -225 -225 -225 -225 -225 -225 -225 -225 -225 -225 -225 -225 -225 -225 -225 -225 -225 -225 -225 -225 -225 -225 -225 -225 -225 -225 -225 -225 -225 -225 -225 -225 -225 -225 -225 -225 -225 -225 -225 -225 -225 -225 -225 -225 -225 -225 -225 -225 -225 -225 -225 -225 -225 -225 -225 -225 -225 -225 -225 -209 -209 -209 -209 -209 -209 -209 -209 -209 -193 -193 -193 0 0 12 11 15 18 19 -193 -209 -193 -209 -209 -193 -209 -209 -193 -193 -193 154 -193 152 -193 -193 -193 150 150 -209 -209 -209 -209 -209 -209 -209 -209 -209 -209 -193 139 139 137 137 137 137 137 137 135 125 133 134 134 134 136 135 134 134 136 133 134 135 126 130 132 134 134 136 135 -193 -193 139 138 -209 -209 -209 -209 113 -209 -209 -209 118 126 130 0 0 0 0 0
    0 0 0 0 0 0 0 0 0 0 0 0 0 0 0 0 0 0 0 0 0 0 0 0 0 0 0 0 0 0 0 0 0 0 0 0 0 0 0 0 0 0 0 0 0 0 0 0 0 0 0 0 0 0 0 0 0 0 0 0 0 0 0 0 0 0 0 0 0 -209 -209 -209 -209 -209 -209 165 169 167 170 170 170 171 170 168 168 169 -193 157 -225 -225 -225 157 157 160 155 155 155 155 155 155 155 153 152 153 154 154 154 151 151 150 155 157 -225 -225 -225 -225 -225 -225 -225 -225 -225 -225 -225 -225 -225 -225 -225 -225 -225 -225 -225 -225 -225 -225 -225 -225 -225 -225 -225 -225 -225 -225 -225 -225 -225 -225 -225 -225 -225 -225 -225 -225 -225 -225 -225 -225 -225 -225 -225 -225 -225 -225 -225 -225 -225 -225 -225 -225 -225 -225 -225 -225 -225 -225 -225 -225 -225 -225 -225 -225 -225 -225 -225 -225 -225 -225 -225 -225 -225 -225 -225 -225 -225 -225 -225 -225 -225 -225 -225 -225 -225 -225 -225 -225 -225 -225 -225 -225 -225 -225 -225 -225 -225 -225 -225 -225 -225 -225 -225 -225 -225 -225 -209 -209 -209 -209 -209 -209 -209 -209 -209 -209 -193 -209 0 0 12 10 15 -193 20 -209 -209 -193 -209 -193 -177 -209 -193 152 152 153 154 153 152 151 149 149 150 150 -193 -209 -209 -209 -193 -193 153 -209 -209 -209 -209 140 141 137 137 138 138 138 -193 -209 123 133 135 135 135 136 137 134 135 137 136 137 138 132 133 134 136 136 137 136 137 138 139 139 139 -209 126 129 -193 -209 -209 -193 121 134 -193 0 0 0 0 0
    0 0 0 0 0 0 0 0 0 0 0 0 0 0 0 0 0 0 0 0 0 0 0 0 0 0 0 0 0 0 0 0 0 0 0 0 0 0 0 0 0 0 0 0 0 0 0 0 0 0 0 0 0 0 0 0 0 0 0 0 0 0 0 0 0 0 0 0 0 161 164 162 165 166 167 167 168 168 169 169 170 170 169 168 168 169 -193 159 155 -225 -225 158 157 160 155 155 155 155 155 155 155 153 152 153 154 154 154 151 151 150 155 157 -225 -225 -225 -225 -225 -225 -225 -225 -225 -225 -225 -225 -225 -225 -225 -225 -225 -225 -225 -225 -225 -225 -225 -225 -225 -225 -225 -225 -225 -225 -225 -225 -225 -225 -225 -225 -225 -225 -225 -225 -225 -225 -225 -225 -225 -225 -225 -225 -225 -225 -225 -225 -225 -225 -225 -225 -225 -225 -225 -225 -225 -225 -225 -225 -225 -225 -225 -225 -225 -225 -225 -225 -225 -225 -225 -225 -225 -225 -225 -225 -225 -225 -225 -225 -225 -225 -225 -225 -225 -225 -225 -225 -225 -225 -225 -225 -225 -225 -225 -225 -225 -225 -225 -225 -225 -225 -225 -225 -209 -209 -209 -209 -209 -209 -209 -209 -209 -209 -209 -209 -209 -209 -193 0 12 11 15 -193 -193 -209 -209 -209 -193 -177 -177 150 151 152 153 153 155 155 153 152 150 150 150 150 151 -193 -209 -193 155 155 154 -193 -193 -193 -193 144 145 140 139 140 139 139 -209 146 -209 136 137 137 137 139 139 135 136 138 138 138 -193 131 133 134 137 136 138 138 139 141 142 142 142 141 -193 135 -193 125 -209 -193 124 135 138 0 0 0 0 0
    0 0 0 0 0 0 0 0 0 0 0 0 0 0 0 0 0 0 0 0 0 0 0 0 0 0 0 0 0 0 0 0 0 0 0 0 0 0 0 0 0 0 0 0 0 0 0 0 0 0 0 0 0 0 0 0 0 0 0 0 0 0 0 0 0 0 0 0 0 166 166 165 166 166 167 166 168 167 169 169 170 171 169 168 168 167 165 162 160 -225 159 158 157 160 155 155 156 155 155 155 155 153 152 153 154 154 154 151 151 150 155 157 -225 -225 -225 -225 -225 -225 -225 -225 -225 -225 -225 -225 -225 -225 -225 -225 -225 -225 -225 -225 -225 -225 -225 -225 -225 -225 -225 -225 -225 -225 -225 -225 -225 -225 -225 -225 -225 -225 -225 -225 -225 -225 -225 -225 -225 -225 -225 -225 -225 -225 -225 -225 -225 -225 -225 -225 -225 -225 -225 -225 -225 -225 -225 -225 -225 -225 -225 -225 -225 -225 -225 -225 -225 -225 -225 -225 -225 -225 -225 -225 -225 -225 -225 -225 -225 -225 -225 -225 -225 -225 -225 -225 -225 -225 -225 -225 -225 -225 -225 -225 -225 -225 -225 -225 -225 -225 -225 -209 -209 -209 -209 -209 -209 -209 -209 -209 -209 -209 -209 -209 -209 -209 -209 0 11 10 14 -193 -209 -209 -209 -209 -193 -177 -177 149 150 152 153 153 155 155 153 153 151 151 151 151 152 152 -193 -209 155 155 155 -193 0 -193 -193 146 149 -209 -193 -193 141 142 -193 151 -209 138 142 142 143 149 147 -193 140 143 143 -193 -209 132 134 134 136 136 139 140 140 143 144 145 146 146 -193 -209 -193 -209 -209 -193 123 -193 140 0 0 0 0 0
    0 0 0 0 0 0 0 0 0 0 0 0 0 0 0 0 0 0 0 0 0 0 0 0 0 0 0 0 0 0 0 0 0 0 0 0 0 0 0 0 0 0 0 0 0 0 0 0 0 0 0 0 0 0 0 0 0 0 0 0 0 0 0 0 0 0 0 0 0 168 168 167 167 167 167 167 168 167 169 169 171 172 170 169 168 167 167 165 165 166 162 160 158 162 155 155 155 155 155 154 155 153 151 153 154 154 154 151 151 150 155 158 -225 -225 -225 -225 -225 -225 -225 -225 -225 -225 -225 -225 -225 -225 -225 -225 -225 -225 -225 -225 -225 -225 -225 -225 -225 -225 -225 -225 -225 -225 -225 -225 -225 -225 -225 -225 -225 -225 -225 -225 -225 -225 -225 -225 -225 -225 -225 -225 -225 -225 -225 -225 -225 -225 -225 -225 -225 -225 -225 -225 -225 -225 -225 -225 -225 -225 -225 -225 -225 -225 -225 -225 -225 -225 -225 -225 -225 -225 -225 -225 -225 -225 -225 -225 -225 -225 -225 -225 -225 -225 -225 -225 -225 -225 -225 -225 -225 -225 -225 -225 -225 -225 -225 -225 -225 -225 -209 -209 -209 -209 -209 -209 -209 -209 -209 -209 -209 -209 -209 -209 -209 -209 -209 -209 -209 -209 -177 -209 -209 -209 -209 -209 -209 -209 144 148 150 153 154 155 155 156 154 154 152 152 152 152 153 153 -193 -193 157 157 158 -193 0 -193 -193 -193 -209 -209 -209 -193 144 146 151 152 -209 -209 150 151 153 156 154 -209 -209 -209 -209 -209 -209 -209 -209 -209 -209 -193 139 143 144 146 148 -209 -209 -209 -209 -209 -209 -209 -209 -193 -209 140 143 0 0 0 0 0</data></disparity>
</opencv_storage>
