<?xml version="1.0"?>
<opencv_storage>
<gps_time_stamp>38208</gps_time_stamp>
<gps_x>-1.3587873458862305e+001</gps_x>
<gps_y>1.4524523019790649e+000</gps_y>
<gps_z>-3.9616551399230957e+000</gps_z>
<image_time_stamp>26165</image_time_stamp>
<disparity type_id="opencv-matrix">
  <rows>93</rows>
  <cols>320</cols>
  <dt>s</dt>
  <data>
    0 0 0 0 0 0 0 0 0 0 0 0 0 0 0 0 0 0 0 0 0 0 0 0 0 0 0 0 0 0 0 0 0 0 0 0 0 0 0 0 0 0 0 0 0 0 0 0 0 0 0 0 0 0 0 0 0 0 0 0 0 0 0 0 0 0 0 0 0 0 0 0 0 0 0 0 0 0 0 0 0 0 0 0 0 0 0 0 0 0 0 0 0 0 0 0 0 0 0 0 0 0 0 0 0 0 0 0 0 0 0 0 0 9 0 9 0 0 9 0 9 0 0 9 0 9 0 0 0 0 0 0 0 0 0 10 11 10 11 12 12 11 12 12 12 12 12 11 11 11 12 10 10 9 0 0 0 0 9 0 0 0 0 0 0 0 0 0 0 0 10 0 9 0 9 9 0 0 0 0 9 0 11 9 14 12 11 12 11 12 12 10 12 0 10 10 10 10 10 12 12 11 11 12 11 11 11 13 10 10 10 8 0 0 0 9 0 9 10 9 10 14 12 14 13 12 12 12 18 14 12 13 12 14 15 16 17 15 16 17 20 17 16 17 16 16 16 17 17 12 18 19 19 20 19 18 21 21 20 19 19 19 19 19 19 20 18 20 23 23 22 22 22 22 23 24 24 24 24 25 24 24 25 25 25 25 26 26 27 29 31 30 28 30 30 30 30 28 27 -193 -193 29 28 28 28 30 31 35 39 39 44 44 46 47 45 0 0 0 0 0
    0 0 0 0 0 0 0 0 0 0 0 0 0 0 0 0 0 0 0 0 0 0 0 0 0 0 0 0 0 0 0 0 0 0 0 0 0 0 0 0 0 0 0 0 0 0 0 0 0 0 0 0 0 0 0 0 0 0 0 0 0 0 0 0 0 0 0 0 0 0 0 0 0 0 0 0 0 0 0 0 0 0 0 0 0 0 0 0 9 9 9 9 9 0 0 0 0 0 0 0 0 0 0 0 0 0 0 0 0 0 0 0 0 0 0 0 0 0 0 0 9 0 0 9 0 9 0 0 0 0 0 0 0 0 0 11 11 10 12 12 12 11 12 12 12 12 12 11 11 11 12 10 11 9 0 0 0 9 9 0 0 0 0 0 0 0 0 0 0 0 0 0 0 0 0 0 0 0 0 0 0 0 11 9 14 12 11 13 12 12 12 10 12 0 9 10 9 10 10 12 12 11 12 12 12 11 12 15 10 10 10 0 0 0 0 0 0 9 10 9 10 15 12 15 13 12 12 11 18 14 12 13 12 14 15 15 17 14 15 17 20 17 16 17 16 16 16 17 17 13 19 19 18 20 20 19 22 22 21 20 19 19 19 19 19 19 17 20 23 23 22 23 22 22 23 24 24 24 24 25 23 24 25 24 24 25 25 26 26 29 31 30 29 31 30 31 30 28 28 -193 -193 28 28 28 28 31 32 35 38 38 43 43 45 45 44 0 0 0 0 0
    0 0 0 0 0 0 0 0 0 0 0 0 0 0 0 0 0 0 0 0 0 0 0 0 0 0 0 0 0 0 0 0 0 0 0 0 0 0 0 0 0 0 0 0 0 0 0 0 0 0 0 0 0 0 0 0 0 0 0 0 0 0 0 0 0 0 0 0 0 0 0 0 0 0 0 0 9 0 0 0 0 0 0 0 0 0 0 0 10 10 9 9 10 9 9 0 0 0 0 0 0 0 9 0 0 0 0 0 0 0 0 0 0 0 0 0 0 0 0 0 0 0 0 9 0 0 0 0 0 0 0 0 0 0 0 11 11 10 12 12 12 12 12 12 12 13 13 12 12 13 14 12 12 10 0 9 9 9 9 0 0 0 0 0 0 0 0 0 0 0 0 0 0 0 0 0 0 0 0 0 9 0 11 9 14 12 11 13 11 12 11 10 11 0 9 9 9 9 10 12 12 12 11 12 12 12 13 16 10 10 10 0 0 0 0 0 0 9 10 9 10 16 13 15 13 12 12 11 18 14 12 13 12 14 14 15 17 14 15 17 20 16 16 17 16 16 16 17 17 13 19 19 18 20 20 20 22 23 21 20 19 19 19 20 19 19 16 20 23 24 23 24 23 23 24 25 24 24 24 24 23 23 24 23 22 23 25 25 26 28 31 29 29 31 30 32 30 28 28 -193 -193 28 28 28 29 31 32 34 38 37 41 42 44 44 43 0 0 0 0 0
    0 0 0 0 0 0 0 0 0 0 0 0 0 0 0 0 0 0 0 0 0 0 0 0 0 0 0 0 0 0 0 0 0 0 0 0 0 0 0 0 0 0 0 0 0 0 0 0 0 0 0 0 0 0 0 0 0 0 0 0 0 0 0 0 0 0 0 0 0 0 0 0 0 0 0 0 0 0 0 0 0 0 0 0 0 0 0 9 10 10 9 10 10 9 0 0 0 0 0 0 0 0 9 0 0 0 0 0 0 0 0 0 0 0 0 0 0 0 0 0 0 0 0 0 0 0 0 0 0 0 0 0 0 0 0 10 11 10 12 12 12 11 12 12 13 13 13 12 12 13 14 12 12 10 0 9 9 9 9 0 0 0 0 0 0 0 0 0 0 0 0 0 0 0 9 0 0 0 0 0 9 0 11 9 12 11 11 11 11 11 11 9 10 9 10 10 10 10 10 13 12 12 12 12 12 12 13 17 10 11 10 0 0 0 0 0 0 9 10 9 10 15 12 15 13 13 12 12 18 14 12 13 12 13 14 15 16 14 15 17 20 16 17 17 16 16 16 17 17 14 19 18 18 20 20 20 23 23 21 20 20 20 20 20 19 19 16 19 23 25 25 25 24 25 25 27 25 24 24 24 22 23 23 23 21 23 25 25 26 28 30 29 29 30 30 32 30 27 28 -193 -193 28 28 28 29 30 32 34 37 37 41 42 43 43 43 0 0 0 0 0
    0 0 0 0 0 0 0 0 0 0 0 0 0 0 0 0 0 0 0 0 0 0 0 0 0 0 0 0 0 0 0 0 0 0 0 0 0 0 0 0 0 0 0 0 0 0 0 0 0 0 0 0 0 0 0 0 0 0 0 0 0 0 0 0 0 0 0 0 0 0 0 0 0 0 0 0 9 0 0 0 0 0 9 0 0 0 0 0 0 0 0 0 0 0 0 0 0 0 0 0 0 0 9 0 0 0 0 0 0 0 0 0 0 0 0 0 0 0 0 0 0 0 0 9 9 9 0 0 0 0 9 0 0 0 0 10 10 10 11 11 11 11 11 11 12 12 12 11 11 12 12 11 11 10 8 10 9 10 9 0 0 0 0 0 0 0 0 0 0 0 9 0 9 11 12 11 9 10 0 9 9 0 10 9 10 10 9 10 9 10 9 0 9 9 10 10 11 11 11 14 13 13 12 12 13 12 13 17 10 11 10 0 0 0 0 0 0 9 10 9 10 14 12 14 12 12 12 11 19 14 12 13 12 13 13 14 16 14 15 17 21 16 18 18 17 16 16 17 17 14 18 17 18 20 20 20 23 24 22 21 20 20 19 19 19 19 16 18 22 25 25 25 24 25 26 27 24 24 24 24 22 23 23 23 21 24 25 25 26 28 30 30 29 30 30 32 30 28 28 27 27 28 28 28 29 30 31 33 37 36 40 41 42 42 42 0 0 0 0 0
    0 0 0 0 0 0 0 0 0 0 0 0 0 0 0 0 0 0 0 0 0 0 0 0 0 0 0 0 0 0 0 0 0 0 0 0 0 0 0 0 0 0 0 0 0 0 0 0 0 0 0 0 0 0 0 0 0 0 0 0 0 0 0 0 0 0 0 0 0 0 0 0 0 0 0 0 9 0 0 0 9 9 10 0 0 0 0 0 0 0 0 0 0 0 0 0 0 0 0 0 0 0 9 0 0 0 0 0 0 0 0 0 0 0 0 0 0 0 0 0 0 0 0 10 9 9 0 0 0 0 9 0 0 0 0 10 10 9 10 10 10 10 11 10 11 11 11 11 11 12 12 11 11 10 9 10 10 10 9 0 0 0 0 0 0 0 0 0 0 0 9 0 10 11 11 12 9 10 0 9 9 9 10 9 -193 -193 0 0 0 9 0 0 0 9 10 11 12 12 11 14 13 13 12 12 13 13 13 18 10 11 11 0 0 0 0 0 0 0 9 0 10 13 12 13 12 12 11 11 19 14 12 12 12 12 13 14 17 13 15 17 21 16 18 18 17 16 17 17 17 13 18 16 18 19 20 20 22 23 21 19 19 18 18 18 18 18 15 17 22 24 25 25 24 24 25 27 23 23 23 24 22 22 23 22 22 25 26 26 26 29 30 30 30 30 30 32 31 28 28 27 27 28 28 28 29 29 31 33 35 35 38 39 40 39 39 0 0 0 0 0
    0 0 0 0 0 0 0 0 0 0 0 0 0 0 0 0 0 0 0 0 0 0 0 0 0 0 0 0 0 0 0 0 0 0 0 0 0 0 0 0 0 0 0 0 0 0 0 0 0 0 0 0 0 0 0 0 0 0 0 0 0 0 0 0 0 0 0 0 0 0 0 0 0 0 0 0 9 0 0 0 9 9 9 0 0 8 0 0 0 0 0 0 0 0 0 0 0 0 0 0 0 0 9 0 0 0 0 0 0 0 0 0 0 0 0 9 9 9 9 9 9 0 0 10 9 9 0 0 0 0 0 0 0 0 0 9 9 0 9 9 9 9 10 9 11 11 11 11 11 12 12 10 11 -193 9 10 10 10 9 0 0 0 0 0 0 0 0 -193 0 9 9 0 9 11 11 11 9 10 0 9 9 10 -193 9 -193 -193 0 9 9 9 0 0 0 9 10 11 11 12 11 14 13 13 12 12 12 13 13 18 10 11 12 9 9 0 0 0 0 0 0 0 9 13 12 12 11 11 11 11 18 14 11 12 12 13 13 15 16 13 15 18 21 16 18 18 17 16 17 17 17 14 18 16 18 19 21 22 23 23 22 20 19 19 19 18 18 19 15 15 22 24 24 24 24 24 25 26 23 22 22 24 22 22 22 22 22 26 26 27 26 29 30 30 29 30 30 31 30 27 28 28 27 29 28 28 28 29 31 32 34 33 35 37 37 36 35 0 0 0 0 0
    0 0 0 0 0 0 0 0 0 0 0 0 0 0 0 0 0 0 0 0 0 0 0 0 0 0 0 0 0 0 0 0 0 0 0 0 0 0 0 0 0 0 0 0 0 0 0 0 0 0 0 0 0 0 0 0 0 0 0 0 0 0 0 0 0 0 0 0 0 0 0 0 0 0 0 0 9 0 0 0 9 9 9 9 9 9 0 0 0 0 0 0 0 0 0 0 0 0 0 8 0 0 9 0 0 0 0 0 0 0 0 0 0 9 0 10 10 10 10 10 10 9 0 10 9 9 0 0 0 0 0 0 0 0 0 9 9 0 0 9 9 9 10 0 10 10 11 11 10 12 11 10 -193 -193 -193 -193 10 9 9 0 0 0 0 0 0 0 -193 -193 -193 -193 9 -209 -193 10 -193 -193 -193 10 9 9 10 11 -193 10 -209 -193 9 9 9 9 0 0 0 9 10 11 12 13 11 15 14 13 13 13 12 14 13 18 10 10 11 9 9 0 9 8 0 0 9 0 9 13 11 13 12 12 11 11 18 14 12 12 13 13 14 15 16 13 15 18 20 16 18 18 17 16 16 17 16 13 17 16 17 18 22 22 22 23 22 20 20 20 20 18 18 19 14 13 22 23 23 23 23 23 24 25 22 22 22 24 22 22 23 22 23 26 27 27 27 29 30 30 29 30 30 31 31 28 29 29 28 29 29 29 29 29 31 31 33 32 34 36 35 35 34 0 0 0 0 0
    0 0 0 0 0 0 0 0 0 0 0 0 0 0 0 0 0 0 0 0 0 0 0 0 0 0 0 0 0 0 0 0 0 0 0 0 0 0 0 0 0 0 0 0 0 0 0 0 0 0 0 0 0 0 0 0 0 0 0 0 0 0 0 0 0 0 0 0 0 0 0 0 0 0 0 0 0 0 0 0 0 8 9 9 0 9 0 0 0 0 0 0 0 0 0 0 0 0 0 0 0 0 9 0 0 0 0 0 0 0 0 0 0 9 9 10 10 10 10 10 10 9 0 10 9 9 0 0 0 0 0 0 0 0 0 0 0 0 0 0 0 0 10 0 10 -177 11 11 10 12 12 -193 -193 140 141 -193 -193 -193 -193 0 0 0 9 0 0 -193 -193 399 -193 -193 -209 -209 -209 -209 -209 -209 -193 -193 -209 10 10 -193 -193 10 -209 -209 9 9 9 9 0 0 0 9 11 11 12 13 11 15 14 14 13 13 13 15 14 18 10 11 11 9 9 8 9 9 0 9 9 0 10 13 11 13 12 12 11 12 17 14 12 13 13 13 14 15 16 12 15 17 20 15 18 18 17 16 16 17 17 14 18 15 17 19 23 22 21 22 22 20 20 20 20 17 19 20 15 13 21 22 22 22 23 22 24 24 21 21 21 24 22 23 23 23 24 26 27 28 26 29 30 30 29 29 29 31 31 29 30 30 29 30 30 30 30 30 31 31 32 32 33 35 34 33 32 0 0 0 0 0
    0 0 0 0 0 0 0 0 0 0 0 0 0 0 0 0 0 0 0 0 0 0 0 0 0 0 0 0 0 0 0 0 0 0 0 0 0 0 0 0 0 0 0 0 0 0 0 0 0 0 0 0 0 0 0 0 0 0 0 0 0 0 0 0 0 0 0 0 0 0 0 0 0 0 0 0 0 0 0 0 0 0 9 9 0 9 0 0 0 0 0 0 0 0 0 0 0 0 0 0 0 0 9 0 0 0 0 0 0 0 0 0 0 10 9 10 10 10 10 10 10 9 0 10 9 10 0 0 0 0 0 0 0 0 0 0 0 0 0 0 0 0 9 -193 -177 -193 11 11 11 12 -193 -193 -193 141 141 -193 -193 -193 -193 0 0 -193 -193 -193 0 -193 -209 399 398 -193 -209 -209 -209 -209 -209 -193 -193 -209 -209 -209 -209 -193 -193 10 -209 -209 -193 -193 -193 9 0 0 0 10 11 11 11 13 10 15 13 13 12 12 12 15 13 18 10 11 13 9 9 9 10 9 9 9 9 0 10 12 11 12 11 12 11 12 17 13 12 13 13 14 14 15 16 12 15 17 19 16 19 18 18 16 17 18 18 14 18 15 17 19 23 21 21 22 22 21 21 20 20 17 20 20 16 13 21 22 22 20 22 22 23 24 21 20 21 24 23 23 23 24 25 27 28 28 26 29 30 29 29 29 29 30 30 29 30 30 30 31 31 31 31 31 32 31 31 32 31 32 32 31 29 0 0 0 0 0
    0 0 0 0 0 0 0 0 0 0 0 0 0 0 0 0 0 0 0 0 0 0 0 0 0 0 0 0 0 0 0 0 0 0 0 0 0 0 0 0 0 0 0 0 0 0 0 0 0 0 0 0 0 0 0 0 0 0 0 0 0 0 0 0 0 0 0 0 0 0 0 0 0 0 0 0 0 0 0 0 0 9 9 9 0 9 0 0 0 0 0 0 0 0 0 0 0 0 0 0 0 0 0 0 0 0 0 0 0 0 0 0 0 -193 9 10 10 10 10 10 10 9 0 11 9 10 0 0 0 0 0 0 0 0 0 0 0 0 0 0 0 0 9 -177 -177 -193 10 11 11 12 -193 -193 -193 141 142 -193 -193 -193 -193 0 0 -193 -193 -193 0 -193 -209 399 398 -193 -193 -209 -209 -193 -209 -193 -193 -209 -209 -209 -209 -193 -193 10 -209 -209 -193 -193 0 9 0 0 0 10 11 11 12 13 10 14 13 13 12 11 12 14 12 17 10 12 14 10 10 9 10 10 9 9 9 0 10 11 10 11 11 11 11 11 16 13 12 14 13 14 14 15 15 12 15 17 18 16 19 18 18 17 17 18 18 15 18 15 18 19 23 21 20 22 22 20 20 20 20 18 20 20 16 13 21 21 21 18 21 21 23 23 20 19 21 24 23 24 24 25 26 28 29 29 27 29 30 29 29 29 28 30 30 29 29 30 30 31 31 31 31 32 32 32 31 33 31 32 31 30 29 0 0 0 0 0
    0 0 0 0 0 0 0 0 0 0 0 0 0 0 0 0 0 0 0 0 0 0 0 0 0 0 0 0 0 0 0 0 0 0 0 0 0 0 0 0 0 0 0 0 0 0 0 0 0 0 0 0 0 0 0 0 0 0 0 0 0 0 0 0 0 0 0 0 0 0 0 0 0 0 0 0 9 9 9 9 9 9 9 9 0 9 0 0 0 0 0 0 0 0 0 0 0 0 0 0 0 0 0 0 0 0 0 0 0 0 0 0 0 -193 10 11 10 10 10 10 10 9 9 11 10 10 0 0 0 0 0 0 0 0 0 0 0 0 0 0 0 0 -193 -193 -177 -193 10 11 11 12 -193 -193 -193 141 -193 -193 -193 -193 -193 -193 -193 -209 9 -209 -209 -209 -209 399 398 -193 -193 -209 -209 -209 -209 -193 -193 -193 -209 -209 -209 -193 -193 10 -209 -209 0 -193 -193 -193 0 0 0 10 12 12 12 13 10 14 13 13 12 11 11 14 12 18 11 12 14 10 10 9 11 10 9 10 9 0 10 11 10 11 11 11 11 11 15 12 12 13 13 14 14 15 15 13 15 16 18 16 19 18 18 17 17 18 18 15 18 15 20 20 23 21 20 22 22 20 20 20 20 18 20 20 16 13 20 19 19 15 20 19 21 23 19 18 21 24 24 24 25 25 26 28 29 30 27 30 30 29 29 29 29 29 30 29 29 30 30 31 31 32 31 32 31 31 31 33 31 32 30 30 29 0 0 0 0 0
    0 0 0 0 0 0 0 0 0 0 0 0 0 0 0 0 0 0 0 0 0 0 0 0 0 0 0 0 0 0 0 0 0 0 0 0 0 0 0 0 0 0 0 0 0 0 0 0 0 0 0 0 0 0 0 0 0 0 0 0 0 0 0 0 0 0 0 0 0 9 9 9 9 9 9 0 10 10 9 10 10 10 9 10 0 9 0 0 0 0 0 0 0 0 0 0 0 0 0 0 0 0 0 0 0 0 0 0 0 0 0 0 0 -193 9 11 10 10 10 10 10 9 9 11 10 11 0 0 0 0 0 0 0 0 0 0 0 0 0 0 0 0 -193 -209 -177 -193 10 11 11 12 -193 -193 -193 142 142 -193 -193 -193 -209 -193 -209 -209 -193 -209 -209 -209 -193 398 397 -193 -193 -209 -209 -193 -209 -193 -193 -193 -209 -209 -209 -193 -193 10 -209 -209 0 0 -193 -193 0 0 0 10 12 12 12 13 10 13 12 12 11 10 10 13 9 17 10 12 14 10 10 9 11 10 10 10 10 9 10 12 11 11 11 11 11 11 14 12 11 13 13 14 14 15 15 13 15 17 17 16 18 18 18 17 16 18 17 14 17 16 20 21 23 21 20 22 21 20 20 20 20 18 20 20 15 12 19 18 18 14 19 18 20 22 18 17 21 24 24 24 25 25 26 28 30 30 27 30 30 29 29 29 28 29 29 29 29 30 29 31 31 32 31 32 31 31 30 33 30 32 30 30 29 0 0 0 0 0
    0 0 0 0 0 0 0 0 0 0 0 0 0 0 0 0 0 0 0 0 0 0 0 0 0 0 0 0 0 0 0 0 0 0 0 0 0 0 0 0 0 0 0 0 0 0 0 0 0 0 0 0 0 0 0 0 0 0 0 0 0 0 0 0 0 0 0 0 0 0 9 9 9 9 9 9 10 10 9 9 10 9 0 9 0 0 0 0 0 0 0 0 0 0 0 0 0 0 0 0 0 0 0 0 0 0 0 0 0 0 0 0 0 9 9 10 9 9 9 9 9 9 0 10 9 11 0 0 0 0 0 0 0 0 0 0 0 0 0 0 0 0 9 -193 -177 -177 10 11 11 12 -193 -193 -193 142 143 -193 -193 -193 -193 -193 -209 -209 -193 -209 -209 -209 -193 398 398 399 -193 -209 -209 -193 -209 -177 -177 -193 -209 -209 -209 -193 -193 -193 -209 -209 8 0 -193 -193 0 0 0 10 12 12 12 12 10 12 11 11 11 10 10 12 -193 15 10 11 13 10 10 9 11 10 10 10 10 9 10 12 11 11 11 11 11 11 14 12 11 13 13 14 14 15 15 13 14 17 17 16 18 17 17 17 16 18 16 15 18 19 21 22 22 21 20 22 21 20 20 20 20 18 20 20 15 13 19 18 18 13 19 18 20 22 18 17 21 24 24 24 25 25 26 28 30 30 27 30 30 29 29 29 28 29 29 29 29 30 29 31 31 31 31 31 31 31 30 33 30 32 30 31 29 0 0 0 0 0
    0 0 0 0 0 0 0 0 0 0 0 0 0 0 0 0 0 0 0 0 0 0 0 0 0 0 0 0 0 0 0 0 0 0 0 0 0 0 0 0 0 0 0 0 0 0 0 0 0 0 0 0 0 0 0 0 0 0 0 0 0 0 0 0 0 0 0 0 0 0 0 9 0 9 9 0 9 10 0 9 9 0 0 0 0 0 0 0 0 0 0 0 0 0 0 0 0 0 0 0 0 0 0 0 0 0 0 0 0 0 0 0 0 0 9 9 9 9 0 0 9 0 0 10 10 11 0 0 0 0 0 0 0 0 0 0 0 0 0 0 0 0 9 -177 10 10 10 10 10 12 -193 -193 -193 -193 -193 -193 -193 -193 0 0 0 -209 9 -193 9 9 -209 -177 -193 -209 -209 -209 -209 -193 -193 527 527 -193 -193 -193 -209 -193 -193 10 -209 9 9 9 -193 -193 0 0 0 10 11 12 12 12 10 12 11 11 11 10 9 11 0 10 9 11 13 10 9 9 11 10 10 10 10 9 10 12 10 11 10 11 11 11 14 12 11 13 13 14 14 15 15 14 14 17 17 16 17 17 17 17 15 18 16 16 19 20 22 22 22 20 20 22 21 20 20 20 20 18 20 20 15 13 20 18 19 13 19 18 20 22 18 17 21 24 24 24 25 25 25 28 29 30 27 30 31 29 29 29 28 29 29 29 29 30 30 31 31 31 31 31 32 31 30 33 30 32 31 31 30 0 0 0 0 0
    0 0 0 0 0 0 0 0 0 0 0 0 0 0 0 0 0 0 0 0 0 0 0 0 0 0 0 0 0 0 0 0 0 0 0 0 0 0 0 0 0 0 0 0 0 0 0 0 0 0 0 0 0 0 0 0 0 0 0 0 0 0 0 0 0 0 0 0 0 -193 -193 9 9 9 9 0 10 10 9 9 9 0 0 0 0 0 0 0 0 0 0 0 0 0 0 0 0 0 0 0 0 0 0 0 0 0 0 0 0 0 0 0 0 0 0 0 0 0 0 0 0 0 0 10 10 11 0 0 0 0 0 0 0 0 0 0 0 0 0 0 0 0 -177 0 10 10 10 10 10 11 11 -193 -193 -209 -193 -193 -193 9 0 0 9 10 10 9 10 10 -209 -193 -209 -209 -209 -209 -193 -193 -193 527 -193 -193 -193 -193 -193 -193 11 11 9 9 9 -193 0 -193 0 0 0 10 11 11 11 12 10 11 10 10 10 9 9 11 -193 -193 9 10 12 9 9 9 10 10 10 10 9 9 10 11 10 10 10 10 11 11 13 12 11 13 13 14 14 15 15 15 15 18 16 17 17 17 17 17 15 19 15 17 20 21 23 22 22 20 19 22 21 20 20 19 19 18 20 20 14 14 21 19 19 13 19 18 19 22 18 17 21 24 24 24 24 25 25 28 29 30 27 30 31 30 30 30 29 30 30 30 29 30 30 31 31 32 31 31 32 31 30 33 31 33 31 31 30 0 0 0 0 0
    0 0 0 0 0 0 0 0 0 0 0 0 0 0 0 0 0 0 0 0 0 0 0 0 0 0 0 0 0 0 0 0 0 0 0 0 0 0 0 0 0 0 0 0 0 0 0 0 0 0 0 0 0 0 0 0 0 0 0 0 0 0 0 0 0 0 0 0 0 -193 -193 9 9 9 9 0 10 10 9 0 0 0 0 0 0 0 0 0 0 0 0 0 0 0 0 0 0 0 0 0 0 0 0 0 0 0 0 0 0 0 0 0 0 0 0 0 0 0 0 0 0 0 0 9 9 11 0 0 0 0 0 0 0 0 0 0 0 0 0 0 0 0 0 0 9 9 9 9 9 10 10 9 10 10 9 9 9 9 9 10 10 11 11 10 11 12 -193 -209 -209 -193 -193 -193 -209 -209 -209 -209 -193 10 11 11 11 14 11 12 0 0 9 -193 -193 -193 0 0 0 10 11 11 11 11 10 10 10 9 9 0 0 9 -193 0 0 9 12 9 9 9 10 9 10 9 9 0 10 10 10 9 9 10 10 11 13 11 11 13 13 14 14 16 15 16 15 18 16 17 17 17 17 17 15 19 15 19 21 23 24 23 21 20 20 22 20 20 19 19 19 19 20 20 14 15 21 19 19 13 19 18 19 23 19 18 21 24 24 24 24 24 24 28 28 30 27 31 32 30 30 30 29 31 30 30 29 30 30 30 31 31 31 31 32 32 31 33 32 34 31 31 31 0 0 0 0 0
    0 0 0 0 0 0 0 0 0 0 0 0 0 0 0 0 0 0 0 0 0 0 0 0 0 0 0 0 0 0 0 0 0 0 0 0 0 0 0 0 0 0 0 0 0 0 0 0 0 0 0 0 0 0 0 0 0 0 0 0 0 0 0 0 0 0 0 0 0 -193 -193 9 9 9 9 0 10 11 10 9 9 9 0 0 0 0 0 0 0 0 0 0 0 0 0 0 0 0 0 0 0 0 0 0 0 0 0 0 0 0 0 0 0 0 0 0 0 0 0 0 0 0 0 0 9 10 0 0 0 0 0 0 0 0 0 0 0 0 0 0 0 0 0 0 0 0 0 0 0 0 0 0 9 9 9 9 9 9 9 12 11 13 12 12 12 13 -193 -193 -193 0 0 0 0 0 0 -193 9 10 11 11 13 17 12 13 0 0 9 -193 0 -193 0 0 0 10 11 10 11 11 10 10 9 9 0 0 0 9 0 0 0 9 12 0 0 0 9 9 9 9 9 0 9 10 9 0 9 9 10 10 12 11 11 13 13 14 14 16 16 17 15 18 17 17 17 17 17 17 14 18 13 17 20 23 24 23 20 20 20 22 20 19 19 18 19 19 20 20 13 16 21 20 19 13 19 18 20 23 19 18 21 23 24 24 24 24 24 28 28 30 28 31 33 31 31 30 29 31 30 30 29 30 29 30 30 31 31 31 32 32 31 34 32 34 31 31 31 0 0 0 0 0
    0 0 0 0 0 0 0 0 0 0 0 0 0 0 0 0 0 0 0 0 0 0 0 0 0 0 0 0 0 0 0 0 0 0 0 0 0 0 0 0 0 0 0 0 0 0 0 0 0 0 0 0 0 0 0 0 0 0 0 0 0 0 0 0 0 0 0 0 0 -193 -177 9 9 9 9 0 10 11 10 9 9 10 0 0 0 0 0 0 0 0 0 0 0 0 0 0 0 0 0 0 0 0 0 0 0 0 0 0 0 0 0 0 0 0 0 0 0 0 0 0 0 0 0 0 0 9 0 0 0 0 0 0 0 0 0 0 0 0 -225 -225 0 0 0 0 0 0 0 0 0 0 0 0 0 0 0 0 0 0 9 13 13 16 15 17 13 14 13 -193 -193 9 0 0 0 0 0 9 9 10 11 10 16 22 13 14 0 0 0 0 0 -193 0 0 0 10 11 10 11 10 10 10 9 9 9 0 0 9 0 0 0 0 11 0 0 0 0 0 9 0 0 0 9 9 9 0 0 9 10 10 11 11 11 13 13 14 15 16 17 18 15 18 16 17 17 16 16 16 14 18 12 16 20 22 24 22 19 19 19 22 19 19 18 17 18 19 19 19 12 17 22 20 20 13 19 18 20 23 20 19 22 23 24 24 24 24 24 27 28 29 28 31 34 31 31 31 30 31 30 30 29 29 29 29 30 30 30 30 31 31 31 34 32 34 31 32 32 0 0 0 0 0
    0 0 0 0 0 0 0 0 0 0 0 0 0 0 0 0 0 0 0 0 0 0 0 0 0 0 0 0 0 0 0 0 0 0 0 0 0 0 0 0 0 0 0 0 0 0 0 0 0 0 0 0 0 0 0 0 0 0 0 0 0 0 0 0 0 0 0 0 0 0 -177 9 9 9 9 0 10 11 10 9 9 10 0 0 0 0 0 0 0 0 0 0 0 0 0 0 0 0 0 0 0 0 0 0 0 0 0 0 0 0 0 0 0 0 0 0 0 0 0 0 0 0 0 0 0 9 0 0 0 0 0 0 0 0 0 0 0 0 -225 -225 0 0 0 0 0 0 0 0 0 0 0 0 0 0 0 0 0 0 9 14 16 -225 17 -193 13 14 14 11 10 10 9 9 9 9 0 9 9 11 12 10 20 23 15 15 0 0 9 0 -193 -193 0 0 0 10 11 10 10 10 11 11 10 10 9 9 0 9 0 0 0 0 10 0 0 0 0 0 0 0 0 0 0 9 9 0 0 9 10 11 11 12 11 13 13 15 15 16 18 18 15 19 17 17 16 16 16 16 14 17 11 15 19 22 23 22 18 19 19 22 19 18 17 17 18 19 19 19 12 19 23 21 21 15 20 19 21 23 21 21 22 23 23 24 24 24 23 27 27 28 28 30 35 31 32 31 30 31 30 30 29 28 29 28 29 29 30 29 30 31 30 33 31 33 30 31 31 0 0 0 0 0
    0 0 0 0 0 0 0 0 0 0 0 0 0 0 0 0 0 0 0 0 0 0 0 0 0 0 0 0 0 0 0 0 0 0 0 0 0 0 0 0 0 0 0 0 0 0 0 0 0 0 0 0 0 0 0 0 0 0 0 0 0 0 0 0 0 0 0 0 0 0 -177 -193 0 9 9 0 10 10 10 0 0 9 0 0 0 0 0 0 0 0 0 0 0 0 0 0 0 0 0 0 0 0 0 0 0 0 0 0 0 0 0 0 0 0 0 0 0 0 0 0 0 0 0 0 0 9 0 0 0 0 0 0 0 0 0 0 0 0 -225 -225 0 0 0 0 0 0 0 0 0 0 0 0 0 0 0 0 0 0 -225 -225 -225 -225 -225 -193 11 12 12 10 10 10 9 9 9 9 9 9 10 10 11 9 19 23 15 15 0 0 9 0 -193 0 0 0 0 10 11 10 10 10 11 11 11 10 9 9 9 9 10 0 0 0 10 0 0 0 0 0 0 0 0 0 0 9 8 0 0 9 11 11 12 13 11 13 13 14 14 16 18 18 15 20 17 17 17 16 16 16 14 17 10 16 20 21 22 21 17 18 18 22 18 17 17 17 18 19 19 19 12 21 24 23 23 15 21 20 22 24 22 22 23 23 23 24 24 23 22 26 26 27 27 30 36 31 33 31 31 31 31 30 29 28 29 28 29 28 30 28 30 31 30 33 31 32 30 31 31 0 0 0 0 0
    0 0 0 0 0 0 0 0 0 0 0 0 0 0 0 0 0 0 0 0 0 0 0 0 0 0 0 0 0 0 0 0 0 0 0 0 0 0 0 0 0 0 0 0 0 0 0 0 0 0 0 0 0 0 0 0 0 0 0 0 0 0 0 0 0 0 0 0 0 0 -177 -193 0 0 0 0 9 10 9 0 0 0 0 0 0 9 9 0 0 0 0 0 0 0 0 0 0 0 0 0 0 0 0 0 0 0 0 0 0 0 0 0 9 0 0 0 0 0 0 0 0 0 0 0 0 0 0 0 0 0 0 0 0 0 0 0 0 0 -225 19 0 0 0 0 0 0 0 0 0 0 0 0 0 0 0 0 0 0 -225 -225 -225 -225 -225 -193 10 11 11 10 10 10 10 9 9 10 10 10 10 10 11 9 18 23 15 16 0 0 9 0 -193 0 0 0 0 10 11 10 11 10 11 12 12 11 10 10 9 9 10 0 0 0 10 0 0 0 0 0 0 0 0 0 0 0 0 0 0 9 11 12 13 14 12 14 14 14 14 17 18 17 15 20 17 17 17 16 16 16 15 17 10 20 21 22 22 21 17 18 18 22 17 17 16 17 18 20 -193 19 11 24 26 25 25 17 21 20 22 -193 23 23 23 23 23 24 24 23 22 25 26 27 27 30 36 31 33 31 31 31 31 30 29 28 29 29 30 29 30 29 31 32 31 33 32 33 31 31 31 0 0 0 0 0
    0 0 0 0 0 0 0 0 0 0 0 0 0 0 0 0 0 0 0 0 0 0 0 0 0 0 0 0 0 0 0 0 0 0 0 0 0 0 0 0 0 0 0 0 0 0 0 0 0 0 0 0 0 0 0 0 0 0 0 0 0 0 0 0 0 0 0 0 0 0 -193 -193 0 0 0 0 9 9 9 0 0 0 0 0 9 10 10 10 9 9 0 0 0 9 0 0 0 0 0 0 0 0 0 0 0 0 0 0 0 0 0 0 9 0 0 0 0 0 0 0 0 0 0 0 0 0 0 0 0 0 0 0 0 0 0 0 0 0 0 15 0 8 0 9 9 9 9 0 0 0 0 0 0 0 0 0 0 0 -225 -225 -225 -225 14 19 9 10 10 10 9 9 10 9 9 10 10 9 9 10 10 9 15 23 15 16 0 0 9 0 -193 0 0 0 0 10 11 9 10 10 11 12 12 11 10 10 9 9 11 0 0 0 11 0 0 0 0 0 9 0 0 0 0 9 0 0 9 9 11 11 14 14 12 15 14 15 15 18 19 17 16 20 17 17 17 16 16 15 15 18 10 24 26 25 25 23 20 20 20 22 18 17 16 17 18 20 -193 -193 11 25 26 26 25 18 21 21 23 -193 24 24 24 23 24 25 24 24 22 26 26 27 28 29 36 31 33 31 32 31 31 31 30 29 29 29 30 28 31 29 30 32 31 33 32 32 31 31 31 0 0 0 0 0
    0 0 0 0 0 0 0 0 0 0 0 0 0 0 0 0 0 0 0 0 0 0 0 0 0 0 0 0 0 0 0 0 0 0 0 0 0 0 0 0 0 0 0 0 0 0 0 0 0 0 0 0 0 0 0 0 0 0 0 0 0 0 0 0 0 0 0 0 0 0 -193 0 0 0 0 0 9 10 10 0 0 0 0 0 9 11 10 10 9 9 9 9 9 9 0 0 0 0 0 0 0 0 0 0 0 0 0 0 0 0 0 0 9 0 0 0 0 0 0 0 0 0 0 0 0 0 0 0 0 0 0 0 0 0 0 0 0 0 0 13 8 9 9 9 9 9 9 0 0 0 0 0 0 0 0 0 0 -225 -225 -225 -225 -225 14 14 0 9 -193 -193 9 9 9 -193 -193 9 10 9 9 10 10 9 14 -193 15 16 0 0 -193 0 9 0 0 0 0 10 11 9 10 9 10 11 12 10 10 10 10 10 12 0 0 0 11 0 0 0 0 0 9 0 0 0 0 9 9 9 9 9 10 11 15 13 13 15 14 15 15 19 19 16 16 20 16 17 17 16 16 15 16 19 12 25 30 28 29 26 22 22 21 23 18 17 16 17 17 19 -177 -193 11 25 27 27 26 20 23 22 24 -193 25 25 25 24 24 25 25 24 22 25 25 26 27 28 35 30 32 30 32 31 31 31 30 29 29 29 30 28 31 30 30 32 31 33 32 32 31 30 30 0 0 0 0 0
    0 0 0 0 0 0 0 0 0 0 0 0 0 0 0 0 0 0 0 0 0 0 0 0 0 0 0 0 0 0 0 0 0 0 0 0 0 0 0 0 0 0 0 0 0 0 0 0 0 0 0 0 0 0 0 0 0 0 0 0 0 0 0 0 0 0 0 0 0 0 -193 0 0 0 0 0 9 10 10 0 0 0 0 0 9 12 10 11 9 9 9 9 9 9 0 0 0 0 0 0 0 0 0 0 0 0 0 0 0 0 0 0 9 0 0 0 0 0 0 0 0 0 0 0 0 0 0 0 0 0 0 0 0 0 0 0 0 0 9 13 9 9 9 9 9 9 9 0 0 0 0 0 0 0 0 0 0 11 -225 -225 -225 -225 12 10 0 0 10 -193 9 9 9 -193 -193 -193 -193 9 10 10 11 9 15 23 16 16 0 0 -193 0 9 0 0 0 0 10 11 9 10 9 11 12 12 11 10 12 11 11 14 10 9 0 11 0 0 0 0 0 10 9 9 0 9 10 10 10 10 9 10 10 15 13 13 14 15 15 15 19 19 15 16 20 16 17 17 16 16 15 17 20 14 27 33 31 32 29 23 23 22 23 18 17 16 17 16 19 -177 -193 11 25 25 26 25 19 22 23 -193 -193 26 26 26 24 24 25 25 24 22 24 25 25 27 28 33 29 31 30 32 30 31 31 30 29 29 29 30 28 31 29 30 31 31 32 32 31 31 30 30 0 0 0 0 0
    0 0 0 0 0 0 0 0 0 0 0 0 0 0 0 0 0 0 0 0 0 0 0 0 0 0 0 0 0 0 0 0 0 0 0 0 0 0 0 0 0 0 0 0 0 0 0 0 0 0 0 0 0 0 0 0 0 0 0 0 0 0 0 0 0 0 0 0 0 0 0 0 0 0 0 0 9 9 10 0 0 9 9 0 9 13 10 11 9 9 9 9 9 9 0 0 0 0 0 0 0 0 0 0 0 0 0 0 0 0 0 0 9 0 0 0 0 0 0 0 0 0 0 0 0 0 0 0 0 0 0 0 0 0 0 0 0 0 10 13 9 9 10 10 9 9 10 0 0 0 0 0 0 0 0 0 0 11 12 0 -225 -225 -193 0 0 0 10 9 9 9 9 -193 -193 -193 -193 9 10 11 11 9 13 22 16 16 0 0 -193 9 9 0 0 0 0 10 11 9 10 10 11 12 12 11 11 14 13 12 17 12 10 9 13 0 0 9 0 0 10 9 9 0 10 10 11 11 11 10 11 11 16 13 13 14 15 15 16 19 19 14 16 20 16 17 17 16 15 15 18 20 15 27 33 32 33 31 24 24 23 23 18 17 16 17 16 -193 -177 -193 11 24 25 26 24 20 22 24 26 -193 26 26 26 24 24 25 25 23 21 23 23 23 26 27 31 29 31 30 32 30 31 31 31 29 29 29 31 29 30 29 29 31 30 31 31 30 30 30 31 0 0 0 0 0
    0 0 0 0 0 0 0 0 0 0 0 0 0 0 0 0 0 0 0 0 0 0 0 0 0 0 0 0 0 0 0 0 0 0 0 0 0 0 0 0 0 0 0 0 0 0 0 0 0 0 0 0 0 0 0 0 0 0 0 0 0 0 0 0 0 0 0 0 0 0 0 0 0 0 0 0 9 9 9 0 9 9 9 0 10 13 11 11 9 9 9 9 9 9 0 0 0 0 0 0 0 0 0 0 0 0 0 0 0 0 0 0 0 0 0 0 0 0 0 0 0 0 0 0 0 0 0 0 0 0 0 0 0 0 0 0 0 0 10 13 10 10 11 10 9 9 10 0 0 0 0 0 0 0 0 0 0 9 10 0 -193 -209 0 0 0 0 11 9 9 9 10 -193 -193 -193 -193 9 10 11 10 9 11 21 15 17 0 0 10 9 10 0 0 0 0 11 11 9 10 10 11 12 13 12 12 15 14 13 19 13 12 11 14 10 10 10 10 0 12 10 10 9 12 11 13 12 12 11 12 12 17 13 14 13 15 15 16 19 19 13 16 21 17 17 17 16 16 15 19 21 15 28 34 33 34 32 24 23 23 23 18 17 16 17 15 -177 -193 19 11 24 25 25 24 21 23 25 27 -193 27 27 26 24 23 25 24 22 21 22 22 21 26 26 28 28 30 29 32 30 30 31 31 29 29 29 31 29 30 29 29 30 30 30 30 29 30 29 31 0 0 0 0 0
    0 0 0 0 0 0 0 0 0 0 0 0 0 0 0 0 0 0 0 0 0 0 0 0 0 0 0 0 0 0 0 0 0 0 0 0 0 0 0 0 0 0 0 0 0 0 0 0 0 0 0 0 0 0 0 0 0 0 0 0 0 0 0 0 0 0 0 0 0 0 0 0 0 0 0 0 0 9 9 9 10 10 10 9 9 13 10 -193 9 9 9 9 9 9 0 0 0 0 0 0 0 0 0 0 0 0 0 0 0 0 0 0 0 0 0 0 0 0 0 0 0 0 0 0 0 0 0 0 0 0 0 0 0 0 0 0 0 0 10 14 11 11 11 11 9 9 10 9 0 0 0 0 0 0 0 0 0 0 0 0 0 0 0 0 0 0 11 9 9 9 10 -193 10 10 10 9 10 10 10 9 11 20 15 17 0 0 10 10 10 9 0 0 0 11 11 9 10 10 11 12 13 12 12 16 15 14 20 15 14 12 16 12 11 11 11 9 13 11 11 9 13 12 14 13 13 12 13 13 18 13 14 13 15 15 16 19 18 13 15 21 17 17 16 17 16 -193 -193 22 20 29 34 33 34 32 24 23 23 23 18 18 16 17 15 19 19 19 12 23 24 25 23 21 23 25 27 -193 27 27 26 23 23 24 24 22 20 21 22 19 25 26 27 29 30 30 33 30 31 31 31 29 29 29 32 29 30 28 28 30 30 30 30 29 30 29 31 0 0 0 0 0
    0 0 0 0 0 0 0 0 0 0 0 0 0 0 0 0 0 0 0 0 0 0 0 0 0 0 0 0 0 0 0 0 0 0 0 0 0 0 0 0 0 0 0 0 0 0 0 0 0 0 0 0 0 0 0 0 0 0 0 0 0 0 0 0 0 0 0 0 0 0 0 0 0 0 0 0 0 9 9 9 10 10 10 9 9 13 -193 -193 9 9 9 9 9 9 0 0 0 0 0 0 0 0 0 0 0 0 0 0 0 0 0 0 0 0 0 0 0 0 0 0 0 0 0 0 0 0 0 0 0 0 0 0 0 0 0 0 0 0 11 14 11 12 12 11 10 9 10 9 0 0 0 0 0 0 0 0 0 9 9 0 0 0 0 0 0 9 11 9 9 10 10 10 10 10 10 9 10 11 10 9 11 19 15 18 9 9 10 10 10 9 0 0 0 10 10 9 10 9 11 12 12 11 12 16 15 15 22 16 16 14 19 13 12 12 12 10 14 11 11 10 15 13 15 13 13 12 14 14 18 13 14 13 15 15 16 19 18 12 16 21 17 17 17 17 17 -193 -177 -193 23 30 34 34 34 33 25 24 23 23 18 18 16 17 -193 19 19 19 12 22 23 23 21 19 22 24 28 -193 27 27 26 23 23 24 23 22 20 21 21 18 25 26 26 29 30 30 33 31 30 31 32 29 29 29 32 29 30 29 28 30 30 30 30 29 30 30 32 0 0 0 0 0
    0 0 0 0 0 0 0 0 0 0 0 0 0 0 0 0 0 0 0 0 0 0 0 0 0 0 0 0 0 0 0 0 0 0 0 0 0 0 0 0 0 0 0 0 0 0 0 0 0 0 0 0 0 0 0 0 0 0 0 0 0 0 0 0 0 0 0 0 0 0 0 0 0 0 0 0 0 9 9 10 11 12 11 10 9 13 -193 10 0 0 0 0 9 9 0 0 0 0 0 0 0 0 0 0 0 0 0 0 0 0 0 0 0 0 0 0 9 0 0 0 0 0 0 0 0 0 0 0 0 0 0 0 0 0 0 0 0 0 10 13 11 12 12 11 10 9 10 9 0 0 0 0 0 0 0 0 0 9 9 0 0 0 0 0 0 9 11 9 9 10 10 10 10 10 10 9 10 10 10 9 11 17 14 18 10 9 11 10 10 9 0 0 0 10 10 9 10 9 10 11 11 11 12 15 16 16 23 18 18 16 20 14 13 13 13 10 15 12 12 10 16 13 16 14 14 13 14 14 18 13 15 13 16 16 17 19 18 12 17 21 16 16 17 18 -193 -177 -177 -193 25 30 34 34 33 33 26 24 23 23 19 18 16 17 -193 19 19 18 12 21 22 23 20 18 21 24 28 38 26 26 26 23 23 24 23 22 20 21 21 18 26 27 27 30 30 30 34 31 30 31 32 30 29 29 32 29 30 29 28 31 30 30 30 29 30 30 32 0 0 0 0 0
    0 0 0 0 0 0 0 0 0 0 0 0 0 0 0 0 0 0 0 0 0 0 0 0 0 0 0 0 0 0 0 0 0 0 0 0 0 0 0 0 0 0 0 0 0 0 0 0 0 0 0 0 0 0 0 0 0 0 0 0 0 0 0 0 0 0 0 0 0 0 0 0 0 0 0 0 0 10 -193 11 14 14 13 12 10 14 10 10 0 0 0 0 0 0 0 0 0 0 0 0 0 0 0 0 0 0 0 0 0 0 0 0 0 0 0 0 0 0 0 0 0 0 0 0 0 0 0 0 0 0 0 0 0 0 0 0 0 0 10 12 11 11 11 11 9 9 10 9 0 0 0 0 0 0 0 0 0 0 0 0 0 0 0 0 0 0 10 9 9 10 10 10 11 10 10 9 10 10 10 10 10 15 13 18 10 10 11 10 10 9 0 9 0 10 10 9 9 9 10 10 11 11 12 16 17 19 23 18 18 16 19 15 14 13 13 11 16 12 12 11 17 14 17 14 14 13 14 14 18 13 15 13 17 17 18 19 19 13 18 21 17 16 17 18 18 -193 -177 -193 25 30 34 34 33 34 26 24 23 23 19 18 17 17 15 19 18 18 12 21 22 22 19 18 21 25 28 38 26 26 26 22 22 23 23 21 20 20 21 -193 26 27 27 30 30 31 34 31 30 31 32 29 28 29 32 29 29 28 28 30 30 30 30 29 29 30 33 0 0 0 0 0
    0 0 0 0 0 0 0 0 0 0 0 0 0 0 0 0 0 0 0 0 0 0 0 0 0 0 0 0 0 0 0 0 0 0 0 0 0 0 0 0 0 0 0 0 0 0 0 0 0 0 0 0 0 0 0 0 0 0 0 0 0 0 0 0 0 0 0 0 0 10 9 9 9 10 0 0 0 11 10 12 15 15 14 13 11 14 10 10 0 0 0 0 0 0 0 0 0 0 0 0 0 0 0 0 0 0 0 0 0 0 0 0 0 0 0 0 0 0 0 0 0 0 0 0 0 0 0 0 0 0 0 0 0 0 0 0 0 0 10 11 11 11 11 10 9 9 9 0 0 0 0 0 0 0 0 0 0 0 0 0 0 0 0 0 0 0 9 9 9 9 9 10 11 11 10 9 11 11 11 10 10 13 13 18 11 10 11 10 11 10 9 9 0 10 10 9 9 9 10 10 11 11 13 17 19 20 24 18 18 16 19 15 14 13 13 11 16 12 12 10 17 13 17 14 14 13 14 15 18 14 15 14 18 18 18 20 19 14 19 22 17 16 18 18 19 -193 -193 24 24 30 34 34 33 33 24 22 22 23 18 18 17 17 15 19 19 18 12 20 21 22 19 18 20 25 28 35 26 26 26 22 22 23 22 21 20 21 21 -193 27 28 28 30 30 30 33 31 30 30 32 29 28 28 31 29 28 28 27 30 30 30 30 29 29 31 33 0 0 0 0 0
    0 0 0 0 0 0 0 0 0 0 0 0 0 0 0 0 0 0 0 0 0 0 0 0 0 0 0 0 0 0 0 0 0 0 0 0 0 0 0 0 0 0 0 0 0 0 0 0 0 0 0 0 0 0 0 0 0 0 0 0 0 0 0 0 0 0 0 0 0 11 11 11 11 11 0 0 9 12 11 13 15 16 15 14 13 14 10 10 0 0 0 0 0 0 0 0 0 0 0 0 0 0 0 0 0 0 0 0 0 0 0 0 0 0 0 0 0 0 0 0 0 0 0 0 0 0 0 0 0 0 0 0 0 0 0 0 0 0 10 11 10 11 10 9 0 9 9 0 0 0 0 0 0 0 0 0 0 0 0 0 0 0 0 0 0 0 9 8 9 9 9 10 11 11 10 10 11 11 11 9 10 12 12 18 11 10 11 10 10 10 9 9 0 9 9 0 9 9 10 10 11 11 13 16 19 20 23 16 17 15 19 14 14 13 13 11 16 12 12 10 17 13 17 14 14 13 15 15 19 14 15 14 19 18 19 20 19 14 20 22 18 16 18 19 19 -193 -193 24 23 29 33 33 31 31 22 21 21 22 18 18 17 17 15 19 19 18 12 20 20 21 18 19 20 25 26 28 25 25 25 21 21 22 22 20 20 21 21 -193 27 29 28 30 30 30 33 31 29 30 31 29 28 28 31 29 27 27 27 30 30 30 30 29 30 32 34 0 0 0 0 0
    0 0 0 0 0 0 0 0 0 0 0 0 0 0 0 0 0 0 0 0 0 0 0 0 0 0 0 0 0 0 0 0 0 0 0 0 0 0 0 0 0 0 0 0 0 0 0 0 0 0 0 0 0 0 0 0 0 0 0 0 0 0 0 0 0 0 0 0 0 13 12 12 12 13 0 0 0 12 12 14 15 16 15 15 13 14 11 11 0 0 0 0 0 0 0 0 0 0 0 0 0 0 0 0 0 0 0 0 9 0 8 0 0 0 0 0 0 0 0 0 0 0 0 0 0 0 0 0 0 0 0 0 0 0 0 0 0 0 9 10 10 10 9 9 0 0 9 0 0 0 0 0 0 9 9 0 0 0 0 0 0 0 0 0 0 0 0 0 9 10 10 10 11 11 10 10 11 11 10 9 9 10 11 17 11 10 11 10 10 10 9 10 0 9 9 0 9 9 10 10 11 11 13 15 18 19 23 15 16 14 18 13 13 13 13 11 16 12 12 10 18 14 17 14 14 14 15 15 19 14 16 14 20 18 19 21 20 15 21 23 18 16 18 19 19 21 23 23 22 28 31 31 29 29 20 19 19 22 18 18 17 18 15 19 19 18 12 20 21 22 19 21 24 26 27 25 25 24 24 21 21 21 21 20 20 21 21 18 27 28 28 30 29 30 32 31 29 29 30 28 27 28 31 29 27 27 27 30 30 30 30 29 30 33 35 0 0 0 0 0
    0 0 0 0 0 0 0 0 0 0 0 0 0 0 0 0 0 0 0 0 0 0 0 0 0 0 0 0 0 0 0 0 0 0 0 0 0 0 0 0 0 0 0 0 0 0 0 0 0 0 0 0 0 0 0 0 0 0 0 0 0 0 0 0 0 0 0 0 0 14 14 14 14 16 -209 0 9 12 12 14 15 16 15 15 13 13 11 11 9 0 0 0 0 9 0 0 0 0 0 0 0 0 0 0 0 0 0 0 9 9 9 0 0 0 0 0 0 0 0 0 0 0 0 0 0 0 0 0 0 0 0 0 0 0 0 0 0 0 0 9 10 10 9 9 0 0 9 9 0 0 0 0 0 9 0 0 0 0 0 0 0 0 0 0 0 0 0 9 9 10 10 10 11 11 10 10 11 10 9 8 9 10 10 17 11 10 10 10 10 10 9 10 0 9 9 9 9 9 10 10 10 10 12 13 18 18 23 14 15 13 17 13 13 13 13 11 16 12 12 10 18 14 17 15 15 14 15 15 19 14 16 15 20 19 20 21 20 16 22 23 19 16 18 18 18 21 23 23 21 27 30 30 28 28 20 18 19 22 18 18 18 18 15 19 19 18 12 20 20 22 20 22 25 26 27 24 24 23 24 21 21 21 21 20 21 22 22 21 27 28 28 29 29 30 31 31 28 29 29 28 27 28 31 29 27 27 27 31 30 30 30 29 31 33 35 0 0 0 0 0
    0 0 0 0 0 0 0 0 0 0 0 0 0 0 0 0 0 0 0 0 0 0 0 0 0 0 0 0 0 0 0 0 0 0 0 0 0 0 0 0 0 0 0 0 0 0 0 0 0 0 0 0 0 0 0 0 0 0 0 0 0 0 0 0 0 0 0 0 0 17 16 17 17 20 -193 -209 10 13 12 14 15 16 15 16 14 14 12 12 10 9 9 9 9 10 10 0 0 0 0 0 0 0 0 0 0 0 0 0 9 10 10 0 9 0 0 0 0 0 0 0 0 0 0 0 0 0 0 0 0 0 0 0 0 0 0 0 0 0 0 0 9 10 9 9 0 0 9 8 0 0 0 0 0 0 0 0 0 0 0 0 0 0 0 0 0 0 0 0 9 10 10 10 11 11 10 10 10 10 9 9 9 12 11 17 11 11 10 10 10 10 9 10 0 9 9 9 9 9 11 10 10 10 11 11 17 18 22 13 14 12 16 12 13 12 12 11 15 12 12 10 17 14 16 14 14 14 15 15 19 14 15 15 20 20 21 22 21 17 23 23 19 16 18 18 18 20 22 22 20 26 29 29 27 26 19 18 19 22 18 18 18 18 15 19 19 18 12 19 20 21 19 21 24 25 26 23 23 22 23 21 21 21 21 20 22 23 23 22 26 28 27 28 28 29 29 30 28 29 29 28 28 29 30 29 27 27 28 32 31 31 30 30 31 34 35 0 0 0 0 0
    0 0 0 0 0 0 0 0 0 0 0 0 0 0 0 0 0 0 0 0 0 0 0 0 0 0 0 0 0 0 0 0 0 0 0 0 0 0 0 0 0 0 0 0 0 0 0 0 0 0 0 0 0 0 0 0 0 0 0 0 0 0 0 0 0 0 0 0 0 16 15 16 17 20 -193 -209 12 14 12 15 15 16 16 16 14 14 14 13 11 10 10 10 10 10 10 0 0 0 0 0 0 0 0 0 0 0 0 0 9 10 10 0 9 0 0 0 0 0 0 0 0 0 0 0 0 0 0 0 0 0 0 0 0 0 0 0 0 0 0 0 9 9 9 9 0 0 9 0 0 0 0 0 0 0 0 0 0 0 0 0 0 0 0 0 0 0 0 0 9 9 9 9 10 10 9 9 10 9 9 0 9 12 11 17 11 11 10 10 10 10 9 9 0 9 0 9 9 9 10 10 -193 9 10 10 13 15 20 12 13 11 15 11 12 12 12 11 15 12 12 10 17 14 16 15 14 14 15 15 19 14 15 16 20 20 21 22 21 18 23 24 19 16 18 17 16 19 20 20 17 25 27 26 24 25 18 18 19 22 18 18 18 18 16 19 19 18 12 20 21 22 21 24 26 29 31 24 24 23 23 22 21 22 22 21 23 24 24 25 26 28 27 27 27 28 -193 29 28 28 28 28 28 29 30 29 27 28 28 32 32 31 31 30 32 34 35 0 0 0 0 0
    0 0 0 0 0 0 0 0 0 0 0 0 0 0 0 0 0 0 0 0 0 0 0 0 0 0 0 0 0 0 0 0 0 0 0 0 0 0 0 0 0 0 0 0 0 0 0 0 0 0 0 0 0 0 0 0 0 0 0 0 0 0 0 0 0 0 0 0 0 14 13 13 14 17 -193 -193 13 14 13 15 16 17 16 16 14 14 14 14 12 10 10 10 10 10 10 0 0 0 0 0 0 0 0 0 0 0 0 0 9 10 10 0 9 0 0 0 0 0 0 0 0 0 0 0 0 0 0 0 0 0 0 0 0 0 0 0 0 0 0 0 9 9 9 0 0 0 9 0 0 0 0 0 0 0 0 0 0 0 0 0 0 0 0 0 0 0 0 0 0 0 0 0 9 9 9 0 9 0 0 0 0 11 10 15 11 10 9 10 10 9 9 9 0 9 0 9 9 9 10 10 -193 -193 -193 9 11 15 19 12 12 10 14 11 12 12 12 12 17 13 12 11 17 16 15 15 14 13 14 15 19 15 15 17 21 21 22 23 22 20 24 24 20 16 17 16 14 17 17 17 14 23 23 21 21 23 16 17 19 22 18 18 18 18 16 19 19 18 12 20 22 23 24 27 30 34 35 29 26 25 24 23 22 22 22 21 25 25 25 25 26 28 27 27 27 27 -193 28 27 28 27 27 28 29 29 29 27 28 28 32 32 31 31 31 32 35 35 0 0 0 0 0
    0 0 0 0 0 0 0 0 0 0 0 0 0 0 0 0 0 0 0 0 0 0 0 0 0 0 0 0 0 0 0 0 0 0 0 0 0 0 0 0 0 0 0 0 0 0 0 0 0 0 0 0 0 0 0 0 0 0 0 0 0 0 0 0 0 0 0 0 0 13 13 13 14 17 -193 13 14 15 13 15 16 17 16 16 14 14 14 14 12 10 10 10 10 11 10 0 0 0 0 0 0 0 0 0 0 0 0 0 10 10 10 0 9 0 0 0 0 0 0 0 0 0 0 0 0 9 0 0 0 0 0 0 0 0 0 0 0 0 0 0 9 9 9 0 0 0 9 0 0 0 0 0 0 0 0 0 0 0 0 0 0 0 0 0 0 0 0 0 0 -193 0 0 9 9 0 0 9 0 0 0 0 8 9 13 10 10 9 9 10 9 9 10 0 9 0 9 9 9 10 10 -193 9 0 0 0 13 15 10 11 9 12 10 11 12 11 12 18 14 13 12 16 16 15 15 14 13 13 14 19 15 15 17 20 21 22 23 22 20 25 24 20 16 16 14 12 14 13 13 11 17 17 14 17 21 15 17 19 22 18 18 18 18 16 19 19 18 12 21 23 24 26 30 33 36 37 32 27 26 26 24 23 23 23 22 25 26 26 25 26 28 27 27 27 -193 -193 -193 28 28 27 27 28 28 29 29 27 27 28 32 32 32 31 32 33 35 35 0 0 0 0 0
    0 0 0 0 0 0 0 0 0 0 0 0 0 0 0 0 0 0 0 0 0 0 0 0 0 0 0 0 0 0 0 0 0 0 0 0 0 0 0 0 0 0 0 0 0 0 0 0 0 0 0 0 0 0 0 0 0 0 0 0 0 0 0 0 0 0 0 0 0 13 13 13 15 18 -193 14 14 15 13 15 16 16 16 16 14 15 14 15 13 11 11 11 11 11 11 0 0 0 0 0 0 0 0 0 0 0 0 0 10 10 10 0 9 0 0 0 0 0 0 0 0 0 0 0 0 9 0 9 0 0 0 0 0 0 0 0 0 0 0 0 0 9 9 0 0 0 0 0 0 0 0 0 0 0 0 0 0 0 0 0 0 0 0 0 0 0 0 0 0 0 0 0 0 0 0 0 0 0 0 0 0 0 0 13 10 10 9 9 10 9 9 10 0 9 0 10 10 9 10 10 -193 9 0 0 0 12 12 10 10 9 11 10 11 12 11 13 18 16 14 13 17 17 15 16 14 13 13 14 19 15 15 17 20 21 23 23 22 21 25 24 20 16 16 13 11 13 12 11 11 15 16 14 17 20 15 17 19 21 18 18 18 18 16 19 19 17 13 22 23 24 27 34 36 38 40 37 29 27 28 -193 23 23 23 22 26 27 26 26 26 29 28 -193 -193 -193 -193 -193 29 29 28 28 29 29 29 29 28 28 29 33 34 34 34 35 36 37 37 0 0 0 0 0
    0 0 0 0 0 0 0 0 0 0 0 0 0 0 0 0 0 0 0 0 0 0 0 0 0 0 0 0 0 0 0 0 0 0 0 0 0 0 0 0 0 0 0 0 0 0 0 0 0 0 0 0 0 0 0 0 0 0 0 0 0 0 0 0 0 0 0 0 0 12 12 12 13 15 -193 12 14 15 13 15 16 16 16 16 14 15 14 15 14 12 11 12 11 12 11 0 0 0 0 0 0 0 0 0 0 0 0 0 10 10 10 0 0 0 0 0 0 0 0 0 0 0 0 0 0 10 0 9 0 0 0 0 0 0 0 0 0 0 0 0 0 9 9 0 0 0 0 0 0 0 0 0 0 0 0 0 0 0 0 0 0 0 0 0 0 0 0 0 0 0 0 0 0 0 0 0 0 0 0 0 0 0 0 13 10 11 10 10 10 9 9 11 0 10 9 10 10 10 11 11 9 10 9 9 10 12 11 10 9 8 10 9 11 12 11 14 19 17 14 14 17 17 16 17 14 13 13 14 19 15 14 18 20 21 23 23 22 21 25 24 20 16 16 13 11 13 12 11 11 15 16 15 18 19 15 18 20 21 18 18 17 17 16 19 19 17 14 23 -193 26 29 36 38 40 41 40 32 29 28 25 23 23 23 21 25 27 26 26 26 34 -193 -193 -193 60 -193 -193 -193 33 32 30 29 30 30 30 29 29 31 35 37 38 38 38 39 39 38 0 0 0 0 0
    0 0 0 0 0 0 0 0 0 0 0 0 0 0 0 0 0 0 0 0 0 0 0 0 0 0 0 0 0 0 0 0 0 0 0 0 0 0 0 0 0 0 0 0 0 0 0 0 0 0 0 0 0 0 0 0 0 0 0 0 0 0 0 0 0 0 0 0 0 11 10 10 11 12 -193 10 13 15 13 15 16 16 16 16 14 15 14 15 14 12 12 12 12 12 11 9 0 0 0 0 0 0 0 0 0 0 0 0 10 10 10 0 0 0 0 0 0 0 0 0 0 0 0 0 0 10 0 9 0 0 0 0 0 0 0 0 0 0 0 0 0 9 9 0 0 0 0 0 0 0 0 0 0 0 0 0 0 0 0 0 0 0 0 0 0 0 0 0 0 0 0 0 0 0 0 0 0 0 0 0 0 0 9 12 10 11 10 10 10 9 9 11 0 10 9 10 11 10 11 12 10 10 10 10 11 12 11 10 9 0 9 9 11 12 11 15 19 18 15 14 18 17 16 17 14 13 12 14 19 15 14 18 20 21 23 23 22 21 24 23 -193 16 16 13 11 13 13 11 12 17 18 17 20 20 16 18 20 20 17 16 16 16 16 18 18 16 16 24 -193 28 32 38 40 41 42 41 33 29 28 24 23 23 23 21 25 27 26 27 26 38 -193 55 57 -193 -193 52 -193 38 38 33 31 31 31 33 32 34 36 38 41 41 42 41 42 40 40 0 0 0 0 0
    0 0 0 0 0 0 0 0 0 0 0 0 0 0 0 0 0 0 0 0 0 0 0 0 0 0 0 0 0 0 0 0 0 0 0 0 0 0 0 0 0 0 0 0 0 0 0 0 0 0 0 0 0 0 0 0 0 0 0 0 0 0 0 0 0 0 0 0 0 11 11 11 11 13 -193 11 13 16 13 16 17 16 16 16 14 15 14 15 14 12 12 12 12 12 11 9 0 0 0 0 0 0 0 0 0 0 0 0 9 10 10 0 9 9 9 9 9 9 0 9 9 0 0 0 0 11 9 10 0 0 9 9 9 9 0 0 0 0 0 0 0 9 10 0 0 0 0 0 0 0 0 0 0 0 0 0 0 0 0 0 0 0 0 0 0 0 0 0 0 0 0 0 0 0 0 0 0 0 0 0 0 0 9 12 10 11 10 10 11 9 10 11 9 10 9 11 11 10 11 12 10 11 11 11 11 12 12 10 9 9 0 0 11 12 11 15 19 19 15 15 17 17 16 17 14 13 12 13 19 15 14 18 19 21 23 23 22 20 24 23 -193 17 16 13 11 14 13 10 12 19 20 20 22 20 17 19 21 21 17 16 16 16 17 20 20 18 20 26 32 32 35 40 41 42 43 42 35 32 31 25 23 23 23 21 26 28 27 28 28 40 56 53 55 -193 53 50 44 42 43 37 35 34 35 36 37 39 39 41 43 44 44 44 45 42 -193 0 0 0 0 0
    0 0 0 0 0 0 0 0 0 0 0 0 0 0 0 0 0 0 0 0 0 0 0 0 0 0 0 0 0 0 0 0 0 0 0 0 0 0 0 0 0 0 0 0 0 0 0 0 0 0 0 0 0 0 0 0 0 0 0 0 0 0 0 0 0 0 0 0 0 -193 -209 -193 11 13 -209 11 14 17 14 16 17 17 17 17 15 16 14 15 13 12 12 12 12 12 11 10 0 0 0 0 0 0 0 0 0 0 0 0 0 10 10 9 9 9 9 10 10 10 10 9 10 0 0 0 0 11 9 10 9 0 9 9 9 9 0 0 0 0 0 0 0 0 9 0 0 0 0 0 0 0 0 0 0 0 0 0 0 0 0 0 0 0 0 0 0 0 0 0 0 0 0 0 0 0 0 0 0 0 0 0 0 0 9 12 10 12 10 10 11 9 10 11 9 10 0 10 10 9 11 11 10 11 11 11 12 12 12 10 10 10 9 0 11 12 11 16 19 19 15 15 17 17 16 17 14 13 11 13 19 15 14 18 19 21 22 23 21 20 24 22 19 17 16 14 12 14 14 11 14 21 22 22 24 22 19 21 22 21 17 17 16 16 -193 -193 21 21 23 28 36 35 37 41 42 42 43 42 37 35 36 28 24 24 24 22 27 31 29 31 34 43 55 53 54 52 50 49 47 46 45 40 39 37 38 39 40 41 -193 -193 44 47 46 45 46 43 -193 0 0 0 0 0
    0 0 0 0 0 0 0 0 0 0 0 0 0 0 0 0 0 0 0 0 0 0 0 0 0 0 0 0 0 0 0 0 0 0 0 0 0 0 0 0 0 0 0 0 0 0 0 0 0 0 0 0 0 0 0 0 0 0 0 0 0 0 0 0 0 0 0 0 0 -209 -209 -209 10 10 0 10 13 17 14 17 18 17 17 16 14 15 13 14 12 11 11 11 11 13 11 11 9 0 0 0 0 0 0 0 0 0 0 0 0 9 9 9 10 10 10 10 11 11 10 10 10 0 9 0 0 11 10 10 10 9 9 9 10 9 0 0 0 0 0 0 0 0 0 0 0 0 0 0 0 0 0 0 0 0 0 0 0 0 0 0 0 0 0 0 0 0 0 0 0 0 0 0 0 0 0 0 0 0 0 0 0 0 0 12 10 12 10 10 11 9 10 11 9 10 0 9 9 9 10 10 10 11 12 12 13 13 13 11 11 11 10 9 11 12 12 17 19 19 16 15 17 17 16 17 14 13 11 13 19 15 14 18 18 21 -193 22 21 19 24 21 18 17 16 14 12 15 15 11 16 22 23 24 25 24 21 22 22 21 18 17 17 16 -193 -193 23 23 26 31 38 37 38 42 42 43 43 42 39 38 39 36 25 26 25 24 29 35 34 37 41 46 54 52 53 51 49 48 47 46 45 42 41 39 41 42 42 43 -193 -193 45 48 48 46 -193 -193 -193 0 0 0 0 0
    0 0 0 0 0 0 0 0 0 0 0 0 0 0 0 0 0 0 0 0 0 0 0 0 0 0 0 0 0 0 0 0 0 0 0 0 0 0 0 0 0 0 0 0 0 0 0 0 0 0 0 0 0 0 0 0 0 0 0 0 0 0 0 0 0 0 0 0 0 -193 -193 -193 10 11 9 11 13 17 14 16 17 17 16 16 14 15 12 13 12 11 12 12 12 14 12 13 11 10 0 0 0 0 0 0 0 0 0 0 0 9 9 9 10 10 10 10 12 11 10 10 10 9 9 0 0 11 10 10 10 9 10 10 10 10 0 0 0 0 0 0 0 0 0 0 0 0 0 0 0 0 0 0 0 0 0 0 0 0 0 0 0 0 0 0 0 0 0 0 0 0 0 0 0 0 0 0 0 0 0 0 0 0 0 11 10 12 11 11 11 10 11 12 9 10 0 0 9 8 10 10 10 11 13 14 15 13 13 11 11 11 10 0 11 11 11 17 18 19 16 15 17 17 16 17 14 13 11 12 19 15 14 18 18 20 21 22 21 19 23 21 18 17 16 15 13 16 15 11 18 23 24 24 27 26 22 24 24 22 20 19 19 18 -193 -193 25 25 28 34 39 38 39 42 42 43 43 43 40 39 40 41 28 29 27 26 34 40 40 42 43 48 53 52 52 50 49 48 47 47 46 43 43 41 43 44 45 45 43 47 46 49 48 46 -193 43 -193 0 0 0 0 0
    0 0 0 0 0 0 0 0 0 0 0 0 0 0 0 0 0 0 0 0 0 0 0 0 0 0 0 0 0 0 0 0 0 0 0 0 0 0 0 0 0 0 0 0 0 0 0 0 0 0 0 0 0 0 0 0 0 0 0 0 0 0 0 0 0 0 0 0 0 11 11 11 11 12 10 12 13 17 15 17 18 17 17 16 15 15 12 13 12 11 13 13 13 16 14 18 14 15 16 0 0 0 0 0 0 0 0 0 0 9 9 9 9 10 9 10 11 10 10 9 10 0 9 0 0 11 10 10 11 10 10 10 10 10 0 0 0 0 0 0 0 0 0 0 0 0 0 0 0 0 0 0 0 0 0 0 0 0 0 0 0 0 0 0 0 0 0 0 0 0 0 0 0 0 0 0 0 0 0 0 0 0 0 12 10 12 11 11 12 10 12 13 10 12 0 10 12 10 12 12 11 12 14 14 15 13 13 11 12 11 10 0 11 10 11 17 16 18 15 15 16 16 16 17 13 14 11 12 20 15 14 18 17 20 20 21 20 18 23 20 17 18 16 15 14 17 16 12 20 23 25 25 28 29 26 26 27 24 23 23 23 22 25 27 28 28 32 36 39 39 39 42 42 43 44 43 41 41 42 42 34 36 33 33 39 42 42 44 45 49 52 51 51 50 49 48 47 47 46 44 44 43 45 45 47 46 45 48 47 49 48 46 46 44 45 0 0 0 0 0
    0 0 0 0 0 0 0 0 0 0 0 0 0 0 0 0 0 0 0 0 0 0 0 0 0 0 0 0 0 0 0 0 0 0 0 0 0 0 0 0 0 0 0 0 0 0 0 0 0 0 0 0 0 0 0 0 0 0 0 0 0 0 0 0 0 0 0 0 0 11 12 11 12 12 10 12 13 17 15 16 18 17 17 17 15 16 13 13 12 12 14 15 15 19 18 22 20 22 24 0 0 0 0 0 0 0 0 0 0 9 9 9 9 9 9 9 11 10 10 9 9 0 9 0 0 11 10 10 11 11 11 11 11 11 0 0 0 0 0 0 0 0 0 0 0 0 0 0 0 0 0 0 0 0 0 0 0 0 0 0 0 0 0 0 0 0 0 0 0 -193 -193 0 0 0 0 0 0 0 0 0 0 0 9 12 10 13 11 11 12 11 12 13 12 15 -209 14 18 14 17 16 14 13 15 15 15 13 13 12 12 12 10 9 11 10 11 17 15 18 15 15 16 16 16 17 13 14 11 13 20 15 14 18 17 19 20 21 20 17 22 19 17 18 17 16 15 18 18 13 22 24 26 26 30 33 32 29 32 29 29 27 29 27 28 30 32 32 35 37 39 39 39 42 42 43 43 43 42 42 42 44 41 41 41 41 41 43 44 45 46 49 51 51 51 49 48 48 47 48 46 45 45 44 46 46 47 47 45 48 46 49 48 46 47 44 45 0 0 0 0 0
    0 0 0 0 0 0 0 0 0 0 0 0 0 0 0 0 0 0 0 0 0 0 0 0 0 0 0 0 0 0 0 0 0 0 0 0 0 0 0 0 0 0 0 0 0 0 0 0 0 0 0 0 0 0 0 0 0 0 0 0 0 0 0 0 0 0 0 0 0 11 12 11 11 12 11 13 12 16 15 16 18 17 17 17 15 16 13 13 13 13 16 -193 18 21 21 24 24 25 26 -193 0 0 0 0 0 0 0 0 0 9 9 9 10 9 9 10 11 10 9 9 9 0 9 0 0 11 10 10 12 11 11 11 12 12 9 0 0 0 0 0 0 0 0 0 0 0 0 0 0 0 0 0 0 0 0 0 0 0 0 0 0 0 0 0 0 0 0 0 -193 -193 -193 0 0 0 0 0 0 0 0 0 0 0 9 11 10 12 11 11 11 10 11 12 12 18 -209 -193 22 21 20 19 18 15 15 15 15 13 14 12 13 12 11 9 11 10 10 16 15 17 15 14 15 16 16 16 13 14 11 13 20 15 14 18 16 19 19 20 19 16 22 19 16 18 17 16 16 19 18 14 24 25 26 27 32 35 36 33 35 34 35 32 35 33 31 33 36 35 37 38 40 40 40 42 42 43 43 43 42 43 43 45 42 43 43 43 43 44 45 45 46 48 50 50 50 49 48 48 48 48 47 46 46 45 46 46 47 46 45 47 46 48 47 46 46 44 45 0 0 0 0 0
    0 0 0 0 0 0 0 0 0 0 0 0 0 0 0 0 0 0 0 0 0 0 0 0 0 0 0 0 0 0 0 0 0 0 0 0 0 0 0 0 0 0 0 0 0 0 0 0 0 0 0 0 0 0 0 0 0 0 0 0 0 0 0 0 0 0 0 0 0 12 13 12 12 12 12 13 12 16 16 15 18 17 17 17 15 16 14 14 14 14 19 -193 -193 -209 -209 -193 27 26 27 9 0 0 0 0 0 0 0 0 0 10 9 10 11 9 10 10 11 9 9 0 9 0 10 0 0 12 11 11 12 12 12 11 12 12 9 9 0 0 0 0 0 0 0 0 0 0 0 0 0 0 0 0 0 0 0 0 0 0 0 0 0 0 0 0 0 0 0 -193 -193 -177 -177 -193 0 0 0 0 0 0 0 0 0 0 9 9 9 11 10 10 -193 10 10 11 12 20 -209 -209 -209 25 23 22 21 17 16 16 15 13 14 12 13 12 11 9 11 10 10 16 14 16 15 14 14 16 16 16 13 15 12 13 19 15 13 16 15 18 18 19 18 15 21 18 16 18 17 17 16 19 19 15 24 25 27 29 34 36 38 36 37 37 38 -193 38 37 36 36 38 38 39 38 40 40 40 42 42 42 43 42 42 44 44 47 43 45 44 44 44 44 45 46 45 47 48 48 49 48 48 48 48 48 47 47 47 46 47 47 47 47 45 46 45 46 46 45 44 44 44 0 0 0 0 0
    0 0 0 0 0 0 0 0 0 0 0 0 0 0 0 0 0 0 0 0 0 0 0 0 0 0 0 0 0 0 0 0 0 0 0 0 0 0 0 0 0 0 0 0 0 0 0 0 0 0 0 0 0 0 0 0 0 0 0 0 0 0 0 0 0 0 0 0 0 12 14 12 12 13 13 13 12 16 17 15 18 16 17 17 16 16 15 15 17 17 22 -193 -193 -209 -193 30 28 27 27 16 13 10 0 0 0 9 0 9 9 10 9 9 10 0 8 0 9 0 0 0 0 0 10 0 0 12 11 11 12 12 12 11 12 12 9 9 9 0 0 0 0 0 0 0 0 0 -177 0 0 0 0 0 9 9 0 0 0 0 0 0 0 0 0 0 0 0 -193 -193 -193 -177 391 -193 0 0 0 0 0 0 0 0 0 0 0 0 0 10 -193 -193 -193 9 9 10 13 -209 -193 -193 -193 26 25 -193 23 19 17 16 15 14 14 12 13 12 11 9 10 9 10 16 13 16 14 13 14 16 17 16 13 15 12 13 19 16 13 16 15 17 17 18 17 15 20 18 16 18 17 16 16 19 19 16 25 25 27 29 35 36 38 37 37 37 -193 -193 -193 -193 38 38 -193 -193 40 39 40 40 40 42 42 42 42 42 42 46 45 49 44 46 45 45 45 45 45 46 45 47 48 48 48 48 48 48 48 48 48 47 48 47 48 48 48 47 45 45 45 44 45 -193 -193 -193 43 0 0 0 0 0
    0 0 0 0 0 0 0 0 0 0 0 0 0 0 0 0 0 0 0 0 0 0 0 0 0 0 0 0 0 0 0 0 0 0 0 0 0 0 0 0 0 0 0 0 0 0 0 0 0 0 0 0 0 0 0 0 0 0 0 0 0 0 0 0 0 0 0 0 0 12 14 12 12 13 13 13 12 15 17 14 18 16 17 17 16 18 18 17 21 21 25 27 27 30 31 32 32 30 29 22 18 13 10 10 9 10 9 10 11 11 9 0 0 0 0 0 0 0 0 0 0 0 10 0 0 12 11 11 12 12 12 10 12 12 9 9 9 0 0 0 0 0 0 0 0 0 -177 0 9 0 0 9 10 10 9 0 0 0 0 0 0 0 0 0 0 0 -193 -193 -193 -177 391 -193 -193 0 0 0 0 0 0 0 0 0 0 0 0 -193 -193 -177 -193 9 9 10 14 -193 -193 -193 28 28 26 -193 24 21 18 17 16 14 14 12 13 12 11 9 10 9 9 15 13 15 14 13 14 16 17 17 13 16 14 14 19 17 14 16 15 17 17 18 17 15 20 18 16 18 16 16 17 19 19 16 25 25 27 30 35 36 38 37 38 37 39 -193 -193 -193 39 -193 142 -193 41 40 40 40 40 42 41 42 42 41 42 46 45 49 44 46 45 45 46 45 45 46 45 47 48 48 48 48 48 48 48 48 48 47 48 47 47 48 48 47 45 45 44 43 44 -193 -193 -193 -193 0 0 0 0 0
    0 0 0 0 0 0 0 0 0 0 0 0 0 0 0 0 0 0 0 0 0 0 0 0 0 0 0 0 0 0 0 0 0 0 0 0 0 0 0 0 0 0 0 0 0 0 0 0 0 0 0 0 0 0 0 0 0 0 0 0 0 0 0 0 0 0 0 0 0 12 14 13 13 13 14 14 12 15 17 14 17 16 17 17 17 19 19 19 23 24 29 33 30 33 33 34 34 30 29 22 19 16 12 12 11 11 10 12 14 13 9 0 0 0 0 0 0 0 0 0 0 0 10 0 0 12 11 11 12 11 11 -193 11 12 9 9 10 0 0 0 0 0 0 0 0 -177 -177 9 10 9 9 10 12 12 12 9 11 10 -193 9 0 0 0 0 0 0 -193 -193 -193 390 391 -193 10 10 0 9 10 10 0 0 0 0 0 0 0 -209 -193 -193 -193 9 9 11 17 25 26 27 30 30 28 27 26 22 19 17 17 15 14 13 14 12 11 9 9 0 8 14 12 14 14 13 13 16 17 17 14 17 15 14 20 18 15 16 15 17 17 18 17 15 19 17 16 19 17 16 17 19 19 16 25 25 27 31 36 36 38 38 38 38 -177 -193 -193 -209 -193 -193 142 147 42 40 -193 -193 40 41 41 41 42 39 42 47 46 48 45 46 45 45 46 45 45 45 45 47 47 48 48 48 48 47 48 48 47 46 47 46 47 47 48 47 46 45 45 44 44 44 -193 -193 42 0 0 0 0 0
    0 0 0 0 0 0 0 0 0 0 0 0 0 0 0 0 0 0 0 0 0 0 0 0 0 0 0 0 0 0 0 0 0 0 0 0 0 0 0 0 0 0 0 0 0 0 0 0 0 0 0 0 0 0 0 0 0 0 0 0 0 0 0 0 0 0 0 0 0 13 16 14 14 14 15 14 12 16 18 14 18 16 17 18 19 20 21 21 25 26 31 35 32 34 35 35 35 31 28 18 15 15 14 12 11 12 12 13 18 17 11 9 10 0 0 0 0 0 0 0 0 0 11 0 9 14 12 12 13 11 11 -193 12 12 9 9 9 0 0 0 0 0 0 0 0 -177 9 9 10 10 10 11 13 15 15 13 20 22 25 25 26 -209 -193 -193 -193 -193 -193 -193 -193 390 392 -193 12 13 12 13 21 21 18 10 11 0 0 0 0 -193 -193 -193 -193 9 10 13 20 26 27 29 31 32 30 29 27 23 20 18 18 15 14 13 14 12 10 0 0 0 0 13 12 13 14 12 13 17 18 17 14 18 16 15 20 19 16 16 16 17 16 18 17 15 19 17 16 19 17 16 16 18 19 16 25 25 27 32 37 36 38 38 38 38 -177 -177 -193 -209 -193 -193 143 147 42 -193 -209 -193 40 41 40 41 41 37 42 47 46 49 45 47 46 46 46 45 45 45 44 47 47 47 48 47 48 47 47 47 47 46 46 46 46 47 48 47 46 46 46 45 45 44 44 43 43 0 0 0 0 0
    0 0 0 0 0 0 0 0 0 0 0 0 0 0 0 0 0 0 0 0 0 0 0 0 0 0 0 0 0 0 0 0 0 0 0 0 0 0 0 0 0 0 0 0 0 0 0 0 0 0 0 0 0 0 0 0 0 0 0 0 0 0 0 0 0 0 0 0 0 13 16 14 14 15 16 15 12 16 18 14 18 17 18 19 20 22 22 22 26 27 31 33 31 33 34 34 35 32 30 23 20 21 18 15 13 16 14 17 22 22 14 11 17 11 12 9 12 11 0 0 0 0 11 0 10 16 13 14 15 13 -193 -193 14 13 9 10 9 0 0 0 0 0 0 0 0 -177 11 11 12 12 11 13 18 20 21 20 26 28 28 29 29 28 -193 -177 -177 -193 -193 -193 -193 391 -193 -193 16 19 17 20 25 25 -193 -209 -193 0 0 0 0 0 0 -193 -193 9 11 14 22 28 28 30 33 34 32 32 29 25 21 19 18 15 14 13 14 12 10 0 0 0 0 13 11 13 14 12 13 17 18 17 15 18 17 15 20 20 16 16 16 16 17 18 17 16 19 17 16 19 17 17 -193 19 19 17 25 25 27 32 37 36 38 38 38 38 -193 -177 -193 -209 -193 -193 144 -193 42 -209 -209 -177 40 41 40 40 41 35 42 46 45 48 45 47 46 46 46 45 44 45 44 47 47 48 48 48 48 47 47 47 47 45 46 45 46 46 47 47 47 46 47 45 45 45 44 44 43 0 0 0 0 0
    0 0 0 0 0 0 0 0 0 0 0 0 0 0 0 0 0 0 0 0 0 0 0 0 0 0 0 0 0 0 0 0 0 0 0 0 0 0 0 0 0 0 0 0 0 0 0 0 0 0 0 0 0 0 0 0 0 0 0 0 0 0 0 0 0 0 0 0 0 13 16 14 14 15 16 15 12 16 18 13 18 17 19 20 21 23 23 23 27 27 31 33 30 34 34 34 34 32 30 26 26 26 24 20 19 20 19 21 24 25 20 17 24 21 21 20 22 22 11 17 -193 0 16 9 12 20 15 18 18 -193 -193 -193 16 14 10 12 10 9 0 9 -193 0 13 0 9 11 16 17 18 18 15 16 23 24 25 24 31 31 30 31 31 30 -193 -193 392 -209 -193 -193 0 -209 -209 12 20 23 22 24 27 27 26 -193 -193 -193 0 0 0 0 0 0 9 10 12 15 22 28 29 30 33 34 33 34 30 26 21 19 18 15 14 13 14 12 10 0 0 0 0 13 11 12 14 12 13 17 18 17 15 18 17 15 19 20 16 16 16 16 17 18 17 17 19 17 17 20 18 18 -177 20 20 19 26 26 27 33 37 36 38 38 38 38 -193 -177 -177 -209 -193 -209 144 -193 42 -193 -177 -177 -193 -193 40 40 40 33 41 44 44 47 45 46 45 45 46 45 45 46 45 48 49 49 49 49 49 48 47 47 46 45 45 45 45 45 47 46 46 46 47 46 46 45 44 44 44 0 0 0 0 0
    0 0 0 0 0 0 0 0 0 0 0 0 0 0 0 0 0 0 0 0 0 0 0 0 0 0 0 0 0 0 0 0 0 0 0 0 0 0 0 0 0 0 0 0 0 0 0 0 0 0 0 0 0 0 0 0 0 0 0 0 0 0 0 0 0 0 0 0 0 13 16 14 14 15 16 15 12 16 18 13 18 16 19 20 22 23 23 24 27 28 31 33 31 34 34 33 34 31 30 28 28 27 26 24 24 23 23 24 26 27 25 22 28 26 -193 -193 26 26 21 -193 27 10 24 16 22 -193 18 21 21 -193 -193 -193 17 14 11 12 10 9 9 10 -193 10 26 22 22 25 25 25 25 24 24 21 25 28 28 27 35 33 32 32 32 31 30 -193 -193 -209 -209 -209 0 10 13 16 22 26 25 26 28 28 27 -193 -193 -193 10 0 0 0 0 0 10 12 19 21 23 29 29 30 32 34 33 34 31 26 21 20 19 16 14 13 14 12 10 0 0 0 0 13 12 13 14 12 14 18 18 18 16 19 17 15 19 21 16 15 16 16 17 18 17 17 18 17 18 20 18 -193 -177 -193 22 21 26 28 27 34 37 35 37 38 38 38 -193 -177 -177 -177 -177 -193 -193 -177 -177 -193 -177 -177 -177 -177 -193 40 40 33 40 42 43 45 44 46 45 45 46 46 45 46 45 49 50 50 50 49 50 48 47 47 46 44 44 44 44 44 46 45 46 -193 47 46 46 45 44 45 44 0 0 0 0 0
    0 0 0 0 0 0 0 0 0 0 0 0 0 0 0 0 0 0 0 0 0 0 0 0 0 0 0 0 0 0 0 0 0 0 0 0 0 0 0 0 0 0 0 0 0 0 0 0 0 0 0 0 0 0 0 0 0 0 0 0 0 0 0 0 0 0 0 0 0 13 16 14 14 16 17 15 12 17 18 14 -193 17 19 -193 23 24 25 26 28 29 32 33 30 34 33 32 33 30 30 28 29 28 27 25 25 25 25 26 28 29 29 26 33 -193 -193 -193 28 29 27 27 29 -193 28 26 32 -193 22 24 -193 -209 -177 -193 17 13 11 12 10 10 -193 -193 -193 -209 30 30 28 28 28 28 29 27 27 25 28 31 32 31 36 34 33 33 34 33 32 30 30 27 -209 13 11 14 20 22 25 28 26 27 28 28 27 -193 -193 -193 11 0 0 0 0 0 11 19 24 25 25 29 30 30 33 35 34 34 33 27 22 20 19 16 15 14 14 12 10 0 0 0 0 13 11 12 14 12 14 18 19 18 16 19 18 16 19 21 17 16 17 17 18 19 18 18 18 17 18 -193 19 -177 -177 -177 23 23 27 29 28 34 36 35 37 38 38 38 -193 -177 -177 -177 -177 -177 -177 -177 -177 607 -193 -177 -177 -177 -177 39 39 32 40 41 43 45 45 46 45 45 46 46 45 46 45 48 49 50 50 49 49 47 46 46 45 44 44 43 43 44 45 -193 45 -193 46 45 45 45 44 45 44 0 0 0 0 0
    0 0 0 0 0 0 0 0 0 0 0 0 0 0 0 0 0 0 0 0 0 0 0 0 0 0 0 0 0 0 0 0 0 0 0 0 0 0 0 0 0 0 0 0 0 0 0 0 0 0 0 0 0 0 0 0 0 0 0 0 0 0 0 0 0 0 0 0 0 13 16 15 15 17 18 16 13 18 19 14 19 18 20 -193 24 26 26 27 29 30 33 34 31 34 33 33 34 31 31 30 31 29 28 27 26 26 27 28 29 30 31 30 34 32 32 30 30 31 29 30 32 28 32 31 38 37 28 27 -193 -209 -177 -209 -193 12 10 11 9 9 -193 -193 -177 -193 32 35 32 31 32 32 33 31 31 28 31 35 35 34 37 35 34 34 35 34 34 32 32 29 27 23 24 22 25 25 26 29 28 29 29 29 28 -193 -193 0 11 -193 0 9 10 8 15 23 26 27 26 30 31 31 34 35 34 35 34 28 22 21 20 16 15 14 15 12 10 0 0 0 0 13 11 12 14 13 14 18 19 18 17 20 18 16 20 21 18 17 18 17 19 19 19 19 19 17 18 -177 19 -177 -177 -177 -193 24 28 29 28 34 36 34 37 37 38 38 39 -193 -193 -193 -193 -193 -177 -177 -177 605 -177 -177 -177 -177 -177 39 39 33 39 41 43 45 45 47 46 46 47 47 45 47 45 48 49 49 49 48 49 46 46 46 45 43 43 -193 43 43 44 -193 -193 -193 46 45 45 44 44 46 44 0 0 0 0 0
    0 0 0 0 0 0 0 0 0 0 0 0 0 0 0 0 0 0 0 0 0 0 0 0 0 0 0 0 0 0 0 0 0 0 0 0 0 0 0 0 0 0 0 0 0 0 0 0 0 0 0 0 0 0 0 0 0 0 0 0 0 0 0 0 0 0 0 0 0 13 16 15 15 18 19 16 13 19 19 15 20 19 21 -209 25 27 28 28 30 31 33 35 31 35 33 33 35 32 32 31 32 31 30 28 27 27 29 29 31 31 32 31 34 33 32 31 31 31 31 32 33 30 36 35 39 39 34 32 -193 -209 -193 -209 -209 11 10 10 -193 -193 -193 -193 -177 -193 35 37 35 35 34 35 35 34 34 32 35 37 37 37 38 36 35 36 36 35 35 34 34 31 30 27 27 26 27 27 28 32 29 30 31 30 29 26 -193 -193 10 -193 9 -193 11 11 20 26 28 28 28 31 32 33 34 36 35 36 35 30 -193 22 20 17 16 15 15 13 10 0 0 0 0 14 12 13 15 13 15 18 19 18 17 20 19 16 20 22 18 17 19 18 20 20 19 19 19 17 19 -177 20 -177 -177 -177 -177 25 28 30 28 34 36 34 37 37 37 37 39 38 39 39 40 -193 -193 -193 -193 -177 -177 -177 607 610 611 39 39 34 40 42 43 45 46 47 47 46 47 47 45 47 45 47 48 49 48 47 48 46 45 45 44 43 43 43 43 43 44 -193 45 -193 46 46 45 45 45 47 45 0 0 0 0 0
    0 0 0 0 0 0 0 0 0 0 0 0 0 0 0 0 0 0 0 0 0 0 0 0 0 0 0 0 0 0 0 0 0 0 0 0 0 0 0 0 0 0 0 0 0 0 0 0 0 0 0 0 0 0 0 0 0 0 0 0 0 0 0 0 0 0 0 0 0 14 17 16 16 18 19 17 13 19 19 16 21 20 22 26 26 29 29 29 32 33 34 36 32 36 34 34 35 33 32 32 33 30 30 27 27 28 29 30 31 31 32 32 34 33 32 31 32 31 32 34 34 32 38 38 40 41 38 37 -193 -209 -209 -209 -193 -193 9 10 -209 -209 -193 -193 -193 -193 35 38 37 36 36 36 36 35 35 35 36 38 39 38 39 37 36 36 36 35 35 35 35 34 34 31 31 30 30 30 30 34 32 32 33 31 30 27 -209 -209 11 -193 -193 -193 11 14 23 29 29 30 29 32 33 33 34 36 35 36 36 33 -209 -193 21 18 16 16 15 13 10 9 9 9 9 15 12 13 16 14 15 19 19 19 17 20 19 16 20 22 18 18 19 19 20 21 20 20 19 17 19 -193 20 -177 -177 -177 -177 -193 28 31 29 34 36 34 37 37 37 37 39 38 39 39 40 40 40 41 -193 -193 -193 -193 -193 -177 -193 40 40 35 40 42 43 45 46 48 47 47 48 48 45 48 44 47 47 48 47 46 47 45 45 45 44 43 43 43 43 43 45 44 45 46 47 46 46 46 46 48 46 0 0 0 0 0
    0 0 0 0 0 0 0 0 0 0 0 0 0 0 0 0 0 0 0 0 0 0 0 0 0 0 0 0 0 0 0 0 0 0 0 0 0 0 0 0 0 0 0 0 0 0 0 0 0 0 0 0 0 0 0 0 0 0 0 0 0 0 0 0 0 0 0 0 0 15 17 16 16 18 19 17 14 20 19 18 22 21 23 27 27 30 30 30 32 33 34 35 33 36 34 34 35 33 32 32 33 30 29 27 27 28 29 30 31 31 32 33 34 33 32 32 32 32 32 34 34 33 39 -177 -177 42 40 39 -193 -209 -209 -193 -177 -193 9 10 -193 -209 285 288 293 -193 35 38 37 37 36 36 37 36 36 36 36 39 39 39 39 37 36 37 37 36 36 36 36 36 37 37 36 36 36 36 35 37 35 35 35 33 31 -209 -209 -209 12 14 12 -193 13 18 26 32 31 32 31 34 35 35 35 37 36 37 37 35 -209 -193 23 19 17 17 16 13 11 10 9 9 9 16 13 14 16 14 16 19 19 19 18 20 19 16 20 22 18 17 19 19 20 21 20 20 20 18 19 -193 20 -193 -177 -177 -177 -193 29 32 29 34 36 34 37 37 37 37 38 38 38 38 39 39 40 41 43 -193 42 42 42 -193 40 40 40 36 39 41 42 44 46 48 48 47 48 49 46 49 44 47 47 47 46 46 47 45 45 45 44 43 44 43 43 43 45 44 46 47 47 47 48 47 47 49 47 0 0 0 0 0
    0 0 0 0 0 0 0 0 0 0 0 0 0 0 0 0 0 0 0 0 0 0 0 0 0 0 0 0 0 0 0 0 0 0 0 0 0 0 0 0 0 0 0 0 0 0 0 0 0 0 0 0 0 0 0 0 0 0 0 0 0 0 0 0 0 0 0 0 0 16 17 17 16 19 20 19 16 21 21 20 23 23 23 29 28 31 31 31 33 33 34 35 34 35 34 34 35 33 33 33 33 30 30 27 27 28 29 30 31 31 33 34 35 34 33 32 33 33 33 35 34 35 40 -177 40 40 39 39 -209 -209 -209 -209 -209 -209 -209 -193 -193 -193 287 290 -193 -209 35 38 37 37 36 36 36 36 35 36 36 38 39 39 39 38 36 37 37 36 36 36 36 36 36 37 37 37 37 38 37 39 37 37 37 35 -193 -193 -209 -209 13 16 13 13 14 20 26 31 32 31 31 34 35 35 35 37 36 37 38 36 39 -193 -209 21 19 18 16 14 11 12 10 11 10 18 14 15 17 15 17 19 20 19 18 20 19 16 20 22 18 17 19 19 20 21 20 20 20 18 20 -193 21 -193 -177 -177 -177 -193 29 33 29 34 35 33 36 36 36 36 37 37 38 38 38 39 39 41 43 -193 42 42 42 41 41 40 39 36 39 41 42 43 45 47 47 47 48 48 45 48 44 46 46 46 45 45 46 45 45 45 44 44 44 44 44 43 45 44 46 48 48 48 48 47 47 49 47 0 0 0 0 0
    0 0 0 0 0 0 0 0 0 0 0 0 0 0 0 0 0 0 0 0 0 0 0 0 0 0 0 0 0 0 0 0 0 0 0 0 0 0 0 0 0 0 0 0 0 0 0 0 0 0 0 0 0 0 0 0 0 0 0 0 0 0 0 0 0 0 0 0 0 19 18 19 18 20 22 20 19 23 22 23 25 25 25 30 29 31 31 33 34 34 34 36 34 36 34 35 34 32 31 32 31 28 27 25 26 27 29 31 31 31 33 34 34 34 33 33 34 34 35 36 35 38 40 -177 40 40 39 39 -209 -209 -209 -209 -209 -209 -193 -209 -193 -193 287 291 -209 -193 36 38 38 37 37 37 37 35 35 36 36 38 39 39 40 38 36 38 37 37 36 36 36 36 36 37 37 37 37 38 38 39 38 37 37 37 -193 -193 -209 -193 16 18 15 15 16 21 27 32 33 32 32 35 36 36 36 37 36 37 37 36 37 32 30 22 20 20 16 15 12 14 12 13 12 19 15 17 18 16 18 20 20 20 18 21 19 17 20 22 18 18 19 19 21 21 20 20 20 18 20 -193 22 -193 -177 -177 -193 -193 30 33 30 34 35 32 36 35 35 36 37 37 37 37 38 39 39 42 43 42 42 42 43 42 41 41 40 38 39 41 42 43 45 46 46 46 46 47 44 46 43 44 44 44 44 44 45 45 44 45 45 44 44 44 44 44 45 44 46 49 48 50 49 47 47 49 47 0 0 0 0 0
    0 0 0 0 0 0 0 0 0 0 0 0 0 0 0 0 0 0 0 0 0 0 0 0 0 0 0 0 0 0 0 0 0 0 0 0 0 0 0 0 0 0 0 0 0 0 0 0 0 0 0 0 0 0 0 0 0 0 0 0 0 0 0 0 0 0 0 0 0 24 24 25 25 24 26 25 24 26 26 27 28 27 26 32 30 32 32 34 34 35 35 36 35 36 35 35 34 32 30 30 30 27 26 24 25 28 30 31 31 32 34 35 35 34 33 34 34 35 37 36 37 39 40 40 40 40 40 39 -209 -209 -209 -193 -193 -209 -209 -209 -209 -209 -177 -193 -209 35 36 38 38 37 37 36 36 35 35 36 35 37 38 39 39 38 36 38 38 37 37 37 37 36 36 37 37 36 37 38 38 39 39 38 38 38 -193 768 768 769 -193 18 16 16 17 22 28 33 35 34 34 36 37 36 36 38 37 37 37 36 36 32 31 24 22 22 18 17 13 17 15 15 14 20 16 18 19 18 18 20 20 20 19 21 20 18 21 22 19 19 20 21 22 23 22 22 21 19 21 -193 22 22 -209 -193 -193 -193 30 33 30 34 35 33 35 34 35 35 36 37 37 37 38 39 40 42 43 42 42 43 44 42 42 41 40 39 40 42 43 43 45 46 46 46 46 46 44 45 42 42 42 43 43 42 44 44 44 45 45 45 45 45 45 44 45 45 48 50 49 51 49 47 47 49 47 0 0 0 0 0
    0 0 0 0 0 0 0 0 0 0 0 0 0 0 0 0 0 0 0 0 0 0 0 0 0 0 0 0 0 0 0 0 0 0 0 0 0 0 0 0 0 0 0 0 0 0 0 0 0 0 0 0 0 0 0 0 0 0 0 0 0 0 0 0 0 0 0 0 0 27 26 28 30 27 29 29 28 29 29 31 31 32 29 34 32 33 33 35 34 35 35 36 35 36 35 35 33 32 30 30 28 26 25 23 24 29 30 32 31 32 34 34 34 34 32 34 33 35 37 37 38 39 41 40 40 40 40 40 -193 -209 -209 -209 -209 -209 -209 -209 -209 -209 -209 -209 -209 35 36 38 38 37 37 37 36 36 35 36 35 36 37 39 39 38 37 38 38 37 37 38 37 36 37 38 37 38 38 39 39 39 39 39 39 40 -209 767 767 767 769 -193 -193 17 17 23 29 34 36 36 35 37 37 37 37 38 36 37 36 36 35 33 32 28 24 25 20 20 15 21 19 17 15 20 16 18 19 19 19 20 20 20 19 21 20 18 21 23 20 20 21 22 24 24 23 24 23 20 22 -193 22 22 -209 -193 -193 -193 30 33 30 33 34 32 35 33 33 33 35 36 36 36 37 39 40 43 44 43 43 44 45 43 42 42 41 40 41 42 43 42 45 46 46 45 45 46 44 45 42 42 41 42 41 41 43 43 43 44 45 45 45 46 46 45 46 45 49 51 49 51 50 47 47 49 47 0 0 0 0 0
    0 0 0 0 0 0 0 0 0 0 0 0 0 0 0 0 0 0 0 0 0 0 0 0 0 0 0 0 0 0 0 0 0 0 0 0 0 0 0 0 0 0 0 0 0 0 0 0 0 0 0 0 0 0 0 0 0 0 0 0 0 0 0 0 0 0 0 0 0 28 26 28 30 28 30 31 30 32 32 32 31 31 29 34 32 33 33 34 34 35 35 35 35 35 35 35 34 34 31 32 29 26 27 24 25 30 31 33 31 32 33 33 33 33 32 33 32 35 37 37 38 40 40 41 40 42 43 43 45 -209 -209 -209 -209 -209 -209 -209 -209 -209 -209 -209 -209 38 38 38 39 39 38 38 38 38 38 39 39 40 40 40 40 39 38 38 38 38 38 38 38 37 38 38 38 39 39 40 39 39 40 40 40 41 41 766 766 767 768 -193 -193 -193 18 24 31 35 37 37 36 38 37 37 37 38 36 36 35 35 34 34 33 31 27 28 24 24 23 26 27 23 21 22 19 20 21 21 20 21 21 21 20 21 20 20 21 23 22 22 24 25 27 27 26 25 25 22 22 23 21 21 22 23 24 25 29 33 29 31 33 32 34 32 31 31 32 35 35 36 37 38 39 42 44 43 43 44 45 43 43 43 41 41 41 42 43 42 44 45 45 45 45 46 44 45 43 42 41 42 41 42 43 -193 43 45 45 45 45 46 46 45 46 45 49 51 49 51 50 48 47 49 47 0 0 0 0 0
    0 0 0 0 0 0 0 0 0 0 0 0 0 0 0 0 0 0 0 0 0 0 0 0 0 0 0 0 0 0 0 0 0 0 0 0 0 0 0 0 0 0 0 0 0 0 0 0 0 0 0 0 0 0 0 0 0 0 0 0 0 0 0 0 0 0 0 0 0 27 26 28 30 -193 -193 -209 32 34 35 35 32 32 30 34 33 33 33 35 34 35 35 35 35 35 35 35 33 33 30 32 29 27 27 25 26 31 31 33 31 32 33 33 33 33 32 34 33 36 38 37 38 40 41 41 41 44 46 45 48 47 -193 -209 -209 -209 -209 -209 -209 -209 -209 -209 -193 41 41 40 40 40 40 40 40 40 41 41 42 43 42 41 41 40 39 39 39 38 38 39 39 38 38 39 38 40 40 40 39 39 40 40 40 40 41 -193 -193 -193 -193 -193 -193 21 -193 25 33 35 36 37 36 38 37 37 37 37 36 37 35 35 34 36 34 34 30 33 27 29 29 30 32 28 26 26 24 24 24 24 23 23 23 23 23 23 24 24 24 26 28 27 28 32 33 32 31 30 29 24 24 25 22 20 19 21 22 22 27 34 29 30 32 32 34 33 32 32 33 36 35 36 37 38 39 42 43 43 43 43 45 43 43 43 41 41 41 43 44 41 44 45 45 45 45 46 44 45 43 43 42 42 42 42 43 -193 43 45 45 45 45 46 45 45 46 46 50 51 49 52 50 48 48 48 47 0 0 0 0 0
    0 0 0 0 0 0 0 0 0 0 0 0 0 0 0 0 0 0 0 0 0 0 0 0 0 0 0 0 0 0 0 0 0 0 0 0 0 0 0 0 0 0 0 0 0 0 0 0 0 0 0 0 0 0 0 0 0 0 0 0 0 0 0 0 0 0 0 0 0 -193 27 28 31 -193 -193 -209 33 34 35 35 32 33 32 34 35 33 33 36 35 36 35 35 36 35 35 35 34 34 30 32 29 27 28 26 27 32 32 35 32 33 34 34 33 34 33 35 34 37 39 38 39 41 41 42 43 45 48 47 50 50 54 -209 -209 -209 -209 -209 -209 -209 -209 -193 44 47 45 42 42 42 42 42 42 42 43 43 43 44 42 43 42 41 40 39 39 39 38 39 39 38 38 39 39 40 40 41 40 40 40 40 40 40 40 36 35 34 29 25 24 23 -209 27 34 36 38 38 37 39 37 38 38 39 37 37 36 36 35 37 37 36 33 35 29 31 31 33 33 30 30 30 30 30 30 30 29 27 29 28 28 27 29 32 32 36 36 37 37 38 38 37 37 38 37 38 32 37 32 -193 -193 24 25 28 33 38 31 32 34 34 34 34 33 33 34 36 35 35 37 38 39 41 42 42 42 43 44 43 43 42 41 41 42 43 44 41 44 45 45 45 45 46 44 45 44 43 42 42 42 42 43 -193 43 -193 45 45 45 45 45 45 47 46 51 52 49 52 50 48 48 48 47 0 0 0 0 0
    0 0 0 0 0 0 0 0 0 0 0 0 0 0 0 0 0 0 0 0 0 0 0 0 0 0 0 0 0 0 0 0 0 0 0 0 0 0 0 0 0 0 0 0 0 0 0 0 0 0 0 0 0 0 0 0 0 0 0 0 0 0 0 0 0 0 0 0 0 31 30 30 36 30 30 34 36 36 37 37 34 35 35 34 36 33 33 35 34 35 33 35 36 33 35 35 32 33 30 32 29 27 30 28 28 32 33 36 33 34 34 34 34 35 34 37 36 39 40 39 40 41 43 43 43 46 50 48 51 52 55 -193 -209 -209 -209 -209 56 -193 54 51 47 51 49 44 46 46 44 44 44 45 45 45 45 47 43 43 43 42 40 39 39 39 38 39 39 38 39 40 39 40 40 40 39 39 40 40 40 40 40 37 36 35 31 28 26 25 -209 29 35 38 41 40 39 40 38 38 39 40 38 38 37 37 36 38 38 36 34 36 30 32 32 33 34 30 31 30 30 30 30 31 30 28 29 28 28 28 30 32 31 33 35 36 37 38 39 39 39 40 39 41 41 42 44 41 39 37 37 41 38 40 30 30 32 32 32 31 32 32 34 36 34 35 36 37 38 41 42 42 42 43 44 43 43 43 42 42 43 43 45 42 44 45 45 45 44 46 44 45 44 43 43 43 43 43 43 -193 -193 -193 45 45 45 46 46 46 47 47 51 52 49 52 50 48 47 48 47 0 0 0 0 0
    0 0 0 0 0 0 0 0 0 0 0 0 0 0 0 0 0 0 0 0 0 0 0 0 0 0 0 0 0 0 0 0 0 0 0 0 0 0 0 0 0 0 0 0 0 0 0 0 0 0 0 0 0 0 0 0 0 0 0 0 0 0 0 0 0 0 0 0 0 36 36 36 40 -193 -193 -193 40 39 39 39 36 37 37 36 37 34 34 36 34 36 34 35 36 34 35 35 31 34 29 32 28 28 31 29 29 33 34 36 34 35 35 36 35 36 37 39 38 40 41 40 41 42 44 44 44 47 51 49 51 52 55 55 54 55 56 52 55 55 54 52 49 52 51 47 50 50 47 47 47 47 47 47 48 49 44 44 45 44 42 39 40 40 39 40 40 39 40 40 39 39 38 38 38 38 39 39 39 39 39 37 36 35 33 32 28 28 -193 32 36 38 40 39 38 39 37 37 38 39 37 38 37 38 37 38 38 37 35 37 30 33 32 34 34 31 32 30 30 30 31 32 32 30 32 30 29 30 31 34 32 33 35 -193 37 39 40 41 41 41 40 42 42 43 44 41 39 35 33 37 26 27 22 27 28 30 30 29 30 33 34 36 35 35 36 37 38 41 41 41 41 42 43 43 43 43 42 42 44 45 46 42 45 44 44 44 44 45 44 45 44 44 43 44 43 44 44 -193 44 45 45 46 46 46 46 46 47 47 51 51 49 52 50 48 47 48 47 0 0 0 0 0
    0 0 0 0 0 0 0 0 0 0 0 0 0 0 0 0 0 0 0 0 0 0 0 0 0 0 0 0 0 0 0 0 0 0 0 0 0 0 0 0 0 0 0 0 0 0 0 0 0 0 0 0 0 0 0 0 0 0 0 0 0 0 0 0 0 0 0 0 0 39 40 39 41 40 -209 -209 -193 39 39 39 36 37 37 37 37 35 35 36 35 36 35 36 37 35 37 37 34 35 31 33 29 30 32 30 30 34 34 37 35 36 36 37 36 37 38 39 38 40 41 40 42 43 44 45 45 49 52 50 52 53 55 56 55 56 56 52 55 55 54 52 50 53 52 49 52 52 50 49 50 50 49 50 50 51 44 46 46 46 44 40 41 41 41 42 42 42 41 40 39 39 38 37 37 37 38 39 39 38 38 37 37 36 36 35 31 32 35 35 37 38 41 41 39 40 38 38 39 40 38 39 38 38 37 39 39 38 36 38 30 33 33 33 33 31 31 30 30 30 30 33 34 33 36 35 32 32 35 36 34 34 -193 -209 37 39 41 41 41 41 40 42 42 42 44 40 40 35 34 36 27 -209 22 25 29 32 34 32 33 34 35 37 35 36 37 37 38 40 41 40 40 41 42 42 42 42 42 41 44 45 46 42 45 44 44 44 44 45 44 45 45 45 45 45 45 45 45 46 45 46 46 46 47 47 47 46 47 47 51 51 49 52 49 48 47 47 47 0 0 0 0 0
    0 0 0 0 0 0 0 0 0 0 0 0 0 0 0 0 0 0 0 0 0 0 0 0 0 0 0 0 0 0 0 0 0 0 0 0 0 0 0 0 0 0 0 0 0 0 0 0 0 0 0 0 0 0 0 0 0 0 0 0 0 0 0 0 0 0 0 0 0 42 43 44 45 45 43 42 42 40 39 39 36 36 38 37 38 36 35 37 36 37 36 37 37 35 37 38 36 37 35 36 31 32 34 33 31 35 35 38 36 37 37 39 38 39 -209 -209 39 41 42 41 43 44 46 46 46 50 53 52 53 53 55 56 55 56 56 53 55 56 55 52 51 54 53 50 53 54 52 52 52 53 52 52 53 53 46 46 45 45 43 41 42 42 42 45 45 46 42 40 40 39 38 37 37 37 38 39 39 39 39 38 39 38 38 38 34 36 37 37 38 38 42 40 38 39 37 37 38 39 38 39 38 39 38 39 39 39 37 39 32 34 34 34 34 32 33 32 31 33 33 36 38 38 39 40 37 36 37 39 38 37 37 -209 38 40 41 41 40 41 40 42 41 40 45 -193 41 -193 35 -209 -209 -209 -209 -209 -209 38 41 38 37 37 36 37 34 35 36 36 36 40 41 39 39 40 41 41 41 42 41 41 43 46 46 43 45 44 44 44 44 45 44 46 46 46 46 46 46 46 46 46 46 46 46 47 47 47 47 46 47 47 51 50 49 52 49 48 48 48 47 0 0 0 0 0
    0 0 0 0 0 0 0 0 0 0 0 0 0 0 0 0 0 0 0 0 0 0 0 0 0 0 0 0 0 0 0 0 0 0 0 0 0 0 0 0 0 0 0 0 0 0 0 0 0 0 0 0 0 0 0 0 0 0 0 0 0 0 0 0 0 0 0 0 0 42 43 45 48 47 45 43 44 41 40 40 37 37 38 38 39 37 36 37 37 37 37 37 37 35 37 38 37 38 36 37 33 35 35 35 34 36 36 39 36 38 37 39 38 39 -209 -209 39 42 43 42 43 45 47 46 48 51 53 52 53 54 55 55 55 56 57 54 55 56 55 53 52 54 53 51 53 54 53 53 54 54 53 53 54 54 46 47 45 45 44 42 42 43 43 46 46 48 45 40 40 40 38 38 38 38 39 40 40 39 40 40 40 39 39 39 37 38 39 39 39 38 41 39 37 38 37 37 38 40 38 40 39 39 39 40 40 39 37 39 33 35 35 35 35 33 33 32 32 33 32 35 38 39 40 41 38 37 38 40 39 -193 37 -209 -193 42 45 45 42 44 43 44 44 43 45 42 41 -209 35 -209 -209 -209 -209 34 -209 39 43 41 38 38 36 36 33 35 36 35 36 39 42 40 40 40 41 41 41 41 41 40 43 46 46 43 45 44 44 44 44 45 44 46 46 47 47 47 47 46 46 46 46 46 46 46 47 46 47 46 47 46 50 50 49 51 49 48 48 48 47 0 0 0 0 0
    0 0 0 0 0 0 0 0 0 0 0 0 0 0 0 0 0 0 0 0 0 0 0 0 0 0 0 0 0 0 0 0 0 0 0 0 0 0 0 0 0 0 0 0 0 0 0 0 0 0 0 0 0 0 0 0 0 0 0 0 0 0 0 0 0 0 0 0 0 42 44 46 49 49 46 45 46 42 40 40 38 37 38 38 39 37 36 37 37 38 37 38 37 35 37 38 37 38 36 37 33 35 36 36 35 36 36 40 37 38 37 39 38 -209 -209 -193 40 42 43 43 44 46 49 47 49 51 54 53 53 54 55 55 55 56 56 53 55 56 55 53 52 54 53 51 53 55 53 54 54 54 54 53 54 54 47 47 46 45 44 41 41 42 42 45 45 47 45 -193 40 40 39 39 -209 -209 40 41 40 40 40 40 40 40 39 39 38 39 41 41 41 40 41 38 39 40 38 39 40 42 39 41 41 40 40 41 40 39 38 40 33 35 34 34 34 33 32 32 32 35 34 35 38 38 40 41 40 38 39 41 41 -193 39 39 -193 44 48 47 44 44 44 44 44 42 44 42 41 32 34 -209 -209 -209 -209 -209 43 -193 45 48 42 42 39 39 36 37 38 35 34 38 41 39 39 40 40 41 41 41 42 40 43 46 46 43 45 44 44 44 44 45 44 46 46 47 48 47 47 47 47 47 46 46 46 46 46 46 46 45 46 46 50 49 49 51 48 48 48 47 47 0 0 0 0 0
    0 0 0 0 0 0 0 0 0 0 0 0 0 0 0 0 0 0 0 0 0 0 0 0 0 0 0 0 0 0 0 0 0 0 0 0 0 0 0 0 0 0 0 0 0 0 0 0 0 0 0 0 0 0 0 0 0 0 0 0 0 0 0 0 0 0 0 0 0 42 44 48 50 51 47 45 46 40 39 39 37 37 38 38 39 38 37 38 37 38 37 38 38 36 37 39 37 38 36 37 33 35 35 36 34 36 36 41 37 38 38 39 38 -209 -209 45 42 44 45 44 45 48 50 48 50 51 54 52 53 53 55 55 55 56 56 54 55 56 55 53 52 54 53 52 54 55 54 54 55 55 55 55 55 55 48 47 46 45 44 41 40 41 42 45 44 45 44 48 42 42 40 -193 -209 -209 43 43 41 41 41 41 41 40 40 39 39 40 41 41 41 40 40 39 41 40 40 40 41 43 40 42 41 41 41 41 40 40 38 40 32 34 32 33 33 32 31 31 32 35 35 36 39 38 39 41 40 39 40 42 42 40 40 41 43 45 50 49 47 45 45 46 45 41 43 41 39 28 31 -209 -209 -209 -209 -193 43 41 45 49 43 49 40 41 38 38 38 38 37 39 42 39 39 40 40 41 41 41 41 40 43 46 45 44 45 44 44 44 44 45 44 46 46 47 48 48 48 48 48 47 47 47 46 46 46 46 46 45 46 45 49 48 48 51 48 47 48 47 47 0 0 0 0 0
    0 0 0 0 0 0 0 0 0 0 0 0 0 0 0 0 0 0 0 0 0 0 0 0 0 0 0 0 0 0 0 0 0 0 0 0 0 0 0 0 0 0 0 0 0 0 0 0 0 0 0 0 0 0 0 0 0 0 0 0 0 0 0 0 0 0 0 0 0 43 45 49 50 52 48 45 46 40 38 38 37 37 37 37 38 38 36 38 37 38 37 38 38 36 37 39 37 38 36 36 32 34 35 36 34 35 36 41 38 39 -193 40 -193 -209 -209 46 44 45 47 45 47 50 51 48 49 51 53 53 53 54 54 55 55 57 57 54 55 56 55 54 53 54 53 52 54 56 55 55 56 56 56 56 56 56 50 48 47 45 -193 -193 38 40 41 45 43 43 45 -209 -193 46 41 -193 -209 -193 -209 44 43 43 43 43 42 41 41 40 41 41 42 42 42 41 41 39 41 40 40 41 42 43 40 42 41 41 41 41 40 40 38 40 32 34 32 33 33 33 31 31 32 36 35 36 39 38 39 41 39 39 40 41 42 40 41 41 43 46 51 51 49 46 45 46 45 -209 43 39 38 24 28 20 -209 -209 -209 40 46 43 46 52 42 -209 -209 42 37 38 36 35 36 39 44 39 39 40 40 41 41 40 41 38 42 45 44 43 44 43 44 44 44 44 44 46 46 48 48 48 48 48 48 47 47 47 46 46 47 46 46 45 46 45 49 47 48 50 48 47 48 47 47 0 0 0 0 0
    0 0 0 0 0 0 0 0 0 0 0 0 0 0 0 0 0 0 0 0 0 0 0 0 0 0 0 0 0 0 0 0 0 0 0 0 0 0 0 0 0 0 0 0 0 0 0 0 0 0 0 0 0 0 0 0 0 0 0 0 0 0 0 0 0 0 0 0 0 44 47 51 52 54 52 50 52 43 -193 39 38 38 37 37 38 38 36 38 37 38 37 39 38 37 37 38 37 38 35 36 31 34 34 35 33 35 35 41 38 39 -193 -209 -209 -209 -193 -193 44 45 47 46 48 50 51 47 50 51 53 52 53 53 54 55 56 56 56 55 55 56 55 54 53 54 53 52 53 56 55 56 56 57 57 56 56 56 49 47 46 44 -193 -209 34 38 -193 45 43 44 -193 -209 -209 -209 -209 -209 -209 -209 -209 45 43 44 44 43 43 42 42 41 41 42 43 43 43 42 41 40 41 40 40 42 41 43 40 42 41 41 41 41 40 40 38 41 33 35 32 33 33 33 31 31 32 36 35 36 39 38 39 41 40 39 40 42 43 41 42 43 -193 50 54 54 52 47 46 46 45 -209 42 38 37 24 28 20 21 -193 -209 -209 48 43 47 56 42 -209 -209 -209 -209 -209 -209 -209 34 39 48 40 40 41 40 41 41 41 41 37 41 44 44 43 44 43 43 44 44 44 44 46 46 47 48 48 48 48 48 47 47 47 46 47 47 47 47 46 47 45 49 47 48 50 47 47 48 47 47 0 0 0 0 0
    0 0 0 0 0 0 0 0 0 0 0 0 0 0 0 0 0 0 0 0 0 0 0 0 0 0 0 0 0 0 0 0 0 0 0 0 0 0 0 0 0 0 0 0 0 0 0 0 0 0 0 0 0 0 0 0 0 0 0 0 0 0 0 0 0 0 0 0 0 45 48 52 53 55 54 53 56 -193 -193 38 38 37 36 36 37 38 37 39 39 39 38 40 38 38 -193 39 37 38 35 36 31 34 34 35 33 35 35 41 36 -193 550 -193 -209 621 -193 -193 44 45 46 45 48 50 50 46 50 49 52 51 52 52 53 54 54 55 55 54 54 55 55 53 53 53 53 52 53 56 56 57 57 58 58 57 57 57 52 47 47 43 -209 -209 31 -209 -209 45 44 45 -193 60 -209 -209 -209 -209 -209 -209 -209 46 45 45 45 44 43 42 42 41 41 42 42 42 43 41 40 38 40 40 40 42 41 43 41 43 42 42 41 41 40 40 38 40 32 35 33 32 33 33 30 31 32 37 35 36 40 39 40 42 40 40 41 44 47 49 50 54 -193 56 58 58 56 53 52 50 46 -209 42 38 40 23 27 19 20 -209 -177 -193 52 46 49 56 53 59 71 -209 73 76 -209 -209 -209 40 49 39 39 40 40 40 40 40 41 36 41 44 43 43 43 43 43 43 44 44 44 46 46 47 48 48 47 47 48 46 47 47 46 46 48 48 48 46 47 45 49 47 48 49 47 47 48 47 47 0 0 0 0 0
    0 0 0 0 0 0 0 0 0 0 0 0 0 0 0 0 0 0 0 0 0 0 0 0 0 0 0 0 0 0 0 0 0 0 0 0 0 0 0 0 0 0 0 0 0 0 0 0 0 0 0 0 0 0 0 0 0 0 0 0 0 0 0 0 0 0 0 0 0 45 48 53 54 56 55 54 57 59 -225 -225 -225 34 32 33 33 37 36 39 40 40 38 41 38 39 -193 -193 38 39 37 38 33 36 36 36 34 35 35 43 -193 -193 -225 552 -225 -225 -225 -209 43 44 46 44 47 48 48 45 49 48 51 51 51 52 53 53 54 54 55 55 53 55 54 53 53 53 53 53 54 57 59 58 58 59 59 57 57 57 54 47 46 -193 -209 -209 -193 -225 -225 47 45 47 -193 59 -209 -209 -209 -209 -209 -209 -209 -193 47 49 49 46 44 43 43 41 42 42 42 42 43 40 38 36 37 38 39 42 41 44 42 44 42 42 42 41 40 40 38 39 32 35 34 33 33 33 30 32 33 37 36 37 39 39 40 41 40 39 41 45 50 52 54 57 58 59 60 60 59 57 58 57 54 -209 -209 -209 -209 23 31 -209 -209 -209 54 57 53 51 51 55 54 59 63 66 70 74 70 73 -209 47 54 39 39 40 40 40 40 40 40 36 41 44 42 42 42 42 43 43 44 43 44 45 46 47 48 46 46 45 46 45 46 45 45 46 48 48 48 46 47 45 49 48 49 48 47 46 48 47 47 0 0 0 0 0
    0 0 0 0 0 0 0 0 0 0 0 0 0 0 0 0 0 0 0 0 0 0 0 0 0 0 0 0 0 0 0 0 0 0 0 0 0 0 0 0 0 0 0 0 0 0 0 0 0 0 0 0 0 0 0 0 0 0 0 0 0 0 0 0 0 0 0 0 0 47 50 54 55 58 57 59 60 -225 -225 -225 -225 -225 -225 -225 -225 -225 -225 -225 -225 -225 -225 -225 -225 -225 39 40 39 -225 -225 39 -225 -225 -225 -225 -225 -225 -225 -225 -225 -225 -225 -225 -225 -225 -225 -209 49 49 49 47 49 49 49 45 49 47 49 50 51 51 51 52 52 53 53 54 52 53 52 52 52 52 53 53 54 57 60 58 59 60 60 56 57 57 52 47 46 -209 -209 -209 -225 -225 -225 -225 -209 -209 -209 -209 -209 -209 -209 -209 -209 -209 -209 -209 -193 51 52 47 45 43 43 41 43 43 43 43 43 39 -193 37 38 40 40 43 42 45 45 45 44 43 43 43 41 41 39 38 32 36 34 -193 -193 -193 -193 31 34 38 -193 -193 -193 -193 -193 40 39 39 42 48 54 55 56 60 60 60 61 61 60 59 59 58 57 57 -209 52 53 -209 -209 -209 -193 46 50 52 49 47 47 52 53 59 62 64 70 73 71 76 79 -209 58 49 42 43 42 41 42 41 42 37 41 44 42 42 41 42 43 43 43 43 43 44 45 45 46 45 44 44 45 44 45 44 44 45 47 47 47 46 47 46 49 48 49 48 46 46 48 46 46 0 0 0 0 0
    0 0 0 0 0 0 0 0 0 0 0 0 0 0 0 0 0 0 0 0 0 0 0 0 0 0 0 0 0 0 0 0 0 0 0 0 0 0 0 0 0 0 0 0 0 0 0 0 0 0 0 0 0 0 0 0 0 0 0 0 0 0 0 0 0 0 0 0 0 55 -193 57 58 66 69 -193 -225 -225 -225 -225 -225 -225 -225 -225 -225 -225 -225 -225 -225 -225 -225 -225 -225 -225 -225 -225 -225 -225 -225 -225 -225 -225 -225 -225 -225 -225 -225 -225 -225 -225 -225 -225 -225 -225 -225 -225 50 48 49 48 50 49 49 44 48 47 49 48 48 49 50 50 50 50 51 52 51 52 50 51 51 51 52 53 54 58 -193 58 58 59 58 55 55 54 46 46 46 44 -225 -225 -225 -225 -225 -225 -225 -225 -209 -209 -209 -193 -209 236 -193 -193 -209 -209 -193 -209 -193 -193 -193 42 42 40 42 42 42 -193 43 38 -193 -193 41 43 42 -193 44 -225 47 47 46 46 45 45 42 -193 -209 -209 -209 -193 -209 -209 -209 -193 -209 -209 -193 37 -209 -193 -209 -193 -193 38 38 38 -209 52 60 59 62 62 61 62 62 61 60 59 60 58 58 57 56 55 57 -193 -193 -209 -209 49 51 50 47 45 45 52 53 58 58 61 67 68 69 72 73 68 63 59 54 51 48 45 45 44 46 41 42 45 42 41 40 41 42 42 42 42 42 44 45 45 45 44 43 42 44 43 43 42 43 44 47 47 48 46 48 45 49 48 49 46 46 46 48 46 46 0 0 0 0 0
    0 0 0 0 0 0 0 0 0 0 0 0 0 0 0 0 0 0 0 0 0 0 0 0 0 0 0 0 0 0 0 0 0 0 0 0 0 0 0 0 0 0 0 0 0 0 0 0 0 0 0 0 0 0 0 0 0 0 0 0 0 0 0 0 0 0 0 0 0 66 71 -209 -209 -209 -193 113 -225 -193 -193 -225 -225 -225 -225 -225 -225 -225 -225 -225 -225 -225 -225 -225 -225 -225 -225 -225 -225 -225 -225 -225 -225 -225 -225 -225 -225 -225 -225 -225 -225 -225 -225 -225 -225 -225 -225 -225 -225 48 48 48 51 49 49 44 47 47 48 48 47 47 48 48 48 49 50 51 50 52 50 51 51 52 -193 -193 54 -209 -209 -209 57 57 57 55 55 52 47 46 47 46 -225 -225 -225 -225 -225 -225 -225 -225 -225 -225 -225 -225 -225 -225 249 -225 -225 -225 -209 -209 50 44 -225 -225 42 39 -225 -225 -225 -225 -225 -225 -225 -225 -225 -225 -225 -225 -225 -225 -225 -225 -225 -225 -225 -225 -225 -225 -225 -193 -209 0 -209 -209 -209 -209 -209 -209 -193 37 -225 -225 -225 671 -209 38 38 39 45 53 66 60 66 63 62 62 62 61 61 60 60 59 59 59 58 58 58 59 59 56 55 55 55 55 53 49 46 53 55 58 58 60 65 67 68 71 71 69 67 68 71 66 60 -209 55 54 56 -209 -209 46 44 -193 40 41 43 43 43 43 44 46 47 47 48 -193 -193 -193 -193 -193 37 37 39 42 47 46 47 46 48 45 49 49 -193 -193 44 44 49 47 46 0 0 0 0 0
    0 0 0 0 0 0 0 0 0 0 0 0 0 0 0 0 0 0 0 0 0 0 0 0 0 0 0 0 0 0 0 0 0 0 0 0 0 0 0 0 0 0 0 0 0 0 0 0 0 0 0 0 0 0 0 0 0 0 0 0 0 0 0 0 0 0 0 0 0 70 72 74 -209 -209 -193 112 114 -209 -193 77 -225 -225 -225 -225 -225 -225 -225 -225 -225 -225 -225 -225 -225 -225 -225 -225 -225 -225 -225 -225 -225 -225 -225 -225 -225 -225 -225 -225 -225 -225 -225 -225 -225 -225 -225 -225 -225 47 47 48 51 50 49 45 48 47 47 46 45 45 45 44 45 46 47 50 50 51 50 51 52 -193 179 -193 -193 -209 -193 -209 55 56 57 55 55 52 47 45 47 -225 -225 -225 -225 -225 -225 -225 -225 -225 -225 -225 -225 -225 -225 -225 -225 -225 -225 -225 -225 -225 -225 -225 -225 -225 -225 -225 -225 -225 -225 -225 -225 -225 -225 -225 -225 -225 -225 -225 -225 -225 -225 -225 -225 -225 -225 -225 -225 -225 -225 -225 -225 -225 -225 -225 -225 -225 -225 -225 -225 -225 -225 -225 -225 -225 -225 -225 -225 39 -225 -193 69 62 68 65 64 63 62 62 62 61 62 60 61 60 60 60 61 60 60 57 56 55 55 56 50 46 46 53 55 56 57 60 67 70 70 71 70 69 68 69 71 69 67 68 64 69 -209 76 -209 -209 -209 -209 38 -193 43 -193 44 45 45 46 48 49 50 -209 -209 -209 -209 -193 -193 29 34 40 48 46 49 48 50 49 51 54 -209 -193 -193 -209 -209 -209 48 0 0 0 0 0
    0 0 0 0 0 0 0 0 0 0 0 0 0 0 0 0 0 0 0 0 0 0 0 0 0 0 0 0 0 0 0 0 0 0 0 0 0 0 0 0 0 0 0 0 0 0 0 0 0 0 0 0 0 0 0 0 0 0 0 0 0 0 0 0 0 0 0 0 0 72 75 82 -209 -209 107 111 -225 -209 77 77 -225 -225 -225 -225 -225 -225 -225 -225 -225 -225 -225 -225 -225 -225 -225 -225 -225 -225 -225 -225 -225 -225 -225 -225 -225 -225 -225 -225 -225 -225 -225 -225 -225 -225 -225 -225 -225 -225 47 48 52 50 49 44 45 45 45 45 43 41 43 40 43 43 -177 -193 -193 -193 -209 -209 -209 -177 180 180 182 -209 -209 -209 55 56 56 55 56 53 48 45 50 -225 -225 -225 -225 -225 -225 -225 -225 -225 -225 -225 -225 -225 -225 -225 -225 -225 -225 -225 -225 -225 -225 -225 -225 -225 -225 -225 -225 -225 -225 -225 -225 -225 -225 -225 -225 -225 -225 -225 -225 -225 -225 -225 -225 -225 -225 -225 -225 -225 -225 -225 -225 -225 -225 -225 -225 -225 -225 -225 -225 -225 -225 -225 -225 -225 -225 -225 -225 -225 -225 -225 -225 64 68 66 65 64 63 62 63 62 63 61 61 61 61 61 63 63 64 61 59 59 56 56 45 44 48 53 56 58 61 67 72 72 72 73 72 71 71 70 72 70 70 71 69 72 72 75 82 -209 -209 -209 -193 -193 43 -209 45 46 46 48 50 -193 -209 -209 -209 -209 -209 -209 -193 28 32 40 50 50 52 51 53 54 54 61 -209 -209 -193 -209 -209 75 -209 0 0 0 0 0
    0 0 0 0 0 0 0 0 0 0 0 0 0 0 0 0 0 0 0 0 0 0 0 0 0 0 0 0 0 0 0 0 0 0 0 0 0 0 0 0 0 0 0 0 0 0 0 0 0 0 0 0 0 0 0 0 0 0 0 0 0 0 0 0 0 0 0 0 0 76 79 85 94 -225 -225 -225 -225 -225 -193 -193 -225 -225 -225 -225 -225 -225 -225 -225 -225 -225 -225 -225 -225 -225 -225 -225 -225 -225 -225 -225 -225 -225 -225 -225 -225 -225 -225 -225 -225 -225 -225 -225 -225 -225 -225 -225 -225 -225 -225 -225 -225 -225 -225 45 45 46 53 52 -225 -225 -225 -225 -225 -225 -225 -225 -225 -225 -225 -225 -225 -225 -225 -225 -225 -225 -225 -225 -225 55 56 54 55 52 49 -225 -225 -225 -225 -225 -225 -225 -225 -225 -225 -225 -225 -225 -225 -225 -225 -225 -225 -225 -225 -225 -225 -225 -225 -225 -225 -225 -225 -225 -225 -225 -225 -225 -225 -225 -225 -225 -225 -225 -225 -225 -225 -225 -225 -225 -225 -225 -225 -225 -225 -225 -225 -225 -225 -225 -225 -225 -225 -225 -225 -225 -225 -225 -225 -225 -225 -225 -225 -225 -225 -225 -225 -225 -225 -225 68 66 65 64 63 62 63 62 63 62 61 62 62 62 66 67 68 69 66 68 63 58 -209 45 51 53 56 60 64 70 73 76 74 75 73 74 74 73 74 73 72 73 72 74 72 73 76 -209 -209 -209 -209 44 45 47 47 48 49 51 -209 -209 -209 -177 -209 -209 -209 -209 -209 30 34 40 49 51 54 54 55 58 58 72 74 -209 -209 76 74 75 -193 0 0 0 0 0
    0 0 0 0 0 0 0 0 0 0 0 0 0 0 0 0 0 0 0 0 0 0 0 0 0 0 0 0 0 0 0 0 0 0 0 0 0 0 0 0 0 0 0 0 0 0 0 0 0 0 0 0 0 0 0 0 0 0 0 0 0 0 0 0 0 0 0 0 0 82 82 87 -225 -225 -225 -225 -225 -225 -193 -193 -225 -225 -225 -225 -225 -225 -225 -225 -225 -225 -225 -225 -225 -225 -225 -225 -225 -225 -225 -225 -225 -225 -225 -225 -225 -225 -225 -225 -225 -225 -225 -225 -225 -225 -225 -225 -225 -225 -225 -225 -225 -225 -225 -225 -225 -225 -225 -225 -225 -225 -225 -225 -225 -225 -225 -225 -225 -225 -225 -225 -225 -225 -225 -225 -225 -225 -225 -225 -225 -225 -225 -225 -225 -225 -225 -225 -225 -225 -225 -225 -225 -225 -225 -225 -225 -225 -225 -225 -225 -225 -225 -225 -225 -225 -225 -225 -225 -225 -225 -225 -225 -225 -225 -225 -225 -225 -225 -225 -225 -225 -225 -225 -225 -225 -225 -225 -225 -225 -225 -225 -225 -225 -225 -225 -225 -225 -225 -225 -225 -225 -225 -225 -225 -225 -225 -225 -225 -225 -225 -225 -225 -225 -225 -225 -225 -225 -225 -225 -225 -225 67 66 64 64 63 62 63 62 63 62 62 62 62 62 66 67 68 69 66 69 67 62 -209 -193 -209 -193 -209 -209 -209 71 75 82 80 78 74 77 77 75 76 76 73 74 74 75 73 71 73 -193 -209 -209 -209 -209 51 53 53 51 -209 -209 -209 -209 -209 -209 -193 -209 -209 -209 -209 28 31 37 43 41 51 55 -209 -209 -209 74 76 76 76 76 75 76 -193 0 0 0 0 0
    0 0 0 0 0 0 0 0 0 0 0 0 0 0 0 0 0 0 0 0 0 0 0 0 0 0 0 0 0 0 0 0 0 0 0 0 0 0 0 0 0 0 0 0 0 0 0 0 0 0 0 0 0 0 0 0 0 0 0 0 0 0 0 0 0 0 0 0 0 82 83 87 -225 -225 -225 -225 -225 -225 -193 -193 -225 -225 -225 -225 -225 -225 -225 -225 -225 -225 -225 -225 -225 -225 -225 -225 -225 -225 -225 -225 -225 -225 -225 -225 -225 -225 -225 -225 -225 -225 -225 -225 -225 -225 -225 -225 -225 -225 -225 -225 -225 -225 -225 -225 -225 -225 -225 -225 -225 -225 -225 -225 -225 -225 -225 -225 -225 -225 -225 -225 -225 -225 -225 -225 -225 -225 -225 -225 -225 -225 -225 -225 -225 -225 -225 -225 -225 -225 -225 -225 -225 -225 -225 -225 -225 -225 -225 -225 -225 -225 -225 -225 -225 -225 -225 -225 -225 -225 -225 -225 -225 -225 -225 -225 -225 -225 -225 -225 -225 -225 -225 -225 -225 -225 -225 -225 -225 -225 -225 -225 -225 -225 -225 -225 -225 -225 -225 -225 -225 -225 -225 -225 -225 -225 -225 -225 -225 -225 -225 -225 -225 -225 -225 -225 -225 -225 -225 -225 -225 -225 -225 66 64 63 63 62 63 62 63 62 62 63 63 62 66 67 68 69 67 69 69 -209 -209 -209 -209 -209 -209 -209 -209 72 77 84 83 81 78 82 81 78 79 78 75 75 75 77 74 72 74 78 77 -193 -209 -209 -209 -209 -209 -209 -193 -209 -209 -209 -209 -209 -209 -209 -209 -209 -209 -209 -209 -209 -209 -209 -209 -209 79 81 79 77 78 78 76 75 74 75 -209 0 0 0 0 0
    0 0 0 0 0 0 0 0 0 0 0 0 0 0 0 0 0 0 0 0 0 0 0 0 0 0 0 0 0 0 0 0 0 0 0 0 0 0 0 0 0 0 0 0 0 0 0 0 0 0 0 0 0 0 0 0 0 0 0 0 0 0 0 0 0 0 0 0 0 83 83 88 -225 -225 -225 -225 -225 -225 -193 -193 -225 -225 -225 -225 -225 -225 -225 -225 -225 -225 -225 -225 -225 -225 -225 -225 -225 -225 -225 -225 -225 -225 -225 -225 -225 -225 -225 -225 -225 -225 -225 -225 -225 -225 -225 -225 -225 -225 -225 -225 -225 -225 -225 -225 -225 -225 -225 -225 -225 -225 -225 -225 -225 -225 -225 -225 -225 -225 -225 -225 -225 -225 -225 -225 -225 -225 -225 -225 -225 -225 -225 -225 -225 -225 -225 -225 -225 -225 -225 -225 -225 -225 -225 -225 -225 -225 -225 -225 -225 -225 -225 -225 -225 -225 -225 -225 -225 -225 -225 -225 -225 -225 -225 -225 -225 -225 -225 -225 -225 -225 -225 -225 -225 -225 -225 -225 -225 -225 -225 -225 -225 -225 -225 -225 -225 -225 -225 -225 -225 -225 -225 -225 -225 -225 -225 -225 -225 -225 -225 -225 -225 -225 -225 -225 -225 -225 -225 -225 -225 -225 -225 -225 -225 -225 -225 62 63 63 63 63 64 63 63 63 67 68 70 71 69 71 -193 -209 -209 -209 -209 84 84 82 79 76 79 84 82 80 78 82 82 78 79 79 75 75 75 76 74 73 75 79 78 78 79 77 -209 -193 -209 -209 62 59 67 72 -209 74 -209 71 71 -209 -209 -209 -209 -209 -209 -209 -209 -209 85 84 83 82 80 80 77 -193 73 -193 -209 0 0 0 0 0
    0 0 0 0 0 0 0 0 0 0 0 0 0 0 0 0 0 0 0 0 0 0 0 0 0 0 0 0 0 0 0 0 0 0 0 0 0 0 0 0 0 0 0 0 0 0 0 0 0 0 0 0 0 0 0 0 0 0 0 0 0 0 0 0 0 0 0 0 0 83 85 -225 -225 -225 -225 -225 -225 -225 -225 -225 -225 -225 -225 -225 -225 -225 -225 -225 -225 -225 -225 -225 -225 -225 -225 -225 -225 -225 -225 -225 -225 -225 -225 -225 -225 -225 -225 -225 -225 -225 -225 -225 -225 -225 -225 -225 -225 -225 -225 -225 -225 -225 -225 -225 -225 -225 -225 -225 -225 -225 -225 -225 -225 -225 -225 -225 -225 -225 -225 -225 -225 -225 -225 -225 -225 -225 -225 -225 -225 -225 -225 -225 -225 -225 -225 -225 -225 -225 -225 -225 -225 -225 -225 -225 -225 -225 -225 -225 -225 -225 -225 -225 -225 -225 -225 -225 -225 -225 -225 -225 -225 -225 -225 -225 -225 -225 -225 -225 -225 -225 -225 -225 -225 -225 -225 -225 -225 -225 -225 -225 -225 -225 -225 -225 -225 -225 -225 -225 -225 -225 -225 -225 -225 -225 -225 -225 -225 -225 -225 -225 -225 -225 -225 -225 -225 -225 -225 -225 -225 -225 -225 -225 -225 -225 -225 -225 -225 -225 -225 -225 67 67 65 66 68 71 72 73 72 73 74 74 -209 82 -209 85 85 84 80 76 79 84 82 78 76 80 81 78 78 78 75 74 75 76 73 71 75 79 78 79 82 78 -209 -193 75 -209 66 72 70 72 73 75 74 71 71 69 67 71 -209 -209 -209 -209 -193 -209 85 84 83 84 82 82 79 -209 -209 -209 49 0 0 0 0 0
    0 0 0 0 0 0 0 0 0 0 0 0 0 0 0 0 0 0 0 0 0 0 0 0 0 0 0 0 0 0 0 0 0 0 0 0 0 0 0 0 0 0 0 0 0 0 0 0 0 0 0 0 0 0 0 0 0 0 0 0 0 0 0 0 0 0 0 0 0 -225 -225 -225 -225 -225 -225 -225 -225 -225 -225 -225 -225 -225 -225 -225 -225 -225 -225 -225 -225 -225 -225 -225 -225 -225 -225 -225 -225 -225 -225 -225 -225 -225 -225 -225 -225 -225 -225 -225 -225 -225 -225 -225 -225 -225 -225 -225 -225 -225 -225 -225 -225 -225 -225 -225 -225 -225 -225 -225 -225 -225 -225 -225 -225 -225 -225 -225 -225 -225 -225 -225 -225 -225 -225 -225 -225 -225 -225 -225 -225 -225 -225 -225 -225 -225 -225 -225 -225 -225 -225 -225 -225 -225 -225 -225 -225 -225 -225 -225 -225 -225 -225 -225 -225 -225 -225 -225 -225 -225 -225 -225 -225 -225 -225 -225 -225 -225 -225 -225 -225 -225 -225 -225 -225 -225 -225 -225 -225 -225 -225 -225 -225 -225 -225 -225 -225 -225 -225 -225 -225 -225 -225 -225 -225 -225 -225 -225 -225 -225 -225 -225 -225 -225 -225 -225 -225 -225 -225 -225 -225 -225 -225 -225 -225 -225 -225 -225 -225 -225 -225 -225 -225 -225 67 67 70 73 74 75 75 75 77 78 82 84 -209 86 87 86 84 82 83 86 84 82 79 82 82 79 78 79 75 75 75 77 74 73 76 82 81 83 85 83 83 82 79 -209 68 -209 73 74 75 76 75 72 71 71 68 71 72 -209 -193 -209 84 88 85 86 85 86 84 85 83 -209 -209 -209 45 0 0 0 0 0
    0 0 0 0 0 0 0 0 0 0 0 0 0 0 0 0 0 0 0 0 0 0 0 0 0 0 0 0 0 0 0 0 0 0 0 0 0 0 0 0 0 0 0 0 0 0 0 0 0 0 0 0 0 0 0 0 0 0 0 0 0 0 0 0 0 0 0 0 0 -225 -225 -225 -225 -225 -225 -225 -225 -225 -225 -225 -225 -225 -225 -225 -225 -225 -225 -225 -225 -225 -225 -225 -225 -225 -225 -225 -225 -225 -225 -225 -225 -225 -225 -225 -225 -225 -225 -225 -225 -225 -225 -225 -225 -225 -225 -225 -225 -225 -225 -225 -225 -225 -225 -225 -225 -225 -225 -225 -225 -225 -225 -225 -225 -225 -225 -225 -225 -225 -225 -225 -225 -225 -225 -225 -225 -225 -225 -225 -225 -225 -225 -225 -225 -225 -225 -225 -225 -225 -225 -225 -225 -225 -225 -225 -225 -225 -225 -225 -225 -225 -225 -225 -225 -225 -225 -225 -225 -225 -225 -225 -225 -225 -225 -225 -225 -225 -225 -225 -225 -225 -225 -225 -225 -225 -225 -225 -225 -225 -225 -225 -225 -225 -225 -225 -225 -225 -225 -225 -225 -225 -225 -225 -225 -225 -225 -225 -225 -225 -225 -225 -225 -225 -225 -225 -225 -225 -225 -225 -225 -225 -225 -225 -225 -225 -225 -225 -225 -225 -225 -225 -225 -225 -225 68 71 77 76 77 76 77 80 82 86 87 -209 87 88 88 85 84 84 86 85 84 85 86 85 82 82 82 78 77 78 78 75 75 80 84 84 84 86 85 85 85 84 84 76 81 79 78 78 78 76 73 71 71 68 71 72 74 72 74 83 88 86 85 84 85 83 84 83 -193 -209 -193 -209 0 0 0 0 0
    0 0 0 0 0 0 0 0 0 0 0 0 0 0 0 0 0 0 0 0 0 0 0 0 0 0 0 0 0 0 0 0 0 0 0 0 0 0 0 0 0 0 0 0 0 0 0 0 0 0 0 0 0 0 0 0 0 0 0 0 0 0 0 0 0 0 0 0 0 -225 -225 -225 -225 -225 -225 -225 -225 -225 -225 -225 -225 -225 -225 -225 -225 -225 -225 -225 -225 -225 -225 -225 -225 -225 -225 -225 -225 -225 -225 -225 -225 -225 -225 -225 -225 -225 -225 -225 -225 -225 -225 -225 -225 -225 -225 -225 -225 -225 -225 -225 -225 -225 -225 -225 -225 -225 -225 -225 -225 -225 -225 -225 -225 -225 -225 -225 -225 -225 -225 -225 -225 -225 -225 -225 -225 -225 -225 -225 -225 -225 -225 -225 -225 -225 -225 -225 -225 -225 -225 -225 -225 -225 -225 -225 -225 -225 -225 -225 -225 -225 -225 -225 -225 -225 -225 -225 -225 -225 -225 -225 -225 -225 -225 -225 -225 -225 -225 -225 -225 -225 -225 -225 -225 -225 -225 -225 -225 -225 -225 -225 -225 -225 -225 -225 -225 -225 -225 -225 -225 -225 -225 -225 -225 -225 -225 -225 -225 -225 -225 -225 -225 -225 -225 -225 -225 -225 -225 -225 -225 -225 -225 -225 -225 -225 -225 -225 -225 -225 -225 -225 -225 -225 -225 -225 71 78 76 77 76 77 79 82 87 -209 -209 89 88 89 86 85 85 86 85 85 86 87 86 84 84 84 82 81 79 79 75 75 80 84 84 85 87 87 87 87 86 86 84 85 84 81 79 80 76 74 71 71 69 73 74 75 73 75 84 -193 87 85 83 84 83 83 82 -193 -193 -209 -209 0 0 0 0 0</data></disparity>
</opencv_storage>
