<?xml version="1.0"?>
<opencv_storage>
<gps_time_stamp>39443</gps_time_stamp>
<gps_x>-1.3995894432067871e+001</gps_x>
<gps_y>1.5461757183074951e+000</gps_y>
<gps_z>-4.2606477737426758e+000</gps_z>
<image_time_stamp>27364</image_time_stamp>
<disparity type_id="opencv-matrix">
  <rows>91</rows>
  <cols>320</cols>
  <dt>s</dt>
  <data>
    0 0 0 0 0 0 0 0 0 0 0 0 0 0 0 0 0 0 0 0 0 0 0 0 0 0 0 0 0 0 0 0 0 0 0 0 0 0 0 0 0 0 0 0 0 0 0 0 0 0 0 0 0 0 0 0 0 0 0 0 0 0 0 0 0 0 0 0 0 11 12 16 17 16 15 14 14 14 13 11 11 9 9 10 9 9 0 9 0 0 0 9 9 9 9 0 0 9 0 0 0 0 0 0 0 0 9 8 9 0 0 0 0 0 0 0 0 0 0 9 10 9 0 9 10 10 10 0 0 0 0 0 0 0 0 0 0 0 0 0 0 0 0 0 0 9 0 0 0 0 0 0 0 0 0 8 0 0 0 9 0 0 0 0 0 0 0 0 0 0 0 0 0 10 0 0 10 9 10 9 10 0 0 9 9 9 9 9 10 9 12 13 13 12 12 15 14 17 19 0 0 0 0 0 0 0 0 0 10 9 9 0 13 12 15 13 13 12 13 13 17 12 12 10 12 15 14 15 14 10 14 21 16 16 16 16 16 18 21 22 -209 27 30 30 32 33 25 24 22 22 18 17 17 16 13 16 16 16 10 15 14 14 14 13 16 22 24 -193 23 23 24 21 20 21 20 18 19 20 20 17 26 29 28 29 29 28 28 28 27 28 27 27 25 24 28 29 27 28 28 31 30 30 30 29 30 33 32 31 28 31 30 31 29 31 29 0 0 0 0 0
    0 0 0 0 0 0 0 0 0 0 0 0 0 0 0 0 0 0 0 0 0 0 0 0 0 0 0 0 0 0 0 0 0 0 0 0 0 0 0 0 0 0 0 0 0 0 0 0 0 0 0 0 0 0 0 0 0 0 0 0 0 0 0 0 0 0 0 0 0 -209 13 17 17 16 16 15 15 14 15 14 13 11 11 11 11 11 10 9 0 0 0 -193 9 9 9 0 0 9 0 0 0 0 0 0 0 0 9 0 9 0 0 0 0 0 0 0 0 0 0 0 9 9 0 9 10 10 10 0 0 0 0 0 0 0 0 0 0 0 0 0 0 0 0 0 0 0 0 0 0 0 0 0 0 0 0 0 0 0 0 9 0 0 0 0 0 0 0 0 0 0 0 0 0 10 9 9 -193 9 10 9 10 9 0 9 10 9 9 9 10 9 11 13 13 11 12 15 15 18 20 0 0 0 0 0 0 0 0 0 10 9 9 0 13 13 15 14 14 13 14 14 17 12 12 10 12 15 14 15 14 10 14 21 17 16 15 16 16 18 20 22 -193 27 29 29 31 32 23 23 20 21 17 17 16 16 13 16 16 16 10 15 14 14 14 13 16 23 24 23 23 23 24 21 21 21 21 18 20 20 21 19 26 29 28 29 29 28 28 29 27 28 -193 27 25 24 28 28 27 28 27 32 30 30 30 29 30 33 32 31 28 30 30 31 29 31 29 0 0 0 0 0
    0 0 0 0 0 0 0 0 0 0 0 0 0 0 0 0 0 0 0 0 0 0 0 0 0 0 0 0 0 0 0 0 0 0 0 0 0 0 0 0 0 0 0 0 0 0 0 0 0 0 0 0 0 0 0 0 0 0 0 0 0 0 0 0 0 0 0 0 0 14 14 18 18 17 16 15 15 14 16 15 14 12 12 12 12 12 11 10 0 0 0 -193 9 9 9 0 0 9 0 0 0 0 0 0 0 0 0 0 0 0 0 0 0 0 0 0 0 0 0 0 0 0 0 0 9 9 9 0 0 0 0 0 0 0 0 0 0 0 0 0 0 0 0 0 0 0 0 0 0 0 0 0 0 0 0 0 0 0 0 9 0 0 0 0 0 0 0 0 0 0 0 0 0 9 0 0 -193 9 10 9 10 0 0 9 10 9 9 0 10 9 11 13 13 11 12 14 14 14 17 0 0 0 0 0 0 0 0 0 10 9 9 0 12 13 15 14 14 13 14 14 17 12 12 10 11 15 13 15 14 10 14 22 17 16 15 16 15 17 20 21 -193 26 28 28 31 31 22 21 19 20 16 16 16 16 13 16 16 16 10 15 15 15 15 14 17 23 24 23 23 23 24 22 21 21 21 19 20 21 21 20 26 28 28 28 28 28 29 29 27 28 -193 27 25 25 28 28 27 27 27 31 30 30 29 29 30 33 32 31 28 30 30 31 29 31 29 0 0 0 0 0
    0 0 0 0 0 0 0 0 0 0 0 0 0 0 0 0 0 0 0 0 0 0 0 0 0 0 0 0 0 0 0 0 0 0 0 0 0 0 0 0 0 0 0 0 0 0 0 0 0 0 0 0 0 0 0 0 0 0 0 0 0 0 0 0 0 0 0 0 0 15 15 18 18 17 17 15 15 14 16 15 14 12 12 13 12 13 11 10 0 0 0 -193 -193 9 9 0 0 0 0 0 0 0 0 0 0 0 0 0 0 0 0 0 0 0 0 0 0 0 0 0 0 0 0 0 0 0 0 0 0 0 0 0 0 0 0 0 0 0 0 0 0 0 0 0 0 0 0 0 0 0 0 0 0 0 0 0 0 0 0 9 0 0 0 0 0 0 0 0 0 0 0 0 0 9 0 0 -193 9 10 9 10 0 0 0 9 9 9 0 9 9 11 12 13 11 12 15 14 14 16 0 0 0 0 0 0 0 0 0 10 10 10 9 12 14 16 14 15 13 15 15 18 13 12 10 11 14 13 14 13 10 14 22 17 16 14 16 15 16 19 20 -193 26 27 27 30 29 21 20 18 20 16 16 16 16 13 17 16 17 10 16 15 16 16 15 18 24 24 23 23 23 24 22 21 21 21 18 20 21 21 21 26 27 27 28 28 28 29 30 28 29 28 28 27 27 29 28 27 27 27 31 30 29 29 29 29 32 31 31 28 30 30 31 29 31 29 0 0 0 0 0
    0 0 0 0 0 0 0 0 0 0 0 0 0 0 0 0 0 0 0 0 0 0 0 0 0 0 0 0 0 0 0 0 0 0 0 0 0 0 0 0 0 0 0 0 0 0 0 0 0 0 0 0 0 0 0 0 0 0 0 0 0 0 0 0 0 0 0 0 0 16 15 18 18 17 17 15 15 14 15 15 14 12 12 12 12 13 11 10 0 0 0 -193 -193 0 0 0 0 0 0 0 0 0 0 0 0 0 0 0 0 0 0 0 0 0 0 0 0 0 0 0 0 0 0 0 0 0 0 0 0 0 0 0 0 0 0 0 0 0 0 0 0 0 0 0 0 0 0 0 0 0 0 0 0 0 0 0 0 0 9 9 0 0 0 0 0 0 0 0 0 0 0 0 0 10 9 9 10 9 10 9 10 9 0 0 9 9 9 0 9 0 11 12 12 11 12 14 14 13 15 8 0 0 9 0 0 0 0 0 11 11 10 9 12 16 16 15 16 14 15 15 18 13 11 10 11 14 13 14 13 10 14 22 18 17 13 16 14 16 17 18 12 25 24 25 27 25 19 18 17 20 16 16 16 16 13 17 16 17 10 17 16 17 17 16 20 25 25 23 23 23 -193 22 22 21 21 19 21 21 22 21 26 27 27 28 28 28 29 31 28 30 30 29 28 28 30 29 27 28 27 30 30 29 28 29 29 31 30 30 27 30 29 30 29 31 29 0 0 0 0 0
    0 0 0 0 0 0 0 0 0 0 0 0 0 0 0 0 0 0 0 0 0 0 0 0 0 0 0 0 0 0 0 0 0 0 0 0 0 0 0 0 0 0 0 0 0 0 0 0 0 0 0 0 0 0 0 0 0 0 0 0 0 0 0 0 0 0 0 0 0 16 15 17 17 17 17 16 15 14 15 15 14 12 12 12 12 12 10 9 0 0 0 -193 0 0 0 0 0 0 0 0 0 0 0 0 0 0 0 0 0 0 0 0 0 0 0 0 0 0 0 0 0 0 0 0 0 0 0 0 0 0 0 0 0 0 0 0 0 0 0 0 0 0 0 0 0 0 0 0 0 0 0 0 0 0 0 0 0 0 9 9 9 9 0 0 0 0 0 0 0 0 0 0 0 11 9 9 9 9 10 9 10 0 0 0 9 9 9 0 0 0 11 12 12 10 11 13 12 11 13 0 0 0 9 0 0 0 9 0 11 12 12 10 13 17 17 16 17 15 15 15 18 14 11 10 11 14 13 14 13 10 15 23 18 17 13 16 13 15 16 17 10 19 17 13 20 23 16 17 16 20 16 16 16 16 13 17 17 17 10 16 15 17 18 19 24 27 32 -209 -193 -193 -193 22 22 21 21 18 21 21 22 21 26 27 27 29 28 29 30 31 29 30 30 29 29 29 30 29 27 28 27 30 30 29 29 29 29 31 30 30 27 29 29 30 29 31 29 0 0 0 0 0
    0 0 0 0 0 0 0 0 0 0 0 0 0 0 0 0 0 0 0 0 0 0 0 0 0 0 0 0 0 0 0 0 0 0 0 0 0 0 0 0 0 0 0 0 0 0 0 0 0 0 0 0 0 0 0 0 0 0 0 0 0 0 0 0 0 0 0 0 0 14 14 17 17 17 17 16 15 14 15 15 13 12 12 12 11 12 10 0 0 0 0 -193 0 0 0 0 0 0 0 0 0 0 0 0 0 0 0 0 0 0 0 0 0 0 0 0 0 0 0 0 0 0 0 0 0 0 0 0 0 0 0 0 0 0 0 0 0 0 0 0 0 0 0 0 0 0 0 0 0 0 0 0 0 0 0 0 0 0 9 10 9 9 9 0 0 0 0 0 0 0 0 0 0 10 9 9 0 0 9 9 9 0 0 0 0 9 9 0 0 0 11 11 11 10 10 11 10 9 11 0 0 0 10 0 0 0 9 9 12 13 14 12 14 18 18 17 18 16 16 15 19 14 11 10 11 14 13 14 13 10 15 23 19 18 13 16 13 15 15 15 9 12 11 10 11 21 15 15 15 20 16 16 16 16 13 17 17 17 10 16 16 18 19 22 -193 30 37 51 28 -193 -193 24 23 23 22 18 22 22 22 21 26 28 27 29 28 28 30 31 29 30 31 29 29 30 30 29 27 28 28 29 30 29 29 29 29 31 29 30 27 29 29 30 30 32 29 0 0 0 0 0
    0 0 0 0 0 0 0 0 0 0 0 0 0 0 0 0 0 0 0 0 0 0 0 0 0 0 0 0 0 0 0 0 0 0 0 0 0 0 0 0 0 0 0 0 0 0 0 0 0 0 0 0 0 0 0 0 0 0 0 0 0 0 0 0 0 0 0 0 0 13 14 16 16 16 16 15 15 14 15 14 13 12 12 12 11 12 10 9 0 0 0 0 0 0 0 0 0 0 0 0 0 0 0 0 0 0 0 0 0 0 0 0 0 0 0 0 0 0 0 0 0 0 0 0 0 0 0 0 0 0 0 0 0 0 0 0 0 0 0 0 0 0 -193 0 0 0 0 0 0 0 0 0 0 0 0 0 0 0 9 10 9 9 9 0 0 0 0 0 0 0 0 0 0 9 9 9 0 0 0 9 9 0 0 0 0 9 9 0 0 8 11 11 11 10 10 11 10 9 10 0 0 0 10 0 0 0 10 10 12 15 16 13 15 18 18 17 18 17 16 15 19 15 12 11 11 14 13 15 13 11 15 23 19 18 13 16 14 15 15 15 10 12 11 10 10 20 14 15 15 19 16 16 16 16 13 18 18 17 10 19 19 20 22 -193 -193 33 38 52 35 35 -193 -193 -193 -193 24 20 24 22 23 22 26 28 27 28 28 28 30 31 29 31 32 30 30 30 30 30 28 28 28 29 30 29 29 29 29 30 29 30 28 29 29 30 30 32 29 0 0 0 0 0
    0 0 0 0 0 0 0 0 0 0 0 0 0 0 0 0 0 0 0 0 0 0 0 0 0 0 0 0 0 0 0 0 0 0 0 0 0 0 0 0 0 0 0 0 0 0 0 0 0 0 0 0 0 0 0 0 0 0 0 0 0 0 0 0 0 0 0 0 0 13 13 16 16 16 16 15 14 13 14 14 13 11 11 11 11 12 10 9 0 0 0 0 0 0 0 0 0 0 0 0 0 0 0 0 0 0 0 0 0 0 0 0 0 0 0 0 0 0 0 0 0 0 0 0 0 0 0 0 0 0 0 0 0 0 0 0 0 0 0 0 0 9 9 0 0 0 0 0 0 0 0 0 0 0 0 0 0 0 10 9 9 9 9 0 0 0 0 0 0 0 0 0 0 9 9 9 0 0 0 0 0 0 0 0 0 9 0 0 0 0 10 11 10 9 0 9 0 0 0 0 0 0 10 0 0 9 11 11 14 18 17 14 16 19 19 17 19 17 15 15 19 15 12 11 12 14 14 15 14 11 16 24 19 18 13 16 14 15 15 15 10 13 12 11 10 20 14 14 15 19 16 16 16 16 13 18 18 17 10 20 20 21 22 25 29 32 37 50 38 38 -209 -209 -193 -193 -209 21 25 24 24 24 26 28 28 29 28 29 31 34 31 33 34 32 32 32 31 30 28 29 28 28 30 29 29 30 30 31 30 30 28 30 29 30 31 32 30 0 0 0 0 0
    0 0 0 0 0 0 0 0 0 0 0 0 0 0 0 0 0 0 0 0 0 0 0 0 0 0 0 0 0 0 0 0 0 0 0 0 0 0 0 0 0 0 0 0 0 0 0 0 0 0 0 0 0 0 0 0 0 0 0 0 0 0 0 0 0 0 0 0 0 13 13 16 17 17 17 15 14 13 13 14 12 11 11 11 11 11 10 9 0 0 0 0 0 0 0 0 0 0 0 0 0 0 0 0 0 0 0 0 0 0 0 0 0 0 0 0 0 0 0 0 0 0 0 0 0 0 0 0 0 0 0 0 0 0 0 0 0 0 0 0 0 9 9 0 8 0 0 0 0 0 0 0 0 0 0 0 0 0 10 9 9 9 9 0 0 0 0 0 0 0 0 0 0 0 9 9 0 0 0 0 0 0 0 0 0 0 0 0 0 0 10 10 10 9 0 0 0 0 0 0 0 0 9 0 0 9 11 11 15 19 18 15 17 19 19 17 19 17 15 14 19 15 12 11 12 15 -193 -193 15 12 18 24 20 19 13 17 14 15 15 15 10 13 12 10 9 20 14 14 15 19 16 16 16 16 14 19 18 17 11 21 21 22 23 26 29 33 37 46 39 38 39 39 32 29 28 -193 26 25 25 25 26 28 28 31 29 32 34 37 34 35 37 33 33 33 31 30 28 29 28 28 30 29 30 32 32 33 31 32 30 32 30 30 31 33 30 0 0 0 0 0
    0 0 0 0 0 0 0 0 0 0 0 0 0 0 0 0 0 0 0 0 0 0 0 0 0 0 0 0 0 0 0 0 0 0 0 0 0 0 0 0 0 0 0 0 0 0 0 0 0 0 0 0 0 0 0 0 0 0 0 0 0 0 0 0 0 0 0 0 0 13 13 17 17 17 17 15 14 14 13 14 12 11 11 11 11 12 10 10 9 9 0 0 0 0 0 0 0 0 0 0 0 0 0 0 0 0 0 0 0 0 0 0 0 0 0 0 0 0 0 0 0 0 0 0 0 0 0 0 0 0 0 0 0 0 0 0 0 0 0 0 0 9 9 0 9 0 0 0 0 0 0 0 0 0 0 0 0 0 10 9 9 9 10 0 0 0 0 0 0 0 0 0 0 0 9 0 0 0 0 0 0 0 0 0 0 0 0 0 0 0 10 10 10 9 0 9 0 0 9 0 9 9 10 0 0 10 12 12 16 19 19 15 17 18 19 17 18 17 15 13 18 14 12 10 12 -193 -193 -193 16 12 18 24 20 19 13 16 14 15 15 15 10 12 11 10 9 20 14 14 16 20 16 17 17 17 14 19 19 18 12 23 24 24 26 31 34 36 39 44 39 39 39 39 34 31 31 -193 27 26 26 26 27 31 33 36 33 -193 38 39 37 38 38 35 34 34 31 31 28 28 28 27 30 30 33 35 35 36 34 34 32 34 31 31 32 33 30 0 0 0 0 0
    0 0 0 0 0 0 0 0 0 0 0 0 0 0 0 0 0 0 0 0 0 0 0 0 0 0 0 0 0 0 0 0 0 0 0 0 0 0 0 0 0 0 0 0 0 0 0 0 0 0 0 0 0 0 0 0 0 0 0 0 0 0 0 0 0 0 0 0 0 13 13 17 17 17 17 15 14 13 12 13 11 11 11 11 11 12 11 11 10 10 9 9 0 0 0 0 0 0 0 0 0 0 0 0 0 0 0 0 0 0 0 0 0 0 0 0 0 0 0 0 0 0 0 0 0 0 0 0 0 0 0 0 0 0 0 0 0 0 0 9 9 9 9 0 9 9 9 0 0 0 0 0 0 0 0 0 0 0 9 9 9 9 10 -177 0 0 0 0 0 0 0 0 0 0 9 9 0 0 0 0 0 0 0 0 0 0 0 0 0 0 9 10 9 9 0 10 9 10 10 10 10 11 11 9 9 11 13 12 17 19 19 16 17 18 18 17 18 16 14 13 18 14 12 10 12 1008 1008 -177 15 -193 17 24 20 19 13 16 14 15 15 15 10 13 13 12 10 22 15 16 19 21 17 18 18 18 15 20 20 18 14 -193 -193 26 32 37 38 39 40 44 40 40 40 40 36 34 34 -193 28 27 27 27 29 34 36 39 37 -193 40 40 39 39 40 36 36 34 32 32 29 30 28 27 32 31 37 37 38 38 36 36 35 35 33 32 33 33 30 0 0 0 0 0
    0 0 0 0 0 0 0 0 0 0 0 0 0 0 0 0 0 0 0 0 0 0 0 0 0 0 0 0 0 0 0 0 0 0 0 0 0 0 0 0 0 0 0 0 0 0 0 0 0 0 0 0 0 0 0 0 0 0 0 0 0 0 0 0 0 0 0 0 0 13 13 18 17 17 17 15 14 13 12 14 11 11 11 11 12 13 12 13 11 13 12 12 10 0 0 0 0 0 0 0 0 0 0 0 0 0 0 0 0 0 0 0 0 0 0 0 0 0 0 0 0 0 0 0 0 0 0 0 0 0 0 0 0 0 0 0 0 0 0 9 9 10 9 0 9 10 10 9 0 0 0 0 0 0 0 0 0 0 9 9 9 9 10 -177 0 0 0 0 0 0 0 0 8 0 9 9 0 0 0 0 0 0 0 0 0 0 0 0 0 9 9 9 9 9 9 10 10 11 11 11 11 12 11 10 9 11 13 12 17 19 19 16 17 18 18 17 18 16 14 12 18 14 12 10 12 1008 1008 -193 16 -193 18 25 20 19 13 16 14 15 16 16 10 17 17 17 20 24 19 20 22 22 19 19 20 19 18 21 21 20 -193 -193 32 28 36 39 39 40 41 45 42 41 41 41 38 37 37 32 30 29 30 29 30 36 37 40 39 47 43 43 42 42 42 38 37 36 33 33 29 30 29 27 34 32 39 38 40 41 38 -193 -193 37 36 34 34 34 31 0 0 0 0 0
    0 0 0 0 0 0 0 0 0 0 0 0 0 0 0 0 0 0 0 0 0 0 0 0 0 0 0 0 0 0 0 0 0 0 0 0 0 0 0 0 0 0 0 0 0 0 0 0 0 0 0 0 0 0 0 0 0 0 0 0 0 0 0 0 0 0 0 0 0 13 14 18 18 18 18 16 15 14 13 14 11 11 12 12 13 15 13 15 14 17 16 14 11 0 0 0 0 0 0 0 0 0 9 0 0 0 0 9 0 0 0 0 0 0 0 0 0 0 0 0 0 0 0 0 0 0 0 0 0 0 0 0 0 0 0 0 0 0 0 10 10 10 9 0 9 10 9 9 0 0 0 0 0 0 0 0 0 0 9 0 0 9 10 -177 0 0 0 0 0 0 0 0 9 0 9 0 0 0 0 0 0 0 0 0 0 0 0 9 10 10 10 11 11 11 11 12 12 12 12 12 11 13 12 10 9 11 12 12 18 18 18 16 17 17 17 17 17 16 15 12 18 14 12 11 13 1008 1008 -193 18 -193 19 25 21 19 14 16 15 15 16 17 11 20 21 21 23 26 22 22 23 23 20 21 21 21 21 23 23 23 -209 29 35 34 39 40 40 41 42 45 43 42 42 42 39 39 39 37 33 32 33 31 33 37 38 40 40 48 45 45 44 44 44 42 40 38 35 35 29 31 29 29 35 34 40 40 43 44 42 -193 -193 -193 -209 36 36 35 32 0 0 0 0 0
    0 0 0 0 0 0 0 0 0 0 0 0 0 0 0 0 0 0 0 0 0 0 0 0 0 0 0 0 0 0 0 0 0 0 0 0 0 0 0 0 0 0 0 0 0 0 0 0 0 0 0 0 0 0 0 0 0 0 0 0 0 0 0 0 0 0 0 0 0 13 14 18 17 17 17 16 15 14 13 14 13 13 15 14 16 18 17 19 18 21 20 16 13 9 0 0 0 0 0 0 0 0 9 0 0 9 0 9 9 0 0 0 0 0 0 0 0 0 0 0 0 0 0 0 0 0 0 0 0 0 0 0 0 0 0 0 0 0 0 10 10 9 9 0 9 9 9 0 0 0 0 0 0 0 0 0 0 0 -193 -193 -193 9 10 0 0 0 0 0 0 0 0 0 9 0 0 0 0 0 0 0 0 0 0 0 0 0 -209 10 13 13 12 14 13 15 13 13 13 13 13 13 12 14 12 10 10 11 12 12 17 17 18 15 17 17 17 16 17 15 15 12 18 14 11 10 13 1008 -177 -193 17 -193 19 25 21 19 14 17 15 17 18 18 13 23 24 23 26 27 24 25 25 24 22 22 23 23 -193 25 25 25 26 33 37 37 40 41 41 40 42 44 42 42 42 41 40 40 41 40 37 35 36 35 35 38 38 41 41 48 46 46 46 45 45 44 42 41 38 38 32 34 32 32 38 37 42 42 44 45 44 44 43 43 43 39 -193 37 35 0 0 0 0 0
    0 0 0 0 0 0 0 0 0 0 0 0 0 0 0 0 0 0 0 0 0 0 0 0 0 0 0 0 0 0 0 0 0 0 0 0 0 0 0 0 0 0 0 0 0 0 0 0 0 0 0 0 0 0 0 0 0 0 0 0 0 0 0 0 0 0 0 0 0 14 15 18 18 17 17 16 16 15 14 15 15 15 18 18 18 20 -193 -193 22 23 22 15 12 9 0 0 0 0 0 0 0 0 0 0 0 9 0 10 10 0 0 0 0 0 0 0 0 0 0 0 0 0 0 0 0 0 0 0 0 0 0 0 0 0 0 0 0 0 0 10 9 9 9 0 0 0 0 0 0 0 0 0 0 0 0 0 0 0 -193 -193 -193 -193 -193 -193 9 0 0 0 0 0 0 0 9 0 8 9 0 0 0 0 0 0 0 0 0 0 -209 10 15 18 17 18 17 19 16 15 14 14 13 14 13 14 12 11 10 12 12 11 17 15 17 15 16 16 17 16 17 14 15 12 18 13 11 10 12 1008 -177 -193 16 -193 17 24 20 18 14 17 16 18 19 19 14 25 26 25 28 29 31 30 29 28 25 25 26 25 -193 28 28 28 29 36 38 38 41 41 41 41 42 43 42 42 42 41 40 41 41 41 39 39 38 38 37 39 39 41 41 47 46 47 46 46 46 45 44 43 41 41 37 38 37 37 41 40 44 44 45 46 46 46 45 45 45 41 -193 39 37 0 0 0 0 0
    0 0 0 0 0 0 0 0 0 0 0 0 0 0 0 0 0 0 0 0 0 0 0 0 0 0 0 0 0 0 0 0 0 0 0 0 0 0 0 0 0 0 0 0 0 0 0 0 0 0 0 0 0 0 0 0 0 0 0 0 0 0 0 0 0 0 0 0 0 16 15 18 18 18 17 16 16 16 14 15 15 16 19 19 20 -193 -177 -193 -209 -193 -193 13 11 0 0 0 0 0 0 0 0 0 0 0 0 10 9 11 10 0 0 0 0 0 0 0 0 0 0 0 0 0 0 0 0 0 0 0 0 0 0 0 0 0 0 0 0 0 0 9 9 9 0 0 0 0 0 0 0 0 0 0 0 0 0 0 0 0 -193 -193 -193 -193 -193 -193 9 0 0 0 0 0 0 0 10 0 9 10 0 0 0 0 0 0 0 0 0 0 -209 11 17 21 21 21 20 21 18 16 14 15 14 14 13 15 12 12 11 12 11 12 18 15 16 15 15 16 16 16 17 14 15 12 16 13 11 11 12 1008 -177 -193 16 -193 17 24 19 18 15 18 17 19 19 20 15 25 27 27 29 30 34 34 32 32 28 28 29 28 30 31 31 31 33 39 39 40 42 41 41 41 42 43 41 41 41 40 39 40 41 41 39 39 39 39 38 39 39 41 42 47 46 47 47 46 46 46 44 43 42 42 39 40 39 40 42 41 44 44 46 46 47 46 46 45 46 43 43 40 39 0 0 0 0 0
    0 0 0 0 0 0 0 0 0 0 0 0 0 0 0 0 0 0 0 0 0 0 0 0 0 0 0 0 0 0 0 0 0 0 0 0 0 0 0 0 0 0 0 0 0 0 0 0 0 0 0 0 0 0 0 0 0 0 0 0 0 0 0 0 0 0 0 0 0 17 15 18 18 17 17 16 16 16 14 16 17 18 21 21 22 -193 -177 -193 -209 -209 -193 -177 -209 0 0 0 0 0 0 0 0 0 0 0 9 10 10 11 11 0 0 0 0 0 0 0 0 0 0 0 0 0 0 0 0 0 0 0 0 0 0 0 0 0 0 0 0 0 0 9 9 0 0 0 0 0 0 0 0 0 0 0 0 0 0 0 0 0 -193 -193 -193 -193 -193 -193 9 9 9 0 0 0 0 0 10 0 9 10 0 0 0 0 0 0 0 0 0 0 9 12 20 24 24 24 22 22 20 18 15 15 14 14 13 15 12 12 12 13 12 12 18 14 16 15 14 15 16 16 16 13 15 12 15 13 11 12 12 -193 -193 18 16 14 17 23 19 18 15 18 17 19 20 21 17 26 28 28 29 31 34 35 34 34 31 31 32 32 35 35 34 35 36 40 40 41 43 42 42 42 42 43 41 41 41 39 40 41 41 41 40 40 40 40 39 40 40 41 42 46 46 47 47 46 47 46 44 43 42 42 41 41 41 41 42 42 44 44 45 45 45 45 45 45 45 44 44 42 41 0 0 0 0 0
    0 0 0 0 0 0 0 0 0 0 0 0 0 0 0 0 0 0 0 0 0 0 0 0 0 0 0 0 0 0 0 0 0 0 0 0 0 0 0 0 0 0 0 0 0 0 0 0 0 0 0 0 0 0 0 0 0 0 0 0 0 0 0 0 0 0 0 0 0 18 15 18 18 17 17 16 16 16 16 18 19 20 22 23 24 -193 -193 -193 -193 -193 -209 -193 -193 9 0 0 0 0 0 0 0 0 0 0 9 10 9 10 9 0 0 0 0 0 0 0 0 0 0 0 0 0 0 0 0 0 0 0 0 0 0 0 0 0 9 0 0 0 0 9 9 0 0 0 0 0 0 0 0 0 0 0 0 0 0 0 0 0 -193 -209 -209 -193 -193 -193 10 9 9 0 9 9 9 0 11 0 9 11 0 0 0 -193 -193 0 0 0 0 9 10 14 22 25 26 26 24 24 21 19 16 16 15 14 13 15 13 13 12 13 12 12 18 14 15 15 14 15 16 17 16 13 16 13 15 14 12 13 12 15 15 18 16 15 17 23 18 17 16 19 18 20 21 22 19 26 29 30 29 31 34 36 34 35 33 34 34 35 37 37 36 37 37 41 41 41 43 42 42 42 43 43 42 42 41 39 41 42 43 43 41 41 41 41 41 40 40 42 43 46 47 47 47 47 47 46 45 44 43 43 42 42 42 42 43 43 44 44 44 44 45 44 45 45 45 45 45 45 44 0 0 0 0 0
    0 0 0 0 0 0 0 0 0 0 0 0 0 0 0 0 0 0 0 0 0 0 0 0 0 0 0 0 0 0 0 0 0 0 0 0 0 0 0 0 0 0 0 0 0 0 0 0 0 0 0 0 0 0 0 0 0 0 0 0 0 0 0 0 0 0 0 0 0 18 14 17 18 17 17 17 17 18 17 20 21 22 25 26 26 28 30 31 31 30 30 -193 15 12 0 0 0 0 0 9 10 10 9 0 9 9 9 9 0 0 0 0 0 0 0 0 0 0 0 0 0 0 0 0 0 0 0 0 0 0 0 0 0 0 9 0 0 0 0 9 9 0 0 0 0 0 0 0 0 0 0 0 0 0 0 0 0 0 10 -193 -209 -209 -193 -193 10 9 9 0 9 9 9 0 11 9 9 12 0 0 -193 -193 -193 0 0 0 0 9 11 15 25 26 27 28 25 25 22 20 17 16 15 14 13 15 13 13 13 13 12 12 18 14 15 15 13 15 16 17 16 13 16 14 14 14 13 14 13 15 15 18 17 16 17 22 17 17 17 20 18 21 22 23 -193 27 29 31 29 32 34 36 35 36 34 35 35 36 37 37 37 38 38 41 41 41 43 -193 42 -193 43 44 42 42 42 40 42 45 44 45 42 42 42 42 41 41 41 42 43 46 47 47 47 47 48 47 46 44 44 44 44 43 43 43 43 44 44 44 44 44 45 45 45 45 45 46 46 47 46 0 0 0 0 0
    0 0 0 0 0 0 0 0 0 0 0 0 0 0 0 0 0 0 0 0 0 0 0 0 0 0 0 0 0 0 0 0 0 0 0 0 0 0 0 0 0 0 0 0 0 0 0 0 0 0 0 0 0 0 0 0 0 0 0 0 0 0 0 0 0 0 0 0 0 19 14 17 18 17 18 18 19 20 19 22 24 24 27 28 28 30 31 33 34 32 31 22 17 14 10 9 9 9 0 10 11 10 9 9 10 10 9 10 9 0 0 0 0 0 0 0 0 0 0 0 0 0 0 0 0 0 0 0 0 0 0 0 0 0 9 0 0 0 0 0 9 0 0 0 0 0 0 0 0 0 -193 -193 -193 0 0 0 0 0 -193 -193 -193 -193 -209 -193 10 9 9 0 10 13 13 11 12 9 10 14 9 9 -193 -193 -193 0 0 0 0 10 15 19 26 28 30 31 29 27 24 20 18 17 15 14 13 15 13 13 13 13 12 12 18 14 15 16 13 15 16 18 16 14 17 14 14 15 13 15 13 15 16 18 18 17 18 22 17 17 18 20 19 21 22 -193 -177 27 29 31 29 32 34 36 35 36 36 36 36 37 38 38 37 38 39 41 41 41 43 -193 -193 -193 42 43 42 42 42 38 42 47 46 46 43 43 42 43 42 42 41 42 43 46 47 47 48 48 48 47 46 45 44 45 45 44 44 44 44 45 44 45 44 44 45 45 46 46 45 46 46 47 48 0 0 0 0 0
    0 0 0 0 0 0 0 0 0 0 0 0 0 0 0 0 0 0 0 0 0 0 0 0 0 0 0 0 0 0 0 0 0 0 0 0 0 0 0 0 0 0 0 0 0 0 0 0 0 0 0 0 0 0 0 0 0 0 0 0 0 0 0 0 0 0 0 0 0 19 14 17 18 18 19 19 20 21 21 23 26 26 28 30 30 31 33 34 35 32 32 16 12 12 9 10 9 10 9 11 11 11 10 9 10 11 10 11 10 9 0 0 0 0 0 0 0 0 0 0 0 0 0 0 0 0 0 0 0 0 0 0 0 0 9 0 0 0 0 9 9 9 0 0 0 0 0 0 0 -209 -193 -193 -193 27 -209 11 -193 -193 -193 9 -193 -193 -193 9 10 -193 10 -193 14 25 23 21 20 12 11 16 10 10 10 -193 -193 0 9 10 0 12 20 23 27 30 32 34 33 30 25 21 19 17 15 14 13 15 12 14 13 13 12 13 18 15 15 16 13 15 16 18 16 14 18 15 14 15 14 16 13 16 16 18 18 17 18 21 16 17 18 20 19 22 22 -193 -177 27 29 31 28 32 35 37 36 37 37 37 37 38 -193 39 38 39 39 -193 -193 41 44 -193 -193 -193 42 43 41 41 41 34 42 47 46 47 44 44 43 43 43 42 42 43 43 45 47 47 47 47 48 46 46 45 44 45 45 45 45 44 44 45 45 45 44 44 45 45 46 46 45 46 46 46 47 0 0 0 0 0
    0 0 0 0 0 0 0 0 0 0 0 0 0 0 0 0 0 0 0 0 0 0 0 0 0 0 0 0 0 0 0 0 0 0 0 0 0 0 0 0 0 0 0 0 0 0 0 0 0 0 0 0 0 0 0 0 0 0 0 0 0 0 0 0 0 0 0 0 0 19 14 17 18 18 19 -193 21 22 22 25 27 27 29 30 29 30 32 33 35 32 33 -193 20 21 0 10 9 11 10 11 12 12 11 10 12 13 13 16 16 18 11 9 12 12 12 0 0 0 0 0 0 0 0 0 0 0 0 0 0 0 0 0 9 9 10 9 0 0 9 9 9 9 0 0 0 0 0 -193 -193 27 36 29 32 28 26 22 17 -193 -193 10 9 9 9 10 12 12 13 14 23 27 26 -193 -193 16 13 17 10 11 11 10 9 9 10 12 9 14 22 25 28 31 34 35 34 32 27 22 19 18 16 14 13 15 12 13 12 13 11 12 18 14 15 16 13 15 16 19 17 14 18 15 14 15 14 17 13 16 16 18 17 17 18 20 15 16 18 20 19 22 23 -193 -177 27 29 32 29 33 36 38 36 37 37 37 37 38 -193 -193 -193 -193 39 -193 -193 41 43 -193 -193 -193 42 43 41 41 41 33 42 46 46 46 44 44 44 44 43 43 43 43 43 45 47 47 47 47 48 46 46 45 45 46 46 46 46 45 45 45 45 45 44 44 44 44 45 46 45 47 46 47 48 0 0 0 0 0
    0 0 0 0 0 0 0 0 0 0 0 0 0 0 0 0 0 0 0 0 0 0 0 0 0 0 0 0 0 0 0 0 0 0 0 0 0 0 0 0 0 0 0 0 0 0 0 0 0 0 0 0 0 0 0 0 0 0 0 0 0 0 0 0 0 0 0 0 0 19 14 17 19 19 -193 -193 -193 23 23 26 28 28 30 30 29 31 32 33 34 33 33 29 27 28 25 17 11 13 11 13 14 14 13 12 14 18 18 22 23 25 25 17 24 22 22 0 0 0 0 0 0 0 -193 -193 0 0 0 0 0 0 0 0 9 10 12 11 10 10 12 12 13 13 11 10 0 15 -193 -193 -193 29 36 31 32 29 28 26 24 23 22 12 10 10 10 11 15 16 17 22 26 29 28 27 -193 19 13 16 10 11 11 10 10 9 11 13 10 18 23 26 29 31 33 35 34 32 27 -193 21 19 17 14 14 15 12 13 13 13 12 12 18 14 15 17 13 16 16 19 17 14 18 16 14 16 15 18 13 16 16 18 18 18 18 20 14 16 18 20 -193 -193 -193 -193 -177 27 29 31 28 33 35 37 36 37 37 37 37 39 -193 -193 -193 -193 40 -193 -193 41 43 -193 42 42 42 42 41 41 41 34 42 45 45 46 44 45 44 44 43 43 43 44 44 45 47 47 47 48 48 46 46 45 45 46 47 46 46 45 45 -193 45 45 44 44 44 44 45 46 46 47 47 47 49 0 0 0 0 0
    0 0 0 0 0 0 0 0 0 0 0 0 0 0 0 0 0 0 0 0 0 0 0 0 0 0 0 0 0 0 0 0 0 0 0 0 0 0 0 0 0 0 0 0 0 0 0 0 0 0 0 0 0 0 0 0 0 0 0 0 0 0 0 0 0 0 0 0 0 19 14 17 -193 20 -193 191 -193 24 25 29 31 31 32 30 30 32 33 33 34 33 32 31 30 30 27 25 17 17 15 16 18 17 16 15 17 22 22 25 26 27 27 24 26 26 25 -193 0 11 0 0 0 -193 -193 -193 -193 0 0 0 0 0 0 0 9 12 17 16 15 16 19 21 23 23 23 20 -193 26 28 28 28 30 36 32 32 30 29 28 26 26 25 15 11 11 11 12 18 21 21 26 28 31 30 29 26 21 14 16 9 10 10 9 10 9 11 15 12 23 25 27 31 32 33 35 35 32 30 -193 22 20 18 15 14 14 12 12 12 12 12 12 18 14 15 17 14 16 16 19 17 14 19 16 14 16 16 19 14 17 17 19 19 -177 -177 20 14 16 19 21 143 143 144 -177 -177 28 29 31 28 33 35 37 35 37 37 38 37 39 -209 -193 -177 -177 -193 -193 -193 41 43 -193 42 42 42 42 40 41 41 34 41 45 45 46 45 45 44 44 44 44 44 45 44 46 47 47 47 47 48 46 46 45 45 46 46 46 46 45 44 -193 45 45 44 44 45 45 45 46 46 48 48 48 50 0 0 0 0 0
    0 0 0 0 0 0 0 0 0 0 0 0 0 0 0 0 0 0 0 0 0 0 0 0 0 0 0 0 0 0 0 0 0 0 0 0 0 0 0 0 0 0 0 0 0 0 0 0 0 0 0 0 0 0 0 0 0 0 0 0 0 0 0 0 0 0 0 0 0 18 14 -193 -193 -193 191 190 -193 27 28 32 35 35 35 34 34 35 35 35 36 34 34 34 34 32 29 27 24 22 19 20 21 20 20 19 20 -193 -193 28 28 30 30 26 28 28 28 29 20 27 -193 9 19 -193 -193 -193 -193 -193 0 0 0 0 0 0 9 16 23 22 24 25 25 25 26 26 26 25 27 27 30 29 29 31 35 32 32 31 30 29 28 27 26 20 15 14 15 16 22 25 25 28 31 34 33 32 27 -209 -193 -193 -209 -193 -209 9 10 10 12 20 22 26 27 28 32 33 33 35 35 33 32 -209 -193 21 19 16 14 14 11 11 12 12 11 11 17 14 15 17 14 16 16 19 17 15 19 17 14 -193 17 20 15 18 18 20 19 -177 -177 20 14 -193 19 21 142 142 143 -177 -193 29 30 31 28 33 34 36 34 36 37 38 37 39 -209 -177 387 -193 -209 -193 -193 41 43 -193 42 42 42 41 40 41 41 33 41 45 45 46 45 46 45 45 44 45 44 45 44 46 46 47 47 47 48 46 46 45 45 46 46 46 46 44 -193 -193 45 46 45 45 45 45 46 47 47 48 48 48 49 0 0 0 0 0
    0 0 0 0 0 0 0 0 0 0 0 0 0 0 0 0 0 0 0 0 0 0 0 0 0 0 0 0 0 0 0 0 0 0 0 0 0 0 0 0 0 0 0 0 0 0 0 0 0 0 0 0 0 0 0 0 0 0 0 0 0 0 0 0 0 0 0 0 0 19 14 -193 -193 -193 190 190 -193 31 32 35 37 37 37 36 37 37 36 36 37 35 35 35 35 33 30 29 26 24 22 23 23 22 23 23 24 -193 -193 31 30 31 32 29 31 32 31 34 30 36 35 24 26 -193 -193 -193 -193 0 0 0 0 0 0 0 9 17 25 25 27 27 27 27 28 28 28 27 28 27 31 30 30 32 34 33 32 32 32 31 29 29 28 24 22 20 22 23 25 27 27 31 33 35 35 34 -193 -209 266 -209 -193 -209 -193 -209 -209 -193 -193 -209 27 29 30 29 33 34 33 34 34 33 32 32 26 23 21 18 15 14 11 11 12 11 11 11 16 13 14 17 14 15 17 19 17 15 19 17 14 17 18 20 16 19 19 21 20 -177 -177 20 14 16 19 21 142 142 144 -177 -193 29 30 31 28 32 34 36 34 36 37 38 38 39 -209 -193 -177 -193 -193 41 41 42 43 -193 42 42 42 41 40 40 40 32 40 44 45 47 46 47 45 45 45 45 44 45 44 45 46 47 47 47 48 46 46 46 45 46 -193 -193 46 -193 -193 191 -193 -193 46 46 46 45 46 48 47 48 48 48 49 0 0 0 0 0
    0 0 0 0 0 0 0 0 0 0 0 0 0 0 0 0 0 0 0 0 0 0 0 0 0 0 0 0 0 0 0 0 0 0 0 0 0 0 0 0 0 0 0 0 0 0 0 0 0 0 0 0 0 0 0 0 0 0 0 0 0 0 0 0 0 0 0 0 0 19 15 -193 -193 22 -193 -193 31 36 36 36 38 38 38 37 38 37 37 36 37 36 36 36 36 34 32 29 27 25 25 25 25 25 27 28 30 33 31 33 32 33 32 32 34 34 34 36 37 39 38 31 31 -193 -193 -209 -209 0 0 0 0 0 0 0 9 20 26 27 31 29 29 29 29 30 30 29 29 28 31 31 31 33 34 34 34 34 34 33 31 31 29 26 26 24 25 26 27 30 29 33 35 36 35 33 -209 -209 -177 -193 -177 -193 -209 -193 -177 -193 -209 30 32 33 32 31 33 34 34 34 34 32 31 32 27 25 23 20 16 14 11 10 11 11 10 10 16 13 14 16 14 15 17 19 17 15 19 17 15 17 18 20 16 20 19 21 20 -177 -177 19 14 16 19 20 142 142 144 -177 -193 29 30 31 28 32 34 35 33 36 37 38 38 39 39 39 -193 -209 41 41 41 42 43 -193 42 42 42 41 40 40 40 31 40 44 45 48 47 48 46 46 46 46 44 46 44 45 46 46 46 47 48 46 46 46 45 46 -193 46 46 44 -193 -193 46 47 -193 47 46 46 47 48 47 48 48 48 48 0 0 0 0 0
    0 0 0 0 0 0 0 0 0 0 0 0 0 0 0 0 0 0 0 0 0 0 0 0 0 0 0 0 0 0 0 0 0 0 0 0 0 0 0 0 0 0 0 0 0 0 0 0 0 0 0 0 0 0 0 0 0 0 0 0 0 0 0 0 0 0 0 0 0 19 16 -193 -193 23 30 -193 35 37 37 38 39 39 39 39 39 39 38 38 38 37 37 38 37 34 32 29 27 26 27 28 28 29 31 30 33 35 33 33 33 33 33 34 36 35 35 37 39 40 39 35 35 32 28 -209 -209 -193 0 0 0 0 0 0 -193 -209 27 29 34 32 32 32 32 32 31 30 30 28 31 32 32 34 34 34 34 35 35 35 32 32 31 28 28 27 28 28 28 32 30 34 35 35 33 31 -209 -209 -193 -193 -177 -193 -209 -209 -209 -209 -209 38 37 35 35 32 33 34 34 33 33 32 32 32 29 28 25 23 18 14 11 10 11 10 10 10 16 13 14 16 14 15 17 19 17 15 19 18 15 18 19 21 17 20 20 21 20 20 21 19 14 16 18 20 142 142 145 -177 -193 29 29 30 28 31 33 35 33 36 37 38 38 39 39 39 39 41 41 41 41 42 43 41 42 41 42 40 40 40 40 33 41 45 46 48 48 49 47 47 47 47 45 46 43 45 46 46 46 46 47 46 46 46 45 46 46 46 46 45 -193 -193 45 47 47 47 46 46 47 49 48 49 49 48 49 0 0 0 0 0
    0 0 0 0 0 0 0 0 0 0 0 0 0 0 0 0 0 0 0 0 0 0 0 0 0 0 0 0 0 0 0 0 0 0 0 0 0 0 0 0 0 0 0 0 0 0 0 0 0 0 0 0 0 0 0 0 0 0 0 0 0 0 0 0 0 0 0 0 0 19 17 -193 -193 24 34 35 37 38 39 39 40 39 39 40 40 40 40 38 39 38 38 39 38 34 31 28 26 26 27 27 29 29 31 31 34 35 34 34 34 33 34 35 37 36 36 38 39 40 40 37 37 35 29 -209 -177 -193 -193 0 0 0 0 -193 -209 -193 -193 31 36 34 34 35 34 34 33 32 31 28 30 31 31 33 33 34 34 36 37 36 34 35 34 32 33 31 32 31 30 33 31 34 35 34 32 30 26 -209 -209 -209 -209 -209 -209 -193 -209 -177 -209 41 39 38 37 34 35 35 35 34 35 33 33 35 32 31 30 25 22 14 11 9 11 10 10 10 15 13 14 16 14 15 17 19 17 16 20 18 16 18 20 21 18 21 21 22 21 21 -177 19 14 16 18 20 -193 142 145 -177 -193 29 29 30 29 31 33 35 32 36 37 38 37 38 39 39 39 40 40 40 41 42 43 41 42 41 42 40 40 40 40 35 41 45 46 49 48 49 47 47 47 47 45 46 43 44 45 46 46 46 47 46 46 46 46 46 46 46 47 45 -193 -193 45 47 47 47 47 47 48 50 49 50 50 49 50 0 0 0 0 0
    0 0 0 0 0 0 0 0 0 0 0 0 0 0 0 0 0 0 0 0 0 0 0 0 0 0 0 0 0 0 0 0 0 0 0 0 0 0 0 0 0 0 0 0 0 0 0 0 0 0 0 0 0 0 0 0 0 0 0 0 0 0 0 0 0 0 0 0 0 22 20 -209 -209 27 36 36 38 39 39 39 39 39 39 39 40 40 40 39 39 38 38 39 38 34 31 28 26 26 26 28 29 30 32 32 35 36 34 34 34 34 34 35 37 35 35 36 38 39 39 38 38 -193 -193 -209 -193 -209 0 0 0 0 0 -193 -193 -209 30 32 36 35 35 36 35 35 34 33 32 29 30 31 31 33 33 35 34 36 37 37 35 36 35 35 35 35 34 34 32 34 32 34 35 33 31 29 -193 -177 -193 -177 -193 -209 -209 -209 -209 -193 -209 42 40 39 38 35 35 35 35 34 35 34 34 36 35 34 35 31 27 15 12 9 11 10 10 9 15 12 13 15 15 15 17 19 18 16 20 19 16 19 20 22 19 22 22 23 21 21 22 -177 14 16 18 20 -193 -193 145 144 -193 30 29 30 29 31 33 34 32 35 36 38 37 37 38 38 38 40 40 40 40 41 43 41 42 42 42 40 40 40 40 35 40 44 45 48 47 49 47 47 47 47 44 46 43 43 45 45 45 45 46 46 46 -193 -193 46 -193 46 46 45 -193 44 46 47 47 48 48 47 48 50 49 50 50 50 50 0 0 0 0 0
    0 0 0 0 0 0 0 0 0 0 0 0 0 0 0 0 0 0 0 0 0 0 0 0 0 0 0 0 0 0 0 0 0 0 0 0 0 0 0 0 0 0 0 0 0 0 0 0 0 0 0 0 0 0 0 0 0 0 0 0 0 0 0 0 0 0 0 0 0 28 25 30 35 31 37 36 37 38 38 39 39 39 40 40 41 41 41 40 39 39 38 38 36 31 29 26 24 26 27 29 30 31 32 33 35 36 34 34 33 34 34 35 36 34 36 36 38 39 39 38 38 -193 -193 -193 -193 -209 -193 0 0 0 0 -193 -209 -209 31 33 36 35 35 36 35 35 34 33 33 30 31 33 32 34 33 36 36 37 38 37 35 36 36 36 35 35 35 34 32 35 33 34 35 32 31 30 27 -177 -209 -193 -209 -193 -209 -209 -193 -193 -209 42 41 39 38 36 35 35 35 35 35 34 35 37 36 36 37 36 32 15 13 10 12 11 11 10 15 12 14 16 15 14 17 19 18 17 20 19 17 20 21 22 21 23 23 24 22 22 23 -177 15 16 19 20 -193 -193 146 145 -193 30 30 30 29 31 33 34 31 35 35 37 36 37 38 37 38 39 39 39 40 41 43 42 42 42 42 40 40 40 39 35 39 42 43 46 47 48 47 46 47 46 44 45 42 43 44 45 44 44 45 45 45 -193 -193 45 -193 46 46 45 46 44 46 47 47 48 49 47 48 50 49 49 49 49 48 0 0 0 0 0
    0 0 0 0 0 0 0 0 0 0 0 0 0 0 0 0 0 0 0 0 0 0 0 0 0 0 0 0 0 0 0 0 0 0 0 0 0 0 0 0 0 0 0 0 0 0 0 0 0 0 0 0 0 0 0 0 0 0 0 0 0 0 0 0 0 0 0 0 0 35 32 36 37 35 37 36 37 38 38 39 39 39 39 40 41 41 41 41 40 39 39 39 36 29 27 24 23 25 27 29 30 31 33 33 35 35 34 34 33 34 34 36 36 35 37 37 39 38 38 38 38 -193 -177 -177 -177 -193 -193 0 0 0 0 -193 -193 -177 32 33 36 35 35 36 35 35 35 33 33 32 32 33 33 35 34 37 37 38 39 37 36 36 36 36 36 35 35 -193 33 35 34 34 36 32 31 30 28 -193 -209 -193 -209 -193 -209 -209 -209 -193 -209 42 41 40 39 36 35 35 36 35 36 35 36 37 37 38 38 38 36 20 -209 10 14 12 11 10 16 13 14 16 15 14 17 19 18 17 21 19 18 21 22 23 23 25 25 25 24 24 24 -177 16 17 19 20 -193 -193 147 146 -193 31 30 31 30 32 33 34 32 35 34 36 35 36 37 37 37 39 39 40 40 42 43 42 42 42 43 41 40 40 39 36 39 41 43 45 46 47 46 46 46 46 44 45 42 43 44 44 44 44 45 45 45 -193 46 45 46 46 46 45 47 45 46 48 48 49 49 47 48 49 48 49 48 48 47 0 0 0 0 0
    0 0 0 0 0 0 0 0 0 0 0 0 0 0 0 0 0 0 0 0 0 0 0 0 0 0 0 0 0 0 0 0 0 0 0 0 0 0 0 0 0 0 0 0 0 0 0 0 0 0 0 0 0 0 0 0 0 0 0 0 0 0 0 0 0 0 0 0 0 35 32 36 37 35 37 36 37 37 38 38 38 38 39 40 41 41 41 41 41 40 39 39 34 27 26 21 21 25 27 30 30 32 34 33 34 35 33 33 32 32 33 35 35 36 38 38 39 38 38 38 39 -193 -177 -177 -177 -177 -193 0 0 -193 -193 -209 -193 -177 32 34 35 35 35 36 36 36 35 35 35 34 33 36 35 35 35 37 37 38 39 37 36 36 37 37 35 35 -193 -193 32 34 33 33 35 31 31 29 28 -193 -209 -209 -209 -209 -209 -209 -209 -209 -177 -193 40 40 39 36 35 35 36 36 36 35 36 37 38 38 38 39 37 34 -193 18 19 15 13 10 18 14 16 17 15 13 18 19 19 18 21 20 20 22 23 25 25 26 27 27 25 25 25 -177 17 18 19 20 17 -193 148 147 26 32 31 32 32 33 34 34 32 34 33 35 34 34 37 37 37 38 39 40 41 42 43 42 42 43 44 41 41 41 39 36 39 41 43 44 46 46 45 45 45 45 43 44 42 42 43 44 43 43 44 44 45 -193 46 45 46 46 46 46 47 45 47 49 48 50 49 47 48 49 48 48 47 48 46 0 0 0 0 0
    0 0 0 0 0 0 0 0 0 0 0 0 0 0 0 0 0 0 0 0 0 0 0 0 0 0 0 0 0 0 0 0 0 0 0 0 0 0 0 0 0 0 0 0 0 0 0 0 0 0 0 0 0 0 0 0 0 0 0 0 0 0 0 0 0 0 0 0 0 36 34 37 38 36 37 36 36 36 37 38 38 38 39 40 40 40 41 41 40 39 38 38 29 26 26 19 21 25 28 31 31 32 33 32 34 34 32 32 31 31 33 35 36 37 38 38 39 38 39 39 39 -193 -209 -193 -177 -177 -209 -209 -209 -209 -209 -193 -193 -193 34 35 36 36 36 37 37 37 37 36 36 35 34 37 36 36 36 38 38 38 39 38 37 37 37 37 36 36 36 -193 35 36 35 33 35 31 30 28 28 31 -209 -209 -209 -209 -209 -209 -209 -209 -209 41 41 40 39 37 36 36 36 36 36 36 36 37 38 38 39 39 39 39 41 39 24 23 21 21 23 17 18 17 16 14 19 19 19 19 22 21 22 23 24 25 27 27 29 28 26 25 25 21 18 18 19 19 16 19 -193 -193 26 32 32 34 34 34 36 34 32 33 33 33 32 32 36 36 37 37 38 39 41 42 43 42 43 43 44 41 41 41 39 36 39 40 42 43 45 46 45 45 45 45 43 43 42 42 43 43 43 43 44 -193 -193 -193 46 45 45 46 46 46 47 45 47 49 47 50 49 47 48 49 47 48 47 48 46 0 0 0 0 0
    0 0 0 0 0 0 0 0 0 0 0 0 0 0 0 0 0 0 0 0 0 0 0 0 0 0 0 0 0 0 0 0 0 0 0 0 0 0 0 0 0 0 0 0 0 0 0 0 0 0 0 0 0 0 0 0 0 0 0 0 0 0 0 0 0 0 0 0 0 37 36 38 38 36 36 35 36 36 36 37 38 38 39 40 40 40 41 40 40 39 38 38 29 26 26 18 21 26 29 31 31 32 32 31 34 34 32 31 31 31 33 36 37 37 38 38 39 38 40 40 40 41 -209 -209 -193 -193 -209 -209 -209 -209 -209 -177 -209 35 36 37 37 38 37 38 38 38 38 37 37 37 35 39 38 38 38 39 39 39 40 38 38 37 38 38 37 38 38 -193 38 37 36 33 35 31 30 28 29 31 29 -193 -209 -209 -209 -209 -209 -177 -209 40 41 40 40 38 36 36 36 37 37 36 36 38 38 39 40 40 40 41 41 41 32 34 34 36 36 33 28 23 22 20 21 21 21 21 24 23 24 23 27 25 28 27 31 30 28 26 26 22 20 19 19 17 14 16 -193 -193 25 34 35 38 39 36 38 34 34 33 34 33 31 29 34 34 35 36 37 38 39 41 43 42 42 43 44 41 41 41 39 36 38 40 42 42 45 46 45 45 45 45 43 43 42 42 42 43 42 43 43 -193 -193 -193 -193 44 45 45 45 45 45 44 45 47 46 49 49 47 47 48 47 48 47 48 46 0 0 0 0 0
    0 0 0 0 0 0 0 0 0 0 0 0 0 0 0 0 0 0 0 0 0 0 0 0 0 0 0 0 0 0 0 0 0 0 0 0 0 0 0 0 0 0 0 0 0 0 0 0 0 0 0 0 0 0 0 0 0 0 0 0 0 0 0 0 0 0 0 0 0 38 37 38 38 37 36 35 36 35 37 38 38 38 39 40 41 41 41 41 41 40 38 39 30 27 27 21 23 28 30 33 32 32 33 31 33 34 31 31 31 30 35 37 37 38 39 39 39 39 40 41 42 43 42 -193 -209 -209 -209 -209 -209 -209 -209 -209 32 37 38 39 38 39 39 39 40 39 39 39 39 39 37 40 40 39 39 39 39 39 39 37 37 36 37 37 35 38 38 38 40 38 37 33 36 32 31 29 30 32 32 -193 -193 -209 -209 -209 -209 -193 -193 39 39 40 39 38 37 36 36 37 37 37 37 38 39 40 41 41 41 42 41 41 34 36 37 38 38 38 39 37 39 40 -193 35 28 28 31 30 30 27 35 30 38 32 37 35 34 31 30 26 25 22 22 13 10 11 16 -193 -209 40 38 42 44 37 38 34 34 32 34 32 31 29 32 33 33 34 36 36 37 40 42 42 42 43 43 41 41 41 39 37 38 39 41 -209 45 45 45 45 45 45 43 43 42 42 42 42 42 43 43 -193 -193 -193 -193 44 45 45 45 44 45 43 44 46 45 48 48 46 46 47 46 48 47 49 46 0 0 0 0 0
    0 0 0 0 0 0 0 0 0 0 0 0 0 0 0 0 0 0 0 0 0 0 0 0 0 0 0 0 0 0 0 0 0 0 0 0 0 0 0 0 0 0 0 0 0 0 0 0 0 0 0 0 0 0 0 0 0 0 0 0 0 0 0 0 0 0 0 0 0 37 37 38 38 37 36 35 36 36 37 39 39 39 39 40 41 40 40 40 40 38 36 38 30 27 30 26 25 29 32 34 33 33 34 32 34 34 32 32 31 31 36 37 37 38 39 39 39 40 41 42 44 45 44 47 46 47 -193 -209 -209 -209 -193 -209 39 40 40 41 41 41 41 42 42 41 41 41 41 41 39 41 41 39 39 39 39 38 38 37 36 35 36 36 34 39 39 39 41 40 39 36 37 34 33 32 32 34 34 -193 -193 33 -209 -209 -209 -209 36 37 39 40 39 38 37 36 37 38 38 38 38 40 40 41 42 43 41 42 40 39 33 35 36 37 37 38 38 37 39 39 40 37 33 30 31 31 32 28 35 34 40 38 41 38 36 36 38 39 40 -193 -193 -193 -193 -193 57 56 51 53 -209 42 -193 -193 37 31 32 31 32 32 31 29 33 33 33 34 36 36 37 40 42 42 42 43 43 41 41 41 39 37 38 39 41 -209 45 45 44 44 44 44 43 43 42 42 42 42 43 -193 43 -193 -193 -193 -193 44 44 44 44 43 44 43 44 46 44 48 48 46 46 47 46 47 46 48 45 0 0 0 0 0
    0 0 0 0 0 0 0 0 0 0 0 0 0 0 0 0 0 0 0 0 0 0 0 0 0 0 0 0 0 0 0 0 0 0 0 0 0 0 0 0 0 0 0 0 0 0 0 0 0 0 0 0 0 0 0 0 0 0 0 0 0 0 0 0 0 0 0 0 0 37 37 38 38 37 35 36 37 37 39 40 40 40 40 41 41 40 40 40 39 38 36 37 30 29 32 28 27 31 34 36 34 34 34 33 35 35 32 33 32 32 36 37 38 39 39 39 40 41 42 44 45 47 45 49 48 48 47 47 -193 -193 43 45 42 44 44 44 45 45 46 45 46 43 43 43 43 43 41 42 43 40 40 40 39 38 38 36 35 34 36 34 32 38 38 40 42 41 40 37 38 36 35 34 34 35 35 35 36 33 -193 -209 -193 -209 36 36 39 40 39 38 37 36 36 38 37 38 38 40 39 40 41 42 41 42 39 37 33 34 35 36 36 37 37 36 37 37 38 37 34 30 31 -209 -209 -193 34 30 39 37 42 35 35 34 38 38 40 42 41 -193 -193 57 55 -193 48 -209 -209 -209 -209 -209 32 28 30 29 30 31 30 29 33 33 33 34 36 36 37 40 42 42 42 43 44 41 42 41 40 37 38 39 42 -209 45 45 44 44 44 44 43 42 42 42 42 42 42 -193 43 -193 -193 -193 -193 43 44 44 43 43 44 43 44 46 44 48 47 45 45 46 45 46 46 48 44 0 0 0 0 0
    0 0 0 0 0 0 0 0 0 0 0 0 0 0 0 0 0 0 0 0 0 0 0 0 0 0 0 0 0 0 0 0 0 0 0 0 0 0 0 0 0 0 0 0 0 0 0 0 0 0 0 0 0 0 0 0 0 0 0 0 0 0 0 0 0 0 0 0 0 37 37 -193 -193 38 36 37 38 38 39 40 41 41 41 43 42 41 41 40 39 37 35 35 30 31 34 30 30 32 35 36 35 35 35 34 36 36 33 34 34 34 37 38 38 39 40 40 41 42 43 46 47 48 47 51 50 50 48 48 48 45 46 48 46 48 48 49 50 49 51 49 49 45 45 44 45 44 42 43 44 40 41 40 39 39 38 36 35 35 36 35 34 39 39 41 43 41 41 39 39 37 36 35 34 35 36 35 36 33 35 36 38 -193 35 34 37 39 39 39 38 37 37 37 37 38 38 39 39 39 41 41 40 41 38 36 33 34 34 35 35 36 36 35 36 36 38 38 37 34 35 -209 -209 -209 -209 34 -193 38 43 32 33 33 37 37 39 40 40 41 44 51 51 50 44 -193 -209 -209 -209 26 28 27 29 28 29 29 29 29 34 34 34 35 36 36 37 39 42 41 41 41 42 40 41 41 39 36 39 40 44 -209 45 44 44 44 43 44 42 42 42 -193 42 42 42 -193 43 -193 -193 43 43 43 43 43 43 42 43 42 44 45 44 48 46 45 45 45 45 45 45 47 44 0 0 0 0 0
    0 0 0 0 0 0 0 0 0 0 0 0 0 0 0 0 0 0 0 0 0 0 0 0 0 0 0 0 0 0 0 0 0 0 0 0 0 0 0 0 0 0 0 0 0 0 0 0 0 0 0 0 0 0 0 0 0 0 0 0 0 0 0 0 0 0 0 0 0 39 39 -193 39 39 38 38 39 39 40 40 40 39 40 42 42 40 40 39 38 37 36 36 32 32 34 32 32 34 36 37 36 36 36 35 37 37 36 35 36 35 38 39 39 40 40 41 41 42 44 48 48 50 49 52 51 51 48 49 48 46 47 50 49 50 50 51 53 51 54 52 52 48 48 47 48 46 44 44 46 41 42 41 40 39 38 37 36 35 37 36 36 41 40 42 43 42 42 40 40 38 37 37 35 36 36 36 36 34 34 34 36 37 35 33 37 40 40 39 39 37 37 37 38 39 39 39 39 39 41 41 41 41 38 36 35 35 35 36 35 36 35 35 34 35 37 37 39 36 38 41 43 41 42 -193 42 41 44 37 35 34 38 39 40 41 41 43 45 48 49 48 44 44 -209 -209 -209 27 28 27 31 28 31 31 31 29 33 35 35 35 37 36 37 39 41 41 41 41 42 41 41 41 41 39 41 42 46 -193 45 44 44 43 43 43 42 42 42 -193 42 42 43 -193 43 -193 43 42 42 42 42 42 42 41 42 42 43 45 44 48 46 45 45 45 45 45 45 47 44 0 0 0 0 0
    0 0 0 0 0 0 0 0 0 0 0 0 0 0 0 0 0 0 0 0 0 0 0 0 0 0 0 0 0 0 0 0 0 0 0 0 0 0 0 0 0 0 0 0 0 0 0 0 0 0 0 0 0 0 0 0 0 0 0 0 0 0 0 0 0 0 0 0 0 39 41 40 39 40 39 39 40 40 40 41 41 40 41 43 42 41 40 39 38 38 37 36 33 35 36 35 35 35 37 38 37 37 37 36 38 38 38 37 38 37 39 40 40 42 42 42 43 44 46 50 50 51 50 53 52 53 50 49 49 46 48 51 50 50 51 52 54 52 55 53 53 50 49 48 49 47 45 46 46 42 43 42 41 40 38 37 36 35 36 37 38 40 40 42 43 42 43 41 40 39 39 38 37 37 38 37 37 36 35 33 36 37 35 34 37 41 39 39 39 37 37 37 38 39 39 40 39 39 40 40 41 40 38 35 35 35 35 35 34 36 35 34 32 33 33 35 37 36 36 38 40 39 42 40 41 41 43 41 38 36 39 40 40 42 41 43 45 47 49 47 44 44 -209 -209 -209 -193 30 29 31 29 32 33 33 29 31 35 34 35 37 35 36 38 41 41 41 41 42 41 42 42 42 41 41 42 47 42 45 44 43 43 43 43 42 42 42 42 43 42 42 -193 43 43 43 42 41 -193 -193 -193 41 -193 -193 -193 43 44 44 48 46 45 45 45 45 45 45 47 44 0 0 0 0 0
    0 0 0 0 0 0 0 0 0 0 0 0 0 0 0 0 0 0 0 0 0 0 0 0 0 0 0 0 0 0 0 0 0 0 0 0 0 0 0 0 0 0 0 0 0 0 0 0 0 0 0 0 0 0 0 0 0 0 0 0 0 0 0 0 0 0 0 0 0 41 42 41 40 40 39 40 41 41 41 42 42 41 42 44 42 41 40 40 38 39 38 38 36 37 38 37 36 36 38 39 38 38 37 37 38 40 40 39 38 -193 41 42 42 43 43 43 44 45 47 50 52 52 51 53 53 54 52 52 52 49 52 53 53 52 52 53 54 52 54 53 53 50 50 49 51 48 48 47 48 42 46 44 43 41 39 39 38 38 38 39 40 42 42 43 44 43 43 43 41 41 39 39 37 37 38 38 37 37 36 35 38 39 38 38 39 41 40 41 40 38 38 37 38 39 40 40 39 39 40 40 41 40 38 36 36 36 35 34 34 35 34 33 31 31 32 34 36 35 34 36 39 39 42 40 40 41 43 42 42 39 40 41 40 43 42 44 45 46 47 46 42 -209 -209 -209 -193 29 30 30 32 31 36 38 39 34 35 36 37 37 38 35 36 37 40 40 40 40 42 41 42 42 42 42 42 44 49 42 46 44 44 43 43 43 43 42 43 42 43 42 43 -193 43 43 43 42 -193 -193 -193 -193 -193 -193 -193 -209 43 45 44 48 46 45 45 45 45 45 45 47 43 0 0 0 0 0
    0 0 0 0 0 0 0 0 0 0 0 0 0 0 0 0 0 0 0 0 0 0 0 0 0 0 0 0 0 0 0 0 0 0 0 0 0 0 0 0 0 0 0 0 0 0 0 0 0 0 0 0 0 0 0 0 0 0 0 0 0 0 0 0 0 0 0 0 0 43 43 42 41 41 40 40 44 43 42 44 43 42 43 45 43 41 40 40 39 39 39 39 37 38 38 38 37 37 38 39 38 38 38 37 38 41 43 -209 40 -193 44 44 44 44 44 45 45 48 50 52 53 53 53 54 55 56 54 55 55 54 55 56 55 54 54 54 55 53 54 54 54 51 52 52 53 51 51 51 51 44 49 46 45 42 39 39 -193 40 39 41 42 44 43 43 44 42 42 43 41 41 39 38 36 36 38 39 38 38 37 37 39 41 40 40 40 42 42 42 41 39 38 37 38 39 40 39 39 39 40 40 41 41 38 36 37 37 36 35 35 35 34 34 31 31 31 33 37 35 34 35 38 37 40 38 39 38 41 41 42 40 42 42 41 44 43 47 46 46 46 45 -209 -209 -209 -193 -193 28 32 32 34 36 38 41 42 38 38 38 39 39 39 36 36 37 40 40 40 40 42 41 42 42 43 42 43 45 49 43 46 44 43 43 43 43 42 42 43 42 43 43 43 43 43 43 43 42 -193 -193 -193 -193 -193 -193 -193 -193 43 45 44 48 46 45 45 45 45 45 45 47 43 0 0 0 0 0
    0 0 0 0 0 0 0 0 0 0 0 0 0 0 0 0 0 0 0 0 0 0 0 0 0 0 0 0 0 0 0 0 0 0 0 0 0 0 0 0 0 0 0 0 0 0 0 0 0 0 0 0 0 0 0 0 0 0 0 0 0 0 0 0 0 0 0 0 0 44 43 43 41 41 40 41 44 43 43 44 44 43 44 46 44 41 40 40 39 39 39 39 37 37 38 38 37 36 38 39 38 38 38 38 39 -193 43 46 42 42 46 46 46 45 46 47 46 50 51 53 54 54 55 55 56 57 56 56 57 57 56 57 57 55 54 55 55 54 54 55 55 52 53 53 53 51 51 51 50 43 47 45 44 41 36 37 -193 -193 -193 40 42 43 42 43 44 41 41 42 41 40 39 39 37 37 38 39 38 38 38 38 40 40 40 40 40 42 41 41 40 39 38 37 38 39 40 39 39 39 39 39 41 41 38 36 38 38 36 35 35 36 35 34 31 30 30 32 36 34 32 33 37 36 39 37 38 36 40 41 43 41 43 42 41 44 43 46 44 43 43 -193 -209 -193 -193 22 -193 -209 36 36 37 41 41 44 46 41 42 40 41 41 40 38 38 38 40 41 41 41 42 41 42 42 43 42 43 45 50 42 45 43 43 43 42 42 42 41 43 42 43 43 43 43 43 43 43 43 42 -193 -193 -193 -193 -193 -193 -193 44 45 44 48 45 45 45 45 45 45 44 46 43 0 0 0 0 0
    0 0 0 0 0 0 0 0 0 0 0 0 0 0 0 0 0 0 0 0 0 0 0 0 0 0 0 0 0 0 0 0 0 0 0 0 0 0 0 0 0 0 0 0 0 0 0 0 0 0 0 0 0 0 0 0 0 0 0 0 0 0 0 0 0 0 0 0 0 44 43 42 41 41 41 41 44 43 42 44 44 42 43 45 43 41 40 40 39 39 40 38 36 37 37 37 36 36 38 39 39 39 39 39 39 -193 44 -193 43 44 47 49 48 47 49 50 48 52 53 54 55 55 55 56 57 58 57 57 59 58 58 59 58 56 55 56 56 54 54 55 55 52 53 53 54 51 51 51 50 43 47 46 44 42 38 38 -193 -193 -209 -193 43 43 42 43 44 41 41 42 41 41 -193 -193 -209 38 39 40 39 39 39 39 40 41 41 40 41 42 42 41 40 39 39 37 38 39 40 39 39 39 39 39 40 41 37 35 38 38 36 35 36 36 35 34 32 30 28 31 35 34 32 32 37 36 38 37 38 36 39 41 43 41 43 42 40 42 41 43 42 41 42 -193 -209 -193 -209 21 -209 -209 42 43 -193 46 48 49 53 53 54 57 50 44 40 40 39 39 42 42 41 41 43 42 42 42 43 42 43 45 49 42 45 43 43 43 42 42 42 41 42 42 43 43 43 43 43 43 44 43 43 43 -193 42 43 -193 43 42 44 46 45 48 45 45 45 45 45 45 44 46 42 0 0 0 0 0
    0 0 0 0 0 0 0 0 0 0 0 0 0 0 0 0 0 0 0 0 0 0 0 0 0 0 0 0 0 0 0 0 0 0 0 0 0 0 0 0 0 0 0 0 0 0 0 0 0 0 0 0 0 0 0 0 0 0 0 0 0 0 0 0 0 0 0 0 0 46 44 43 42 41 40 40 42 41 41 43 42 41 43 44 42 41 40 40 39 39 40 38 36 37 36 37 36 35 38 39 39 39 39 40 -193 -193 -209 -209 45 47 48 50 49 49 51 51 49 53 53 55 56 56 56 56 58 59 59 59 60 59 58 59 58 56 55 55 56 53 53 54 54 51 53 53 53 51 51 52 51 43 49 47 46 43 40 39 -193 45 -209 -209 43 43 41 43 45 41 41 43 -209 -209 -209 -193 -209 -193 39 40 39 39 39 40 41 42 42 41 42 42 43 42 41 39 39 36 37 39 40 38 38 38 39 39 41 41 38 35 39 39 37 35 36 36 35 34 31 29 28 30 35 34 34 33 37 36 38 38 38 36 38 40 43 41 43 41 40 42 41 43 42 41 42 -193 -209 -209 -209 -209 -209 -193 46 47 -193 52 54 54 57 57 57 59 -193 45 39 38 38 38 41 41 41 41 43 42 42 42 43 43 43 45 49 42 45 43 43 43 42 42 42 40 42 41 43 43 43 43 44 43 44 43 43 43 43 42 43 42 43 43 45 46 46 48 45 45 45 46 45 45 45 46 43 0 0 0 0 0
    0 0 0 0 0 0 0 0 0 0 0 0 0 0 0 0 0 0 0 0 0 0 0 0 0 0 0 0 0 0 0 0 0 0 0 0 0 0 0 0 0 0 0 0 0 0 0 0 0 0 0 0 0 0 0 0 0 0 0 0 0 0 0 0 0 0 0 0 0 51 45 44 42 42 41 41 41 39 39 41 40 39 41 42 41 40 40 40 39 39 40 38 34 36 36 38 35 35 38 40 40 -209 -193 40 -209 -193 -209 -177 46 48 49 51 50 50 52 51 49 53 53 54 55 55 55 55 57 58 58 58 59 58 58 59 58 56 54 55 55 53 53 54 54 52 53 53 53 51 51 51 50 44 49 47 46 44 -193 40 -209 47 -209 -209 -193 -193 42 43 46 -193 -193 43 -209 -209 -193 258 -193 -193 -209 -209 -209 -209 -209 41 42 42 42 41 42 42 43 42 41 39 39 36 37 39 39 37 37 38 39 38 41 41 38 37 40 40 38 36 36 36 35 33 31 29 27 29 36 35 35 34 38 37 38 38 38 36 38 40 43 41 43 41 40 42 41 44 42 42 42 42 43 -209 -209 -209 45 47 50 51 51 53 55 55 57 57 58 59 -193 53 39 37 38 38 40 41 41 41 42 42 43 42 43 44 44 46 49 43 45 43 43 43 42 42 42 40 42 42 43 43 43 43 44 44 44 43 44 43 43 43 44 43 43 43 45 46 46 48 45 45 45 46 45 45 45 46 43 0 0 0 0 0
    0 0 0 0 0 0 0 0 0 0 0 0 0 0 0 0 0 0 0 0 0 0 0 0 0 0 0 0 0 0 0 0 0 0 0 0 0 0 0 0 0 0 0 0 0 0 0 0 0 0 0 0 0 0 0 0 0 0 0 0 0 0 0 0 0 0 0 0 0 53 49 48 45 44 42 41 42 41 40 40 -193 38 40 41 40 41 40 40 39 39 40 38 33 36 34 37 34 34 38 -193 -209 -209 -209 -177 -177 -193 -193 198 -193 49 50 51 51 50 52 52 48 51 52 53 54 54 54 54 56 57 58 57 58 58 57 58 58 55 55 55 55 54 54 55 55 52 54 54 54 53 51 52 50 44 49 47 46 43 -209 -193 -225 -209 -209 -209 -209 -209 -193 43 46 -209 -209 -209 -209 -209 -193 259 259 -193 -209 -209 -209 -209 -209 42 43 42 42 41 42 41 42 41 40 38 39 36 37 38 39 37 37 38 39 38 41 41 39 38 40 40 -193 36 37 36 35 34 31 29 -193 28 36 34 35 34 38 37 38 38 38 36 38 40 44 43 45 42 41 44 43 47 44 42 43 43 46 -209 -209 -209 50 50 52 52 52 53 55 55 57 56 57 59 -193 52 42 -193 40 39 42 44 43 43 45 44 44 44 45 45 43 44 46 42 44 43 43 43 42 42 42 41 43 42 44 44 44 44 44 44 44 43 44 43 44 44 45 44 45 44 46 47 47 49 46 45 46 47 46 46 45 46 43 0 0 0 0 0
    0 0 0 0 0 0 0 0 0 0 0 0 0 0 0 0 0 0 0 0 0 0 0 0 0 0 0 0 0 0 0 0 0 0 0 0 0 0 0 0 0 0 0 0 0 0 0 0 0 0 0 0 0 0 0 0 0 0 0 0 0 0 0 0 0 0 0 0 0 56 54 54 54 52 45 45 48 54 -193 -193 -193 -209 40 41 40 40 39 40 40 39 40 40 32 35 35 -225 31 -177 -193 -193 -177 -209 -209 -177 143 -193 -225 -225 49 50 51 52 51 51 53 52 48 51 52 52 54 54 54 55 56 58 58 58 59 58 58 58 58 56 55 55 55 54 54 55 55 53 54 54 55 54 52 52 51 45 48 47 46 43 -209 -209 -225 -225 -193 -225 1008 -209 -193 -193 -193 -209 -209 -193 -209 -193 -193 260 261 -193 -209 -193 -193 -209 -209 43 44 42 42 41 41 41 41 40 40 -193 -193 36 37 37 37 36 36 37 38 38 41 41 40 39 41 42 -209 -193 -193 36 36 34 33 29 -193 -193 -209 35 33 31 37 36 37 37 37 36 37 41 45 50 54 46 -209 -193 50 55 52 -193 40 -193 -209 -209 -209 -209 -193 51 54 54 54 55 56 56 57 57 59 60 58 -209 -209 -209 41 40 43 44 43 43 45 44 43 43 44 44 43 44 45 42 44 43 44 44 43 44 43 43 44 44 45 45 45 45 45 44 45 44 44 44 44 45 47 45 46 46 48 49 49 50 46 46 46 47 45 45 44 45 43 0 0 0 0 0
    0 0 0 0 0 0 0 0 0 0 0 0 0 0 0 0 0 0 0 0 0 0 0 0 0 0 0 0 0 0 0 0 0 0 0 0 0 0 0 0 0 0 0 0 0 0 0 0 0 0 0 0 0 0 0 0 0 0 0 0 0 0 0 0 0 0 0 0 0 61 60 60 59 61 61 61 62 61 62 62 62 68 52 -193 40 -193 -225 -225 -225 -225 -225 -225 -225 -225 -225 -225 -225 -225 -225 -225 -225 -225 -225 -225 -225 -225 -225 -225 50 49 51 51 50 50 51 50 46 50 53 52 55 56 56 56 57 58 59 58 59 59 58 58 59 57 56 56 56 55 54 56 56 54 55 55 56 55 52 52 51 46 48 47 46 -193 804 -225 -225 -225 -225 -225 -225 -225 -225 -209 -209 -209 -209 -209 -209 -193 -193 259 259 -193 -193 259 256 260 -209 43 44 43 42 40 -209 40 -209 -193 -209 -193 -193 -193 -193 35 35 34 35 35 37 36 40 -193 -193 -193 43 -209 -209 -209 -209 -209 -209 -193 -209 -209 -209 -209 -209 -209 -209 25 36 34 36 36 38 38 39 43 53 59 62 60 60 60 61 61 62 61 59 56 61 -209 -209 -209 -209 53 55 55 55 55 56 57 58 58 61 63 61 57 45 46 44 42 44 43 42 43 44 44 42 42 43 42 43 44 45 43 45 46 46 47 45 47 46 45 47 46 48 48 47 48 48 46 47 45 46 45 45 46 48 47 48 47 50 51 50 50 47 46 46 47 46 45 44 45 42 0 0 0 0 0
    0 0 0 0 0 0 0 0 0 0 0 0 0 0 0 0 0 0 0 0 0 0 0 0 0 0 0 0 0 0 0 0 0 0 0 0 0 0 0 0 0 0 0 0 0 0 0 0 0 0 0 0 0 0 0 0 0 0 0 0 0 0 0 0 0 0 0 0 0 68 68 67 64 67 68 64 69 64 65 63 63 67 60 -225 -225 -225 -225 -225 -225 -225 -225 -225 -225 -225 -225 -225 -225 -225 -225 -225 -225 -225 -225 -225 -225 -225 -225 -225 -225 49 50 52 50 50 51 50 45 53 55 55 56 57 57 57 58 59 58 58 59 58 57 57 57 57 56 56 55 56 55 57 58 56 57 57 57 56 52 52 51 47 48 47 47 -225 -225 -225 -225 -225 -225 -225 -225 -225 -225 -225 -225 -225 -225 198 -193 -193 253 -177 256 -193 -193 -193 256 -209 -209 -209 43 -193 42 39 -209 -193 464 -193 -193 -225 146 -193 -225 -225 -225 -225 -225 -193 -193 -193 308 304 307 306 308 -209 -209 -209 -193 -193 -209 -209 -209 -209 -209 -209 -193 -209 -193 24 34 31 31 33 36 39 -209 45 54 61 65 62 61 62 61 61 62 62 61 58 61 65 -193 67 66 60 58 58 59 58 58 59 61 60 65 67 64 60 55 55 49 46 48 44 45 47 48 49 44 44 45 43 43 44 43 44 46 48 50 52 50 52 52 50 50 50 51 51 49 51 51 48 51 46 49 47 47 48 50 48 49 48 52 52 52 50 46 46 46 48 46 45 44 45 43 0 0 0 0 0
    0 0 0 0 0 0 0 0 0 0 0 0 0 0 0 0 0 0 0 0 0 0 0 0 0 0 0 0 0 0 0 0 0 0 0 0 0 0 0 0 0 0 0 0 0 0 0 0 0 0 0 0 0 0 0 0 0 0 0 0 0 0 0 0 0 0 0 0 0 70 72 70 67 69 70 64 66 63 65 63 63 67 60 -225 -225 -225 -225 -225 -225 -225 -225 -225 -225 -225 -225 -225 -225 -225 -225 -225 -225 -225 -225 -225 -225 -225 -225 -225 -225 49 48 49 48 48 49 48 43 46 51 52 55 55 55 55 55 57 57 56 57 56 55 55 56 56 56 56 56 57 56 58 59 57 56 55 56 55 49 50 49 47 47 48 49 -225 -225 -225 -225 -225 -225 -225 -225 -225 -225 -225 -225 -225 -225 -225 -225 -225 -225 -225 -225 -225 -225 -225 -225 -225 -225 -225 -225 -225 -225 -225 -225 -225 -225 -225 -225 -225 -225 -225 -225 -225 -225 -225 -225 -225 -225 -225 -225 -225 -225 -225 -225 -225 -225 -209 -193 -209 -209 -209 -209 -209 -209 -225 -225 -209 0 -193 -209 -209 -209 35 39 51 -209 54 56 63 66 63 62 64 62 62 64 64 62 60 62 65 -193 66 66 64 61 62 61 62 60 61 63 64 67 68 67 65 60 61 -209 48 50 46 49 53 56 59 55 54 53 51 47 47 43 46 48 51 54 57 58 57 58 56 55 57 56 56 52 55 -193 -209 -209 -209 -209 -209 -209 52 51 48 50 49 53 52 53 51 47 47 47 52 48 45 46 49 46 0 0 0 0 0
    0 0 0 0 0 0 0 0 0 0 0 0 0 0 0 0 0 0 0 0 0 0 0 0 0 0 0 0 0 0 0 0 0 0 0 0 0 0 0 0 0 0 0 0 0 0 0 0 0 0 0 0 0 0 0 0 0 0 0 0 0 0 0 0 0 0 0 0 0 72 74 71 68 69 70 63 66 63 65 -193 -193 -209 60 -225 -225 -225 -225 -225 -225 -225 -225 -225 -225 -225 -225 -225 -225 -225 -225 -225 -225 -225 -225 -225 -225 -225 -225 -225 -225 49 48 48 48 49 50 49 43 44 48 52 54 53 51 52 52 54 53 53 54 53 53 54 54 56 -193 -193 -209 -209 59 60 61 58 56 54 55 55 50 50 49 47 48 49 49 -225 -225 -225 -225 -225 -225 -225 -225 -225 -225 -225 -225 -225 -225 -225 -225 -225 -225 -225 -225 -225 -225 -225 -225 -225 -225 -225 -225 -225 -225 -225 -225 -225 -225 -225 -225 -225 -225 -225 -225 -225 -225 -225 -225 -225 -225 -225 -225 -225 -225 -225 -225 -225 -225 -225 -225 -225 -225 -225 -225 -225 -225 -225 -225 -225 -225 -225 -225 -225 -225 -225 -225 55 -209 56 57 65 68 65 64 66 63 62 65 65 62 60 61 63 59 63 65 62 60 61 60 60 60 62 64 63 68 71 68 64 -193 -209 -209 45 44 45 49 53 57 61 58 57 56 54 51 51 45 48 51 54 57 59 61 60 62 59 59 59 59 60 59 61 -193 -209 -193 -209 -193 -209 -209 -209 54 51 50 51 54 53 56 54 52 51 -193 60 -193 -193 -193 -193 -193 0 0 0 0 0
    0 0 0 0 0 0 0 0 0 0 0 0 0 0 0 0 0 0 0 0 0 0 0 0 0 0 0 0 0 0 0 0 0 0 0 0 0 0 0 0 0 0 0 0 0 0 0 0 0 0 0 0 0 0 0 0 0 0 0 0 0 0 0 0 0 0 0 0 0 73 74 71 68 69 70 63 66 63 65 63 -193 67 60 -225 -225 -225 -225 -225 -225 -225 -225 -225 -225 -225 -225 -225 -225 -225 -225 -225 -225 -225 -225 -225 -225 -225 -225 -225 -225 -225 47 48 49 49 51 49 44 44 46 51 52 48 46 46 47 50 46 49 48 48 48 49 50 54 -209 -209 -209 -209 -209 61 -193 59 56 54 55 56 51 51 50 48 48 50 50 -225 -225 -225 -225 -225 -225 -225 -225 -225 -225 -225 -225 -225 -225 -225 -225 -225 -225 -225 -225 -225 -225 -225 -225 -225 -225 -225 -225 -225 -225 -225 -225 -225 -225 -225 -225 -225 -225 -225 -225 -225 -225 -225 -225 -225 -225 -225 -225 -225 -225 -225 -225 -225 -225 -225 -225 -225 -225 -225 -225 -225 -225 -225 -225 -225 -225 -225 -225 -225 -225 -225 -225 -225 -225 58 59 67 68 65 65 66 64 62 64 65 62 60 62 64 59 63 67 64 61 62 -193 -193 57 60 58 -193 69 -193 65 59 53 51 45 45 45 47 52 55 57 60 58 57 57 56 56 54 52 51 53 56 61 63 65 64 65 61 61 61 61 61 63 64 -193 -193 -193 -209 -193 -209 -209 -209 -209 -193 50 52 -193 55 57 -193 -209 -209 -209 65 65 66 66 66 68 0 0 0 0 0
    0 0 0 0 0 0 0 0 0 0 0 0 0 0 0 0 0 0 0 0 0 0 0 0 0 0 0 0 0 0 0 0 0 0 0 0 0 0 0 0 0 0 0 0 0 0 0 0 0 0 0 0 0 0 0 0 0 0 0 0 0 0 0 0 0 0 0 0 0 75 74 71 68 69 70 63 64 63 65 63 63 68 61 -225 -225 -225 -225 -225 -225 -225 -225 -225 -225 -225 -225 -225 -225 -225 -225 -225 -225 -225 -225 -225 -225 -225 -225 -225 -225 -225 -225 47 48 49 50 48 44 42 44 48 48 40 -193 -193 43 44 41 43 43 42 43 43 -209 -209 -209 -209 -209 -209 -177 -209 -209 -209 -193 53 54 56 52 51 51 49 48 50 -225 -225 -225 -225 -225 -225 -225 -225 -225 -225 -225 -225 -225 -225 -225 -225 -225 -225 -225 -225 -225 -225 -225 -225 -225 -225 -225 -225 -225 -225 -225 -225 -225 -225 -225 -225 -225 -225 -225 -225 -225 -225 -225 -225 -225 -225 -225 -225 -225 -225 -225 -225 -225 -225 -225 -225 -225 -225 -225 -225 -225 -225 -225 -225 -225 -225 -225 -225 -225 -225 -225 -225 -225 -225 -225 -225 59 67 68 65 65 66 64 62 64 65 62 60 62 64 59 62 67 65 62 -193 61 -193 56 59 60 60 69 -193 64 60 -193 56 54 52 53 52 55 56 58 59 58 57 57 56 57 56 -209 -209 -193 -209 -209 -209 -209 -193 -209 -193 62 62 60 61 62 62 64 66 -209 -209 -209 -209 21 -209 -209 -209 50 53 56 58 61 64 -209 -209 -209 -209 -209 73 -209 -209 -209 0 0 0 0 0
    0 0 0 0 0 0 0 0 0 0 0 0 0 0 0 0 0 0 0 0 0 0 0 0 0 0 0 0 0 0 0 0 0 0 0 0 0 0 0 0 0 0 0 0 0 0 0 0 0 0 0 0 0 0 0 0 0 0 0 0 0 0 0 0 0 0 0 0 0 87 80 -193 70 70 -193 63 65 65 67 65 65 -225 -225 -225 -225 -225 -225 -225 -225 -225 -225 -225 -225 -225 -225 -225 -225 -225 -225 -225 -225 -225 -225 -225 -225 -225 -225 -225 -225 -225 -225 -225 46 46 48 47 46 44 51 56 -193 -193 -177 0 0 -209 -209 -193 -209 -209 -209 -193 -209 -209 -193 223 225 -177 -193 -193 -193 -225 111 -193 56 58 54 53 53 52 48 51 -225 -225 -225 -225 -225 -225 -225 -225 -225 -225 -225 -225 -225 -225 -225 -225 -225 -225 -225 -225 -225 -225 -225 -225 -225 -225 -225 -225 -225 -225 -225 -225 -225 -225 -225 -225 -225 -225 -225 -225 -225 -225 -225 -225 -225 -225 -225 -225 -225 -225 -225 -225 -225 -225 -225 -225 -225 -225 -225 -225 -225 -225 -225 -225 -225 -225 -225 -225 -225 -225 -225 -225 -225 -225 -225 -225 59 67 68 65 65 66 64 62 64 64 62 59 62 63 59 62 67 66 63 63 63 60 59 60 61 60 65 66 64 60 59 59 58 56 56 55 56 56 58 58 57 55 57 53 54 56 -209 -209 -209 -193 -209 -209 -209 -209 -209 -193 -193 63 61 62 63 63 65 66 -193 -209 -209 -193 -193 -193 -193 -209 -209 63 66 68 71 73 72 -209 -209 -209 -193 -209 -209 -209 -209 0 0 0 0 0
    0 0 0 0 0 0 0 0 0 0 0 0 0 0 0 0 0 0 0 0 0 0 0 0 0 0 0 0 0 0 0 0 0 0 0 0 0 0 0 0 0 0 0 0 0 0 0 0 0 0 0 0 0 0 0 0 0 0 0 0 0 0 0 0 0 0 0 0 0 90 88 90 98 -209 -209 104 107 108 108 -225 -225 -225 -225 -225 -225 -225 -225 -225 -225 -225 -225 -225 -225 -225 -225 -225 -225 -225 -225 -225 -225 -225 -225 -225 -225 -225 -225 -225 -225 -225 -225 -225 -225 -225 -225 -225 -225 -225 -225 -225 -225 -225 -225 -225 -225 -225 -225 -225 -225 -225 -225 -225 -225 -225 -225 -225 -225 -225 -225 -225 -225 -225 -225 -225 -225 55 -225 -225 -225 -225 -225 -225 -225 -225 -225 -225 -225 -225 -225 -225 -225 -225 -225 -225 -225 -225 -225 -225 -225 -225 -225 -225 -225 -225 -225 -225 -225 -225 -225 -225 -225 -225 -225 -225 -225 -225 -225 -225 -225 -225 -225 -225 -225 -225 -225 -225 -225 -225 -225 -225 -225 -225 -225 -225 -225 -225 -225 -225 -225 -225 -225 -225 -225 -225 -225 -225 -225 -225 -225 -225 -225 -225 -225 -225 -225 -225 -225 -225 59 67 68 65 65 66 64 62 64 65 62 59 62 62 58 60 64 63 62 62 63 60 59 61 62 61 66 66 65 62 60 59 59 57 57 56 57 57 58 58 59 54 57 56 -193 59 -209 -209 -209 77 77 80 74 75 72 -193 -193 66 63 64 66 66 67 68 -193 -209 -209 -193 -193 -209 -193 -209 -193 -209 -209 74 75 75 75 -209 -209 -209 -209 -209 -209 -209 -209 0 0 0 0 0
    0 0 0 0 0 0 0 0 0 0 0 0 0 0 0 0 0 0 0 0 0 0 0 0 0 0 0 0 0 0 0 0 0 0 0 0 0 0 0 0 0 0 0 0 0 0 0 0 0 0 0 0 0 0 0 0 0 0 0 0 0 0 0 0 0 0 0 0 0 91 89 90 96 99 -193 106 109 -225 -225 -225 -225 -225 -225 -225 -225 -225 -225 -225 -225 -225 -225 -225 -225 -225 -225 -225 -225 -225 -225 -225 -225 -225 -225 -225 -225 -225 -225 -225 -225 -225 -225 -225 -225 -225 -225 -225 -225 -225 -225 -225 -225 -225 -225 -225 -225 -225 -225 -225 -225 -225 -225 -225 -225 -225 -225 -225 -225 -225 -225 -225 -225 -225 -225 -225 -225 -225 -225 -225 -225 -225 -225 -225 -225 -225 -225 -225 -225 -225 -225 -225 -225 -225 -225 -225 -225 -225 -225 -225 -225 -225 -225 -225 -225 -225 -225 -225 -225 -225 -225 -225 -225 -225 -225 -225 -225 -225 -225 -225 -225 -225 -225 -225 -225 -225 -225 -225 -225 -225 -225 -225 -225 -225 -225 -225 -225 -225 -225 -225 -225 -225 -225 -225 -225 -225 -225 -225 -225 -225 -225 -225 -225 -225 -225 -225 -225 -225 -225 -225 58 66 68 65 64 66 64 62 64 65 62 59 62 62 58 59 62 61 63 65 63 60 59 61 64 65 69 70 63 64 68 67 64 62 62 61 62 61 63 61 66 69 66 69 70 71 75 75 79 80 78 82 77 77 76 -193 -209 -193 67 67 69 69 69 69 71 -193 -209 -209 -193 76 -193 -193 -209 -209 -209 -209 80 80 80 -209 -209 -209 -193 -193 77 76 82 0 0 0 0 0
    0 0 0 0 0 0 0 0 0 0 0 0 0 0 0 0 0 0 0 0 0 0 0 0 0 0 0 0 0 0 0 0 0 0 0 0 0 0 0 0 0 0 0 0 0 0 0 0 0 0 0 0 0 0 0 0 0 0 0 0 0 0 0 0 0 0 0 0 0 91 89 90 96 96 -193 106 109 -225 -225 -225 -225 -225 -225 -225 -225 -225 -225 -225 -225 -225 -225 -225 -225 -225 -225 -225 -225 -225 -225 -225 -225 -225 -225 -225 -225 -225 -225 -225 -225 -225 -225 -225 -225 -225 -225 -225 -225 -225 -225 -225 -225 -225 -225 -225 -225 -225 -225 -225 -225 -225 -225 -225 -225 -225 -225 -225 -225 -225 -225 -225 -225 -225 -225 -225 -225 -225 -225 -225 -225 -225 -225 -225 -225 -225 -225 -225 -225 -225 -225 -225 -225 -225 -225 -225 -225 -225 -225 -225 -225 -225 -225 -225 -225 -225 -225 -225 -225 -225 -225 -225 -225 -225 -225 -225 -225 -225 -225 -225 -225 -225 -225 -225 -225 -225 -225 -225 -225 -225 -225 -225 -225 -225 -225 -225 -225 -225 -225 -225 -225 -225 -225 -225 -225 -225 -225 -225 -225 -225 -225 -225 -225 -225 -225 -225 -225 -225 -225 -225 56 62 67 63 63 66 63 61 64 65 62 59 62 62 58 60 62 60 65 70 68 65 63 66 68 71 72 -193 60 66 -193 -209 69 72 72 71 71 72 71 69 71 76 74 75 76 76 77 78 81 82 80 82 81 80 80 80 -209 -209 -209 -193 -209 -193 70 70 72 74 73 -193 77 78 -209 -209 -209 -209 -209 -209 -209 -209 -209 -209 -209 -209 -209 -193 77 75 79 0 0 0 0 0
    0 0 0 0 0 0 0 0 0 0 0 0 0 0 0 0 0 0 0 0 0 0 0 0 0 0 0 0 0 0 0 0 0 0 0 0 0 0 0 0 0 0 0 0 0 0 0 0 0 0 0 0 0 0 0 0 0 0 0 0 0 0 0 0 0 0 0 0 0 91 89 90 96 96 -193 106 109 -225 -225 -225 -225 -225 -225 -225 -225 -225 -225 -225 -225 -225 -225 -225 -225 -225 -225 -225 -225 -225 -225 -225 -225 -225 -225 -225 -225 -225 -225 -225 -225 -225 -225 -225 -225 -225 -225 -225 -225 -225 -225 -225 -225 -225 -225 -225 -225 -225 -225 -225 -225 -225 -225 -225 -225 -225 -225 -225 -225 -225 -225 -225 -225 -225 -225 -225 -225 -225 -225 -225 -225 -225 -225 -225 -225 -225 -225 -225 -225 -225 -225 -225 -225 -225 -225 -225 -225 -225 -225 -225 -225 -225 -225 -225 -225 -225 -225 -225 -225 -225 -225 -225 -225 -225 -225 -225 -225 -225 -225 -225 -225 -225 -225 -225 -225 -225 -225 -225 -225 -225 -225 -225 -225 -225 -225 -225 -225 -225 -225 -225 -225 -225 -225 -225 -225 -225 -225 -225 -225 -225 -225 -225 -225 -225 -225 -225 -225 -225 -225 -225 -225 64 66 64 63 66 65 60 62 63 61 58 60 -209 57 59 59 58 64 70 68 66 66 68 69 73 74 -209 -209 69 -193 -209 -209 78 79 78 76 81 81 75 76 83 81 81 82 83 79 80 82 82 80 83 82 82 82 82 84 82 -209 -193 74 73 70 71 72 75 73 75 78 82 -209 -209 93 -209 -209 -209 -209 -209 -209 -209 -209 -209 -209 75 76 76 79 0 0 0 0 0
    0 0 0 0 0 0 0 0 0 0 0 0 0 0 0 0 0 0 0 0 0 0 0 0 0 0 0 0 0 0 0 0 0 0 0 0 0 0 0 0 0 0 0 0 0 0 0 0 0 0 0 0 0 0 0 0 0 0 0 0 0 0 0 0 0 0 0 0 0 91 89 90 96 96 -193 106 109 -225 -225 -225 -225 -225 -225 -225 -225 -225 -225 -225 -225 -225 -225 -225 -225 -225 -225 -225 -225 -225 -225 -225 -225 -225 -225 -225 -225 -225 -225 -225 -225 -225 -225 -225 -225 -225 -225 -225 -225 -225 -225 -225 -225 -225 -225 -225 -225 -225 -225 -225 -225 -225 -225 -225 -225 -225 -225 -225 -225 -225 -225 -225 -225 -225 -225 -225 -225 -225 -225 -225 -225 -225 -225 -225 -225 -225 -225 -225 -225 -225 -225 -225 -225 -225 -225 -225 -225 -225 -225 -225 -225 -225 -225 -225 -225 -225 -225 -225 -225 -225 -225 -225 -225 -225 -225 -225 -225 -225 -225 -225 -225 -225 -225 -225 -225 -225 -225 -225 -225 -225 -225 -225 -225 -225 -225 -225 -225 -225 -225 -225 -225 -225 -225 -225 -225 -225 -225 -225 -225 -225 -225 -225 -225 -225 -225 -225 -225 -225 -225 -225 -225 -225 -225 -225 -225 -225 -225 51 53 55 -193 -209 -209 -193 53 52 54 56 63 71 69 67 67 68 68 73 74 -209 -209 -209 -209 -209 78 86 86 82 81 86 87 81 83 87 85 85 86 86 83 82 83 83 80 84 84 83 84 84 87 86 -193 73 74 72 69 69 72 73 -193 -193 -209 -209 -209 -193 -193 -209 -209 -209 -209 -209 -209 -209 -209 -209 -209 77 77 78 80 0 0 0 0 0
    0 0 0 0 0 0 0 0 0 0 0 0 0 0 0 0 0 0 0 0 0 0 0 0 0 0 0 0 0 0 0 0 0 0 0 0 0 0 0 0 0 0 0 0 0 0 0 0 0 0 0 0 0 0 0 0 0 0 0 0 0 0 0 0 0 0 0 0 0 91 89 90 96 96 -193 106 109 -225 -225 -225 -225 -225 -225 -225 -225 -225 -225 -225 -225 -225 -225 -225 -225 -225 -225 -225 -225 -225 -225 -225 -225 -225 -225 -225 -225 -225 -225 -225 -225 -225 -225 -225 -225 -225 -225 -225 -225 -225 -225 -225 -225 -225 -225 -225 -225 -225 -225 -225 -225 -225 -225 -225 -225 -225 -225 -225 -225 -225 -225 -225 -225 -225 -225 -225 -225 -225 -225 -225 -225 -225 -225 -225 -225 -225 -225 -225 -225 -225 -225 -225 -225 -225 -225 -225 -225 -225 -225 -225 -225 -225 -225 -225 -225 -225 -225 -225 -225 -225 -225 -225 -225 -225 -225 -225 -225 -225 -225 -225 -225 -225 -225 -225 -225 -225 -225 -225 -225 -225 -225 -225 -225 -225 -225 -225 -225 -225 -225 -225 -225 -225 -225 -225 -225 -225 -225 -225 -225 -225 -225 -225 -225 -225 -225 -225 -225 -225 -225 -225 -225 -225 -225 -225 -225 -225 -225 -225 56 59 61 -209 -209 -209 -209 55 -193 56 67 74 72 69 68 68 68 74 -209 -209 -209 -209 -209 92 -193 89 90 87 86 88 89 84 85 88 87 86 87 87 84 83 85 84 80 84 84 84 86 86 88 89 91 77 76 74 67 68 -193 74 -209 -209 -209 96 97 -193 -193 -209 -209 -209 -209 -209 -209 -209 -209 -209 -209 -209 77 79 80 0 0 0 0 0
    0 0 0 0 0 0 0 0 0 0 0 0 0 0 0 0 0 0 0 0 0 0 0 0 0 0 0 0 0 0 0 0 0 0 0 0 0 0 0 0 0 0 0 0 0 0 0 0 0 0 0 0 0 0 0 0 0 0 0 0 0 0 0 0 0 0 0 0 0 92 90 91 96 96 -193 106 109 -225 -225 -225 -225 -225 -225 -225 -225 -225 -225 -225 -225 -225 -225 -225 -225 -225 -225 -225 -225 -225 -225 -225 -225 -225 -225 -225 -225 -225 -225 -225 -225 -225 -225 -225 -225 -225 -225 -225 -225 -225 -225 -225 -225 -225 -225 -225 -225 -225 -225 -225 -225 -225 -225 -225 -225 -225 -225 -225 -225 -225 -225 -225 -225 -225 -225 -225 -225 -225 -225 -225 -225 -225 -225 -225 -225 -225 -225 -225 -225 -225 -225 -225 -225 -225 -225 -225 -225 -225 -225 -225 -225 -225 -225 -225 -225 -225 -225 -225 -225 -225 -225 -225 -225 -225 -225 -225 -225 -225 -225 -225 -225 -225 -225 -225 -225 -225 -225 -225 -225 -225 -225 -225 -225 -225 -225 -225 -225 -225 -225 -225 -225 -225 -225 -225 -225 -225 -225 -225 -225 -225 -225 -225 -225 -225 -225 -225 -225 -225 -225 -225 -225 -225 -225 -225 -225 -225 -225 -225 -225 -225 -209 -209 -209 39 54 53 55 56 66 73 73 70 70 70 70 75 -209 -209 -209 79 92 94 92 92 92 90 90 91 92 87 87 89 88 88 88 87 84 83 84 83 79 82 82 85 87 88 90 91 92 88 87 89 -193 69 75 76 -209 -209 -209 -209 -209 -193 -193 -209 -209 -209 -209 -193 -209 -209 102 -193 96 -193 84 87 85 0 0 0 0 0
    0 0 0 0 0 0 0 0 0 0 0 0 0 0 0 0 0 0 0 0 0 0 0 0 0 0 0 0 0 0 0 0 0 0 0 0 0 0 0 0 0 0 0 0 0 0 0 0 0 0 0 0 0 0 0 0 0 0 0 0 0 0 0 0 0 0 0 0 0 92 90 90 93 92 100 105 108 -225 -225 -225 -225 -225 -225 -225 -225 -225 -225 -225 -225 -225 -225 -225 -225 -225 -225 -225 -225 -225 -225 -225 -225 -225 -225 -225 -225 -225 -225 -225 -225 -225 -225 -225 -225 -225 -225 -225 -225 -225 -225 -225 -225 -225 -225 -225 -225 -225 -225 -225 -225 -225 -225 -225 -225 -225 -225 -225 -225 -225 -225 -225 -225 -225 -225 -225 -225 -225 -225 -225 -225 -225 -225 -225 -225 -225 -225 -225 -225 -225 -225 -225 -225 -225 -225 -225 -225 -225 -225 -225 -225 -225 -225 -225 -225 -225 -225 -225 -225 -225 -225 -225 -225 -225 -225 -225 -225 -225 -225 -225 -225 -225 -225 -225 -225 -225 -225 -225 -225 -225 -225 -225 -225 -225 -225 -225 -225 -225 -225 -225 -225 -225 -225 -225 -225 -225 -225 -225 -225 -225 -225 -225 -225 -225 -225 -225 -225 -225 -225 -225 -225 -225 -225 -225 -225 -225 -225 -225 -225 -225 -225 -225 -209 39 55 55 55 56 65 72 73 71 72 -193 72 77 -209 -209 -209 -209 -209 96 94 94 94 91 92 93 94 90 88 90 88 88 89 88 85 83 84 84 79 82 81 85 88 89 90 91 92 89 88 90 -193 70 75 76 -193 -209 -209 -193 -209 -193 -193 -209 -209 -209 -209 -193 -193 102 103 102 101 92 87 89 88 0 0 0 0 0
    0 0 0 0 0 0 0 0 0 0 0 0 0 0 0 0 0 0 0 0 0 0 0 0 0 0 0 0 0 0 0 0 0 0 0 0 0 0 0 0 0 0 0 0 0 0 0 0 0 0 0 0 0 0 0 0 0 0 0 0 0 0 0 0 0 0 0 0 0 -209 -209 -193 -193 -209 -225 -225 -225 -225 -225 -225 -225 -225 -225 -225 -225 -225 -225 -225 -225 -225 -225 -225 -225 -225 -225 -225 -225 -225 -225 -225 -225 -225 -225 -225 -225 -225 -225 -225 -225 -225 -225 -225 -225 -225 -225 -225 -225 -225 -225 -225 -225 -225 -225 -225 -225 -225 -225 -225 -225 -225 -225 -225 -225 -225 -225 -225 -225 -225 -225 -225 -225 -225 -225 -225 -225 -225 -225 -225 -225 -225 -225 -225 -225 -225 -225 -225 -225 -225 -225 -225 -225 -225 -225 -225 -225 -225 -225 -225 -225 -225 -225 -225 -225 -225 -225 -225 -225 -225 -225 -225 -225 -225 -225 -225 -225 -225 -225 -225 -225 -225 -225 -225 -225 -225 -225 -225 -225 -225 -225 -225 -225 -225 -225 -225 -225 -225 -225 -225 -225 -225 -225 -225 -225 -225 -225 -225 -225 -225 -225 -225 -225 -225 -225 -225 -225 -225 -225 -225 -225 -225 -225 -225 -225 -225 -225 -225 -225 -225 -225 -225 -225 -225 55 55 54 56 65 74 74 -193 74 -193 -193 -193 -209 13 -209 -209 -209 100 97 96 96 92 93 94 95 90 89 92 89 89 90 89 87 86 86 86 81 85 83 86 88 89 89 91 91 87 88 90 90 71 80 83 86 -209 91 -209 -209 -193 -193 -209 -209 -209 -193 -193 104 101 103 102 101 92 87 90 90 0 0 0 0 0
    0 0 0 0 0 0 0 0 0 0 0 0 0 0 0 0 0 0 0 0 0 0 0 0 0 0 0 0 0 0 0 0 0 0 0 0 0 0 0 0 0 0 0 0 0 0 0 0 0 0 0 0 0 0 0 0 0 0 0 0 0 0 0 0 0 0 0 0 0 -225 -225 -225 -225 -225 -225 -225 -225 -225 -225 -225 -225 -225 -225 -225 -225 -225 -225 -225 -225 -225 -225 -225 -225 -225 -225 -225 -225 -225 -225 -225 -225 -225 -225 -225 -225 -225 -225 -225 -225 -225 -225 -225 -225 -225 -225 -225 -225 -225 -225 -225 -225 -225 -225 -225 -225 -225 -225 -225 -225 -225 -225 -225 -225 -225 -225 -225 -225 -225 -225 -225 -225 -225 -225 -225 -225 -225 -225 -225 -225 -225 -225 -225 -225 -225 -225 -225 -225 -225 -225 -225 -225 -225 -225 -225 -225 -225 -225 -225 -225 -225 -225 -225 -225 -225 -225 -225 -225 -225 -225 -225 -225 -225 -225 -225 -225 -225 -225 -225 -225 -225 -225 -225 -225 -225 -225 -225 -225 -225 -225 -225 -225 -225 -225 -225 -225 -225 -225 -225 -225 -225 -225 -225 -225 -225 -225 -225 -225 -225 -225 -225 -225 -225 -225 -225 -225 -225 -225 -225 -225 -225 -225 -225 -225 -225 -225 -225 -225 -225 -225 -225 -225 -225 -225 -209 56 57 67 76 76 74 75 76 -209 -209 -209 12 -209 -209 -209 100 98 97 97 93 94 95 95 90 89 92 89 89 90 89 88 87 87 86 82 87 85 87 90 90 90 91 91 88 89 91 92 74 87 89 90 91 94 -193 -209 -193 -193 -209 -209 -209 -209 -209 -209 -209 102 103 -193 94 -193 91 91 0 0 0 0 0
    0 0 0 0 0 0 0 0 0 0 0 0 0 0 0 0 0 0 0 0 0 0 0 0 0 0 0 0 0 0 0 0 0 0 0 0 0 0 0 0 0 0 0 0 0 0 0 0 0 0 0 0 0 0 0 0 0 0 0 0 0 0 0 0 0 0 0 0 0 -225 -225 -225 -225 -225 -225 -225 -225 -225 -225 -225 -225 -225 -225 -225 -225 -225 -225 -225 -225 -225 -225 -225 -225 -225 -225 -225 -225 -225 -225 -225 -225 -225 -225 -225 -225 -225 -225 -225 -225 -225 -225 -225 -225 -225 -225 -225 -225 -225 -225 -225 -225 -225 -225 -225 -225 -225 -225 -225 -225 -225 -225 -225 -225 -225 -225 -225 -225 -225 -225 -225 -225 -225 -225 -225 -225 -225 -225 -225 -225 -225 -225 -225 -225 -225 -225 -225 -225 -225 -225 -225 -225 -225 -225 -225 -225 -225 -225 -225 -225 -225 -225 -225 -225 -225 -225 -225 -225 -225 -225 -225 -225 -225 -225 -225 -225 -225 -225 -225 -225 -225 -225 -225 -225 -225 -225 -225 -225 -225 -225 -225 -225 -225 -225 -225 -225 -225 -225 -225 -225 -225 -225 -225 -225 -225 -225 -225 -225 -225 -225 -225 -225 -225 -225 -225 -225 -225 -225 -225 -225 -225 -225 -225 -225 -225 -225 -225 -225 -225 -225 -225 -225 -225 -225 -225 59 59 67 75 75 74 78 83 -209 -209 -209 -209 -209 -209 -209 100 96 95 96 94 95 96 95 91 91 94 91 90 91 90 88 88 88 87 82 88 87 88 93 94 92 94 95 92 92 94 93 -193 90 90 91 93 95 -193 -209 -193 -209 -209 -209 -193 -193 -193 -209 -209 -209 -209 -209 -209 -209 92 93 0 0 0 0 0
    0 0 0 0 0 0 0 0 0 0 0 0 0 0 0 0 0 0 0 0 0 0 0 0 0 0 0 0 0 0 0 0 0 0 0 0 0 0 0 0 0 0 0 0 0 0 0 0 0 0 0 0 0 0 0 0 0 0 0 0 0 0 0 0 0 0 0 0 0 -225 -225 -225 -225 -225 -225 -225 -225 -225 -225 -225 -225 -225 -225 -225 -225 -225 -225 -225 -225 -225 -225 -225 -225 -225 -225 -225 -225 -225 -225 -225 -225 -225 -225 -225 -225 -225 -225 -225 -225 -225 -225 -225 -225 -225 -225 -225 -225 -225 -225 -225 -225 -225 -225 -225 -225 -225 -225 -225 -225 -225 -225 -225 -225 -225 -225 -225 -225 -225 -225 -225 -225 -225 -225 -225 -225 -225 -225 -225 -225 -225 -225 -225 -225 -225 -225 -225 -225 -225 -225 -225 -225 -225 -225 -225 -225 -225 -225 -225 -225 -225 -225 -225 -225 -225 -225 -225 -225 -225 -225 -225 -225 -225 -225 -225 -225 -225 -225 -225 -225 -225 -225 -225 -225 -225 -225 -225 -225 -225 -225 -225 -225 -225 -225 -225 -225 -225 -225 -225 -225 -225 -225 -225 -225 -225 -225 -225 -225 -225 -225 -225 -225 -225 -225 -225 -225 -225 -225 -225 -225 -225 -225 -225 -225 -225 -225 -225 -225 -225 -225 -225 -225 -225 -225 -225 -209 -209 -209 -209 -209 -209 -209 -209 -209 -209 -209 -209 -209 -209 111 -209 -193 95 97 94 95 97 96 92 91 95 92 92 92 91 90 89 89 89 88 92 91 93 99 99 96 97 97 94 93 95 94 90 90 89 90 92 94 -193 -209 -209 -193 53 52 57 59 59 59 62 -209 -209 -209 -209 -209 94 95 0 0 0 0 0
    0 0 0 0 0 0 0 0 0 0 0 0 0 0 0 0 0 0 0 0 0 0 0 0 0 0 0 0 0 0 0 0 0 0 0 0 0 0 0 0 0 0 0 0 0 0 0 0 0 0 0 0 0 0 0 0 0 0 0 0 0 0 0 0 0 0 0 0 0 -225 -225 -225 -225 -225 -225 -225 -225 -225 -225 -225 -225 -225 -225 -225 -225 -225 -225 -225 -225 -225 -225 -225 -225 -225 -225 -225 -225 -225 -225 -225 -225 -225 -225 -225 -225 -225 -225 -225 -225 -225 -225 -225 -225 -225 -225 -225 -225 -225 -225 -225 -225 -225 -225 -225 -225 -225 -225 -225 -225 -225 -225 -225 -225 -225 -225 -225 -225 -225 -225 -225 -225 -225 -225 -225 -225 -225 -225 -225 -225 -225 -225 -225 -225 -225 -225 -225 -225 -225 -225 -225 -225 -225 -225 -225 -225 -225 -225 -225 -225 -225 -225 -225 -225 -225 -225 -225 -225 -225 -225 -225 -225 -225 -225 -225 -225 -225 -225 -225 -225 -225 -225 -225 -225 -225 -225 -225 -225 -225 -225 -225 -225 -225 -225 -225 -225 -225 -225 -225 -225 -225 -225 -225 -225 -225 -225 -225 -225 -225 -225 -225 -225 -225 -225 -225 -225 -225 -225 -225 -225 -225 -225 -225 -225 -225 -225 -225 -225 -225 -225 -225 -225 -225 -225 -225 20 19 21 23 25 25 -209 -209 -209 -209 -209 -209 -209 -209 -209 -209 -209 -209 -209 -193 94 97 97 93 93 97 95 95 95 93 91 91 91 91 91 96 96 100 103 102 99 99 99 96 93 95 93 -193 83 73 -193 -193 -193 -209 -209 -209 -193 57 56 57 59 60 60 -177 -209 -209 104 -209 -209 96 97 0 0 0 0 0
    0 0 0 0 0 0 0 0 0 0 0 0 0 0 0 0 0 0 0 0 0 0 0 0 0 0 0 0 0 0 0 0 0 0 0 0 0 0 0 0 0 0 0 0 0 0 0 0 0 0 0 0 0 0 0 0 0 0 0 0 0 0 0 0 0 0 0 0 0 -225 -225 -225 -225 -225 -225 -225 -225 -225 -225 -225 -225 -225 -225 -225 -225 -225 -225 -225 -225 0 -256 -1 20310 -225 -225 -225 -225 -225 -225 -225 -225 -225 -225 -225 -225 -225 -225 -225 -225 -225 -225 -225 -225 -225 -225 -225 -225 -225 -225 -225 -225 -225 -225 -225 -225 -225 -225 -225 -225 -225 -225 -225 -225 -225 -225 -225 -225 -225 -225 -225 -225 -225 -225 -225 -225 -225 -225 -225 -225 -225 -225 -225 -225 -225 -225 -225 -225 -225 -225 -225 -225 -225 -225 -225 -225 -225 -225 -225 -225 -225 -225 -225 -225 -225 -225 -225 -225 -225 -225 -225 -225 -225 -225 -225 -225 -225 -225 -225 -225 -225 -225 -225 -225 -225 -225 -225 -225 -225 -225 -225 -225 -225 -225 -225 -225 -225 -225 -225 -225 -225 -225 -225 -225 -225 -225 -225 -225 -225 -225 -225 -225 -225 -225 -225 -225 -225 -225 -225 -225 -225 -225 -225 -225 -225 -225 -225 -225 -225 -225 -225 -225 -225 -225 -225 18 17 21 24 25 -193 -193 -209 -209 -209 -209 -209 -209 -193 -193 -209 -209 -209 -209 -209 -193 99 99 97 97 101 99 101 101 99 95 98 95 95 97 100 100 103 104 103 100 100 99 96 93 96 93 73 75 -193 88 -193 97 -209 -209 -209 -209 -193 -193 59 60 61 61 65 -209 -209 106 107 -209 98 100 0 0 0 0 0
    0 0 0 0 0 0 0 0 0 0 0 0 0 0 0 0 0 0 0 0 0 0 0 0 0 0 0 0 0 0 0 0 0 0 0 0 0 0 0 0 0 0 0 0 0 0 0 0 0 0 0 0 0 0 0 0 0 0 0 0 0 0 0 0 0 0 0 0 0 -225 -225 -225 -225 -225 -225 -225 -225 -225 -225 -225 -225 -225 -225 -225 -225 -225 -225 -225 -225 -225 -225 -225 -225 -225 -225 -225 -225 -225 -225 -225 -225 -225 -225 -225 -225 -225 -225 -225 -225 -225 -225 -225 -225 -225 -225 -225 -225 -225 -225 -225 -225 -225 -225 -225 -225 -225 -225 -225 -225 -225 -225 -225 -225 -225 -225 -225 -225 -225 -225 -225 -225 -225 -225 -225 -225 -225 -225 -225 -225 -225 -225 -225 -225 -225 -225 -225 -225 -225 -225 -225 -225 -225 -225 -225 -225 -225 -225 -225 -225 -225 -225 -225 -225 -225 -225 -225 -225 -225 -225 -225 -225 -225 -225 -225 -225 -225 -225 -225 -225 -225 -225 -225 -225 -225 -225 -225 -225 -225 -225 -225 -225 -225 -225 -225 -225 -225 -225 -225 -225 -225 -225 -225 -225 -225 -225 -225 -225 -225 -225 -225 -225 -225 -225 -225 -225 -225 -225 -225 -225 -225 -225 -225 -225 -225 -225 -225 -225 -225 -225 -225 -225 -225 -225 -209 15 15 20 24 25 -209 -209 -209 -209 -209 -209 -209 -209 0 9 -177 -177 -209 -209 -209 -209 100 101 101 103 104 103 104 105 105 103 107 105 101 104 104 105 108 108 107 102 102 101 99 93 98 94 -193 -193 -193 93 99 104 -209 -209 -209 -209 -209 -193 60 62 63 64 -193 -209 -209 106 108 -209 100 102 0 0 0 0 0
    0 0 0 0 0 0 0 0 0 0 0 0 0 0 0 0 0 0 0 0 0 0 0 0 0 0 0 0 0 0 0 0 0 0 0 0 0 0 0 0 0 0 0 0 0 0 0 0 0 0 0 0 0 0 0 0 0 0 0 0 0 0 0 0 0 0 0 0 0 -225 -225 -225 -225 -225 -225 -225 -225 -225 -225 -225 -225 -225 -225 -225 -225 -225 -225 -225 -225 -225 -225 -225 -225 -225 -225 -225 -225 -225 -225 -225 -225 -225 -225 -225 -225 -225 -225 -225 -225 -225 -225 -225 -225 -225 -225 -225 -225 -225 -225 -225 -225 -225 -225 -225 -225 -225 -225 -225 -225 -225 -225 -225 -225 -225 -225 -225 -225 -225 -225 -225 -225 -225 -225 -225 -225 -225 -225 -225 -225 -225 -225 -225 -225 -225 -225 -225 -225 -225 -225 -225 -225 -225 -225 -225 -225 -225 -225 -225 -225 -225 -225 -225 -225 -225 -225 -225 -225 -225 -225 -225 -225 -225 -225 -225 -225 -225 -225 -225 -225 -225 -225 -225 -225 -225 -225 -225 -225 -225 -225 -225 -225 -225 -225 -225 -225 -225 -225 -225 -225 -225 -225 -225 -225 -225 -225 -225 -225 -225 -225 -225 -225 -225 -225 -225 -225 -225 -225 -225 -225 -225 -225 -225 -225 -225 -225 -225 -225 -225 -225 -225 -225 -225 -209 -209 15 13 19 23 25 -209 -209 -209 -209 -209 -209 -209 -209 0 0 -177 -177 -177 -209 -209 -209 99 100 99 99 99 98 100 98 100 98 103 -193 98 105 106 108 113 111 111 -193 105 106 -209 -193 100 99 94 94 101 100 101 105 105 -209 -209 -193 -209 -193 61 63 64 64 63 -209 -209 -209 -209 -209 -209 -209 0 0 0 0 0
    0 0 0 0 0 0 0 0 0 0 0 0 0 0 0 0 0 0 0 0 0 0 0 0 0 0 0 0 0 0 0 0 0 0 0 0 0 0 0 0 0 0 0 0 0 0 0 0 0 0 0 0 0 0 0 0 0 0 0 0 0 0 0 0 0 0 0 0 0 -225 -225 -225 -225 -225 -225 -225 -225 -225 -225 -225 -225 -225 -225 -225 -225 -225 -225 -225 -225 -225 -225 -225 -225 -225 -225 -225 -225 -225 -225 -225 -225 -225 -225 -225 -225 -225 -225 -225 -225 -225 -225 -225 -225 -225 -225 -225 -225 -225 -225 -225 -225 -225 -225 -225 -225 -225 -225 -225 -225 -225 -225 -225 -225 -225 -225 -225 -225 -225 -225 -225 -225 -225 -225 -225 -225 -225 -225 -225 -225 -225 -225 -225 -225 -225 -225 -225 -225 -225 -225 -225 -225 -225 -225 -225 -225 -225 -225 -225 -225 -225 -225 -225 -225 -225 -225 -225 -225 -225 -225 -225 -225 -225 -225 -225 -225 -225 -225 -225 -225 -225 -225 -225 -225 -225 -225 -225 -225 -225 -225 -225 -225 -225 -225 -225 -225 -225 -225 -225 -225 -225 -225 -225 -225 -225 -225 -225 -225 -225 -225 -225 -225 -225 -225 -225 -225 -225 -225 -225 -225 -225 -225 -225 -225 -225 -225 -225 -225 -225 -225 -225 -225 -225 -209 -209 14 13 19 24 25 -209 -209 -209 -209 -209 -209 -209 -209 -209 0 -177 -193 -209 -209 -209 -209 100 103 101 102 101 100 101 100 101 100 101 105 97 104 108 110 116 114 113 111 108 108 -193 -193 103 104 98 95 100 101 102 106 105 107 105 108 -193 -193 -193 63 64 -193 59 -209 -209 -209 -209 -209 -209 -209 0 0 0 0 0
    0 0 0 0 0 0 0 0 0 0 0 0 0 0 0 0 0 0 0 0 0 0 0 0 0 0 0 0 0 0 0 0 0 0 0 0 0 0 0 0 0 0 0 0 0 0 0 0 0 0 0 0 0 0 0 0 0 0 0 0 0 0 0 0 0 0 0 0 0 -225 -225 -225 -225 -225 -225 -225 -225 -225 -225 -225 -225 -225 -225 -225 -225 -225 -225 -225 -225 -225 -225 -225 -225 -225 -225 -225 -225 -225 -225 -225 -225 -225 -225 -225 -225 -225 -225 -225 -225 -225 -225 -225 -225 -225 -225 -225 -225 -225 -225 -225 -225 -225 -225 -225 -225 -225 -225 -225 -225 -225 -225 -225 -225 -225 -225 -225 -225 -225 -225 -225 -225 -225 -225 -225 -225 -225 -225 -225 -225 -225 -225 -225 -225 -225 -225 -225 -225 -225 -225 -225 -225 -225 -225 -225 -225 -225 -225 -225 -225 -225 -225 -225 -225 -225 -225 -225 -225 -225 -225 -225 -225 -225 -225 -225 -225 -225 -225 -225 -225 -225 -225 -225 -225 -225 -225 -225 -225 -225 -225 -225 -225 -225 -225 -225 -225 -225 -225 -225 -225 -225 -225 -225 -225 -225 -225 -225 -225 -225 -225 -225 -225 -225 -225 -225 -225 -225 -225 -225 -225 -225 -225 -225 -225 -225 -225 -225 -225 -225 -225 -225 -225 -225 -209 -209 14 13 19 23 25 -209 -209 -209 -209 -209 -209 -209 -209 -209 -209 -209 -209 -209 -209 99 -209 101 105 104 105 105 104 103 104 104 106 105 114 -209 114 120 118 120 117 115 114 110 110 109 -193 105 106 102 100 103 104 103 107 107 109 106 109 112 114 -193 -193 -209 -209 -193 -209 -209 -209 -209 -209 -209 -209 0 0 0 0 0
    0 0 0 0 0 0 0 0 0 0 0 0 0 0 0 0 0 0 0 0 0 0 0 0 0 0 0 0 0 0 0 0 0 0 0 0 0 0 0 0 0 0 0 0 0 0 0 0 0 0 0 0 0 0 0 0 0 0 0 0 0 0 0 0 0 0 0 0 0 -225 -225 -225 -225 -225 -225 -225 -225 -225 -225 -225 -225 -225 -225 -225 -225 -225 -225 -225 -225 -225 -225 -225 -225 -225 -225 -225 -225 -225 -225 -225 -225 -225 -225 -225 -225 -225 -225 -225 -225 -225 -225 -225 -225 -225 -225 -225 -225 -225 -225 -225 -225 -225 -225 -225 -225 -225 -225 -225 -225 -225 -225 -225 -225 -225 -225 -225 -225 -225 -225 -225 -225 -225 -225 -225 -225 -225 -225 -225 -225 -225 -225 -225 -225 -225 -225 -225 -225 -225 -225 -225 -225 -225 -225 -225 -225 -225 -225 -225 -225 -225 -225 -225 -225 -225 -225 -225 -225 -225 -225 -225 -225 -225 -225 -225 -225 -225 -225 -225 -225 -225 -225 -225 -225 -225 -225 -225 -225 -225 -225 -225 -225 -225 -225 -225 -225 -225 -225 -225 -225 -225 -225 -225 -225 -225 -225 -225 -225 -225 -225 -225 -225 -225 -225 -225 -225 -225 -225 -225 -225 -225 -225 -225 -225 -225 -225 -225 -225 -225 -225 -225 -225 -225 -209 -209 15 14 19 23 24 -209 -209 -209 -209 -209 -209 -209 -209 -209 -209 -209 -209 -209 -209 -209 -209 -193 114 109 108 108 107 107 107 107 110 109 121 126 123 123 122 123 121 119 118 114 113 112 110 108 109 106 -193 105 105 104 108 108 109 106 109 113 115 -209 -193 -209 -209 -209 -209 -209 -209 -209 -209 -209 -209 0 0 0 0 0
    0 0 0 0 0 0 0 0 0 0 0 0 0 0 0 0 0 0 0 0 0 0 0 0 0 0 0 0 0 0 0 0 0 0 0 0 0 0 0 0 0 0 0 0 0 0 0 0 0 0 0 0 0 0 0 0 0 0 0 0 0 0 0 0 0 0 0 0 0 -225 -225 -225 -225 -225 -225 -225 -225 -225 -225 -225 -225 -225 -225 -225 -225 -225 -225 -225 -225 -225 -225 -225 -225 -225 -225 -225 -225 -225 -225 -225 -225 -225 -225 -225 -225 -225 -225 -225 -225 -225 -225 -225 -225 -225 -225 -225 -225 -225 -225 -225 -225 -225 -225 -225 -225 -225 -225 -225 -225 -225 -225 -225 -225 -225 -225 -225 -225 -225 -225 -225 -225 -225 -225 -225 -225 -225 -225 -225 -225 -225 -225 -225 -225 -225 -225 -225 -225 -225 -225 -225 -225 -225 -225 -225 -225 -225 -225 -225 -225 -225 -225 -225 -225 -225 -225 -225 -225 -225 -225 -225 -225 -225 -225 -225 -225 -225 -225 -225 -225 -225 -225 -225 -225 -225 -225 -225 -225 -225 -225 -225 -225 -225 -225 -225 -225 -225 -225 -225 -225 -225 -225 -225 -225 -225 -225 -225 -225 -225 -225 -225 -225 -225 -225 -225 -225 -225 -225 -225 -225 -225 -225 -225 -225 -225 -225 -225 -225 -225 -225 -225 -225 -225 -209 -209 -209 15 19 -193 -193 -209 19 -209 -209 -209 -209 -209 -209 -209 -209 -209 -209 -209 -209 -209 -209 -193 115 113 111 110 111 111 111 113 116 117 122 126 124 124 124 124 124 122 121 121 119 -193 -209 117 -193 -209 -209 -193 -193 105 110 108 109 106 109 113 117 112 114 -209 -209 118 -193 125 -209 -209 -209 124 -209 0 0 0 0 0
    0 0 0 0 0 0 0 0 0 0 0 0 0 0 0 0 0 0 0 0 0 0 0 0 0 0 0 0 0 0 0 0 0 0 0 0 0 0 0 0 0 0 0 0 0 0 0 0 0 0 0 0 0 0 0 0 0 0 0 0 0 0 0 0 0 0 0 0 0 -225 -225 -225 -225 -225 -225 -225 -225 -225 -225 -225 -225 -225 -225 -225 -225 -225 -225 -225 -225 -225 -225 -225 -225 -225 -225 -225 -225 -225 -225 -225 -225 -225 -225 -225 -225 -225 -225 -225 -225 -225 -225 -225 -225 -225 -225 -225 -225 -225 -225 -225 -225 -225 -225 -225 -225 -225 -225 -225 -225 -225 -225 -225 -225 -225 -225 -225 -225 -225 -225 -225 -225 -225 -225 -225 -225 -225 -225 -225 -225 -225 -225 -225 -225 -225 -225 -225 -225 -225 -225 -225 -225 -225 -225 -225 -225 -225 -225 -225 -225 -225 -225 -225 -225 -225 -225 -225 -225 -225 -225 -225 -225 -225 -225 -225 -225 -225 -225 -225 -225 -225 -225 -225 -225 -225 -225 -225 -225 -225 -225 -225 -225 -225 -225 -225 -225 -225 -225 -225 -225 -225 -225 -225 -225 -225 -225 -225 -225 -225 -225 -225 -225 -225 -225 -225 -225 -225 -225 -225 -225 -225 -225 -225 -225 -225 -225 -225 -225 -225 -225 -225 -225 -225 -209 -209 -209 -209 -209 -209 -209 -209 17 19 -209 11 12 14 -209 -209 -193 -209 -209 -209 -209 -209 -209 -209 116 115 115 114 116 116 116 118 120 121 123 126 124 124 125 125 126 123 123 123 122 122 -193 122 -193 117 -209 -193 106 106 112 110 110 108 110 113 118 119 118 -193 -193 -193 123 125 124 122 122 125 126 0 0 0 0 0
    0 0 0 0 0 0 0 0 0 0 0 0 0 0 0 0 0 0 0 0 0 0 0 0 0 0 0 0 0 0 0 0 0 0 0 0 0 0 0 0 0 0 0 0 0 0 0 0 0 0 0 0 0 0 0 0 0 0 0 0 0 0 0 0 0 0 0 0 0 -225 -225 -225 -225 -225 -225 -225 -225 -225 -225 -225 -225 -225 -225 -225 -225 -225 -225 -225 -225 -225 -225 -225 -225 -225 -225 -225 -225 -225 -225 -225 -225 -225 -225 -225 -225 -225 -225 -225 -225 -225 -225 -225 -225 -225 -225 -225 -225 -225 -225 -225 -225 -225 -225 -225 -225 -225 -225 -225 -225 -225 -225 -225 -225 -225 -225 -225 -225 -225 -225 -225 -225 -225 -225 -225 -225 -225 -225 -225 -225 -225 -225 -225 -225 -225 -225 -225 -225 -225 -225 -225 -225 -225 -225 -225 -225 -225 -225 -225 -225 -225 -225 -225 -225 -225 -225 -225 -225 -225 -225 -225 -225 -225 -225 -225 -225 -225 -225 -225 -225 -225 -225 -225 -225 -225 -225 -225 -225 -225 -225 -225 -225 -225 -225 -225 -225 -225 -225 -225 -225 -225 -225 -225 -225 -225 -225 -225 -225 -225 -225 -225 -225 -225 -225 -225 -225 -225 -225 -225 -225 -225 -225 -225 -225 -225 -225 -225 -225 -225 -225 -225 -225 -225 -209 -209 -209 -209 -209 -209 -209 -209 -209 -209 -209 -209 9 -193 9 -193 0 -193 -209 -209 -209 -209 -209 -209 119 117 118 117 -193 -193 -193 -193 122 121 123 127 124 124 125 125 126 123 124 123 122 122 -193 122 121 116 117 108 107 108 112 111 111 109 111 116 120 122 121 -193 123 123 125 128 127 124 123 125 127 0 0 0 0 0
    0 0 0 0 0 0 0 0 0 0 0 0 0 0 0 0 0 0 0 0 0 0 0 0 0 0 0 0 0 0 0 0 0 0 0 0 0 0 0 0 0 0 0 0 0 0 0 0 0 0 0 0 0 0 0 0 0 0 0 0 0 0 0 0 0 0 0 0 0 -209 -209 135 -193 143 -225 -225 -225 -225 -225 -225 -225 -225 -225 -225 -225 -225 -225 -225 -225 -225 -225 -225 -225 -225 -225 -225 -225 -225 -225 -225 -225 -225 -225 -225 -225 -225 -225 -225 -225 -225 -225 -225 -225 -225 -225 -225 -225 -225 -225 -225 -225 -225 -225 -225 -225 -225 -225 -225 -225 -225 -225 -225 -225 -225 -225 -225 -225 -225 -225 -225 -225 -225 -225 -225 -225 -225 -225 -225 -225 -225 -225 -225 -225 -225 -225 -225 -225 -225 -225 -225 -225 -225 -225 -225 -225 -225 -225 -225 -225 -225 -225 -225 -225 -225 -225 -225 -225 -225 -225 -225 -225 -225 -225 -225 -225 -225 -225 -225 -225 -225 -225 -225 -225 -225 -225 -225 -225 -225 -225 -225 -225 -225 -225 -225 -225 -225 -225 -225 -225 -225 -225 -225 -225 -225 -225 -225 -225 -225 -225 -225 -225 -225 -225 -225 -225 -225 -225 -225 -225 -225 -225 -225 -225 -225 -225 -225 -225 -225 -225 -225 -225 -209 -209 -209 -209 -209 -209 -209 -209 -209 -209 -209 -209 -193 -193 0 -193 -193 0 -193 -177 -177 -209 -209 -209 -209 -209 117 118 -193 -209 119 120 121 124 123 125 129 126 125 125 125 127 123 124 124 122 122 122 122 120 114 116 108 107 108 111 110 110 108 111 115 119 122 122 123 124 124 127 131 129 125 124 126 127 0 0 0 0 0
    0 0 0 0 0 0 0 0 0 0 0 0 0 0 0 0 0 0 0 0 0 0 0 0 0 0 0 0 0 0 0 0 0 0 0 0 0 0 0 0 0 0 0 0 0 0 0 0 0 0 0 0 0 0 0 0 0 0 0 0 0 0 0 0 0 0 0 0 0 141 -193 141 145 150 153 156 159 167 171 -225 -225 -225 -225 -209 -209 -209 -225 -225 -225 -225 -225 -225 -225 -225 -225 -225 -225 -225 -225 -225 -225 -225 -225 -225 -225 -225 -225 -225 -225 -225 -225 -225 -225 -225 -225 -225 -225 -225 -225 -225 -225 -225 -225 -225 -225 -225 -225 -225 -225 -225 -225 -225 -225 -225 -225 -225 -225 -225 -225 -225 -225 -225 -225 -225 -225 -225 -225 -225 -225 -225 -225 -225 -225 -225 -225 -225 -225 -225 -225 -225 -225 -225 -225 -225 -225 -225 -225 -225 -225 -225 -225 -225 -225 -225 -225 -225 -225 -225 -225 -225 -225 -225 -225 -225 -225 -225 -225 -225 -225 -225 -225 -225 -225 -225 -225 -225 -225 -225 -225 -225 -225 -225 -225 -225 -225 -225 -225 -225 -225 -225 -225 -225 -225 -225 -225 -225 -225 -225 -225 -225 -225 -225 -225 -225 -225 -225 -225 -225 -225 -225 -225 -225 -225 -225 -225 -225 -225 -225 22 20 19 21 19 18 -209 -209 -209 -209 -209 -209 -209 -209 -193 0 0 0 0 -177 0 -193 0 0 -209 -209 -209 -209 137 -193 134 -193 -193 -209 -193 -209 129 126 128 131 128 129 128 126 129 124 125 126 123 123 -193 -193 -193 118 -209 -209 108 108 112 110 110 110 116 118 121 124 127 128 127 127 129 132 131 128 127 128 130 0 0 0 0 0
    0 0 0 0 0 0 0 0 0 0 0 0 0 0 0 0 0 0 0 0 0 0 0 0 0 0 0 0 0 0 0 0 0 0 0 0 0 0 0 0 0 0 0 0 0 0 0 0 0 0 0 0 0 0 0 0 0 0 0 0 0 0 0 0 0 0 0 0 0 146 147 148 150 153 159 158 163 168 171 166 -225 154 156 154 157 155 157 156 158 158 157 155 156 -209 -209 -225 -225 -225 -225 -225 -225 -225 -225 -225 -225 -225 -225 -225 -225 -225 -225 -225 -225 -225 -225 -225 -225 -225 -225 -225 -225 -225 -225 -225 -225 -225 -225 -225 -225 -225 -225 -225 -225 -225 -225 -225 -225 -225 -225 -225 -225 -225 -225 -225 -225 -225 -225 -225 -225 -225 -225 -225 -225 -225 -225 -225 -225 -225 -225 -225 -225 -225 -225 -225 -225 -225 -225 -225 -225 -225 -225 -225 -225 -225 -225 -225 -225 -225 -225 -225 -225 -225 -225 -225 -225 -225 -225 -225 -225 -225 -225 -225 -225 -225 -225 -225 -225 -225 -225 -225 -225 -225 -225 -225 -225 -225 -225 -225 -225 -225 -225 -225 -225 -225 -225 -225 -225 -225 -225 -225 -225 -225 -225 -225 -225 -225 -225 -225 -225 -225 -225 -225 -225 33 32 25 25 24 20 16 15 18 -193 -193 -177 148 147 -177 -177 -177 -209 -209 -209 -193 -209 0 0 9 -177 -177 -193 -209 -209 -209 -177 138 140 142 140 141 141 -193 -193 132 132 129 130 132 129 130 129 127 130 127 130 130 127 126 125 131 133 122 125 122 -209 118 120 119 121 119 124 127 127 131 136 134 133 132 132 134 132 131 131 131 132 0 0 0 0 0
    0 0 0 0 0 0 0 0 0 0 0 0 0 0 0 0 0 0 0 0 0 0 0 0 0 0 0 0 0 0 0 0 0 0 0 0 0 0 0 0 0 0 0 0 0 0 0 0 0 0 0 0 0 0 0 0 0 0 0 0 0 0 0 0 0 0 0 0 0 150 150 152 -193 155 165 162 167 169 171 157 155 156 160 159 159 158 159 162 161 161 160 157 157 156 155 155 154 152 -225 -225 -225 -225 -225 -225 -225 -225 -225 -225 -225 -225 -225 -225 -225 -225 -225 -225 -225 -225 -225 -225 -225 -225 -225 -225 -225 -225 -225 -225 -225 -225 -225 -225 -225 -225 -225 -225 -225 -225 -225 -225 -225 -225 -225 -225 -225 -225 -225 -225 -225 -225 -225 -225 -225 -225 -225 -225 -225 -225 -225 -225 -225 -225 -225 -225 -225 -225 -225 -225 -225 -225 -225 -225 -225 -225 -225 -225 -225 -225 -225 -225 -225 -225 -225 -225 -225 -225 -225 -225 -225 -225 -225 -225 -225 -225 -225 -225 -225 -225 -225 -225 -225 -225 -225 -225 -225 -225 -225 -225 -225 -225 -225 -225 -225 -225 -225 -225 -225 -225 -225 -225 -225 -225 -225 -225 -225 -225 -225 -225 -225 -225 -225 31 26 27 27 23 22 21 14 11 11 15 -193 -177 -177 -177 -177 -177 -177 -177 -209 -209 -209 -209 -209 -193 -177 -177 -177 -177 -193 -209 -209 135 136 139 141 143 142 142 141 140 138 138 137 132 132 133 130 131 130 130 132 132 134 134 133 133 131 135 136 135 128 128 134 129 134 -193 135 137 135 139 138 137 138 137 135 134 133 135 133 132 132 132 133 0 0 0 0 0
    0 0 0 0 0 0 0 0 0 0 0 0 0 0 0 0 0 0 0 0 0 0 0 0 0 0 0 0 0 0 0 0 0 0 0 0 0 0 0 0 0 0 0 0 0 0 0 0 0 0 0 0 0 0 0 0 0 0 0 0 0 0 0 0 0 0 0 0 0 152 153 156 156 158 167 164 168 169 171 152 152 157 157 157 157 157 157 161 160 160 157 156 156 156 155 155 153 152 150 153 -225 -225 -225 -225 -225 -225 -225 -225 -225 -225 -225 -225 -225 -225 -225 -225 -225 -225 -225 -225 -225 -225 -225 -225 -225 -225 -225 -225 -225 -225 -225 -225 -225 -225 -225 -225 -225 -225 -225 -225 -225 -225 -225 -225 -225 -225 -225 -225 -225 -225 -225 -225 -225 -225 -225 -225 -225 -225 -225 -225 -225 -225 -225 -225 -225 -225 -225 -225 -225 -225 -225 -225 -225 -225 -225 -225 -225 -225 -225 -225 -225 -225 -225 -225 -225 -225 -225 -225 -225 -225 -225 -225 -225 -225 -225 -225 -225 -225 -225 -225 -225 -225 -225 -225 -225 -225 -225 -225 -225 -225 -225 -225 -225 -225 -225 -225 -225 -225 -225 -225 -225 -225 -225 -225 -225 -225 -225 -225 -225 -225 -209 -209 24 26 25 22 21 21 15 11 11 -193 141 -177 -177 -177 -177 -177 142 146 -193 -193 -209 -209 -193 -209 -193 -177 -177 -177 -193 -209 -209 137 138 140 143 146 145 143 143 142 139 140 139 136 134 134 132 132 131 131 132 132 135 135 134 135 133 136 137 -193 133 133 138 137 136 138 137 139 137 141 140 139 139 138 136 135 134 135 133 133 133 133 134 0 0 0 0 0
    0 0 0 0 0 0 0 0 0 0 0 0 0 0 0 0 0 0 0 0 0 0 0 0 0 0 0 0 0 0 0 0 0 0 0 0 0 0 0 0 0 0 0 0 0 0 0 0 0 0 0 0 0 0 0 0 0 0 0 0 0 0 0 0 0 0 0 0 0 155 157 160 167 162 169 166 168 169 -193 150 151 154 153 154 155 156 155 158 158 158 156 156 156 156 155 155 153 152 151 153 154 -225 -225 -225 -225 -225 -225 -225 -225 -225 -225 -225 -225 -225 -225 -225 -225 -225 -225 -225 -225 -225 -225 -225 -225 -225 -225 -225 -225 -225 -225 -225 -225 -225 -225 -225 -225 -225 -225 -225 -225 -225 -225 -225 -225 -225 -225 -225 -225 -225 -225 -225 -225 -225 -225 -225 -225 -225 -225 -225 -225 -225 -225 -225 -225 -225 -225 -225 -225 -225 -225 -225 -225 -225 -225 -225 -225 -225 -225 -225 -225 -225 -225 -225 -225 -225 -225 -225 -225 -225 -225 -225 -225 -225 -225 -225 -225 -225 -225 -225 -225 -225 -225 -225 -225 -225 -225 -225 -225 -225 -225 -225 -225 -225 -225 -225 -225 -225 -225 -225 -225 -225 -225 -225 -225 -225 -209 -209 -209 -209 -209 -209 -209 25 24 21 21 20 17 12 12 -193 -193 -177 -177 -177 -177 -177 141 144 -193 -209 -209 -193 -193 -209 -193 -177 -177 -177 -193 -209 -209 -193 139 141 145 148 147 146 145 145 143 144 144 -193 -209 -209 135 135 132 129 131 133 137 136 136 136 134 137 138 138 135 135 138 137 137 140 139 141 142 144 144 141 140 141 138 137 134 135 132 133 134 134 134 0 0 0 0 0
    0 0 0 0 0 0 0 0 0 0 0 0 0 0 0 0 0 0 0 0 0 0 0 0 0 0 0 0 0 0 0 0 0 0 0 0 0 0 0 0 0 0 0 0 0 0 0 0 0 0 0 0 0 0 0 0 0 0 0 0 0 0 0 0 0 0 0 0 0 159 163 165 169 165 169 166 168 169 -193 148 150 152 152 153 154 155 154 157 157 158 156 156 156 156 155 155 153 153 153 154 155 -225 -225 -225 -225 -225 -225 -225 -225 -225 -225 -225 -225 -225 -225 -225 -225 -225 -225 -225 -225 -225 -225 -225 -225 -225 -225 -225 -225 -225 -225 -225 -225 -225 -225 -225 -225 -225 -225 -225 -225 -225 -225 -225 -225 -225 -225 -225 -225 -225 -225 -225 -225 -225 -225 -225 -225 -225 -225 -225 -225 -225 -225 -225 -225 -225 -225 -225 -225 -225 -225 -225 -225 -225 -225 -225 -225 -225 -225 -225 -225 -225 -225 -225 -225 -225 -225 -225 -225 -225 -225 -225 -225 -225 -225 -225 -225 -225 -225 -225 -225 -225 -225 -225 -225 -225 -225 -225 -225 -225 -225 -225 -225 -225 -225 -225 -225 -225 -225 -225 -225 -225 -225 -225 -225 -225 -209 -209 -209 -209 -209 -209 -209 25 23 20 20 20 16 13 -177 -177 -193 -177 -177 -193 -177 141 141 144 142 -193 -209 -193 -193 -209 -193 -177 -177 -193 -193 -193 -209 -209 -193 142 146 148 148 148 146 147 146 148 149 -209 -193 -193 -209 -193 -209 -209 131 -193 140 140 141 141 139 141 142 142 138 139 141 141 140 143 143 144 146 147 148 147 144 146 143 140 136 -209 132 132 135 135 134 0 0 0 0 0
    0 0 0 0 0 0 0 0 0 0 0 0 0 0 0 0 0 0 0 0 0 0 0 0 0 0 0 0 0 0 0 0 0 0 0 0 0 0 0 0 0 0 0 0 0 0 0 0 0 0 0 0 0 0 0 0 0 0 0 0 0 0 0 0 0 0 0 0 0 166 167 168 170 167 169 167 168 169 -193 148 149 152 152 153 154 155 155 157 158 158 156 156 156 156 155 155 154 153 153 154 155 -225 -225 -225 -225 -225 -225 -225 -225 -225 -225 -225 -225 -225 -225 -225 -225 -225 -225 -225 -225 -225 -225 -225 -225 -225 -225 -225 -225 -225 -225 -225 -225 -225 -225 -225 -225 -225 -225 -225 -225 -225 -225 -225 -225 -225 -225 -225 -225 -225 -225 -225 -225 -225 -225 -225 -225 -225 -225 -225 -225 -225 -225 -225 -225 -225 -225 -225 -225 -225 -225 -225 -225 -225 -225 -225 -225 -225 -225 -225 -225 -225 -225 -225 -225 -225 -225 -225 -225 -225 -225 -225 -225 -225 -225 -225 -225 -225 -225 -225 -225 -225 -225 -225 -225 -225 -225 -225 -225 -225 -225 -225 -225 -225 -225 -225 -225 -225 -225 -225 -225 -225 -225 -225 -225 -225 -209 -209 -209 -209 -209 -209 -209 25 23 19 20 19 16 15 17 -177 -209 -209 -177 -177 -177 142 142 145 143 143 -193 -193 -193 -193 -209 -193 -209 -193 -193 -193 -209 -209 -193 144 147 149 149 147 146 148 147 150 150 -209 -193 -193 -209 -209 -209 -209 -209 -193 142 145 145 146 147 147 148 147 146 145 146 148 147 148 149 149 151 150 151 152 150 151 153 150 -209 -209 -209 134 136 136 135 0 0 0 0 0
    0 0 0 0 0 0 0 0 0 0 0 0 0 0 0 0 0 0 0 0 0 0 0 0 0 0 0 0 0 0 0 0 0 0 0 0 0 0 0 0 0 0 0 0 0 0 0 0 0 0 0 0 0 0 0 0 0 0 0 0 0 0 0 0 0 0 0 0 0 168 169 169 170 168 169 167 168 170 -193 147 149 152 153 154 154 155 155 158 158 158 156 156 156 156 155 155 154 153 153 154 155 -225 -225 -225 -225 -225 -225 -225 -225 -225 -225 -225 -225 -225 -225 -225 -225 -225 -225 -225 -225 -225 -225 -225 -225 -225 -225 -225 -225 -225 -225 -225 -225 -225 -225 -225 -225 -225 -225 -225 -225 -225 -225 -225 -225 -225 -225 -225 -225 -225 -225 -225 -225 -225 -225 -225 -225 -225 -225 -225 -225 -225 -225 -225 -225 -225 -225 -225 -225 -225 -225 -225 -225 -225 -225 -225 -225 -225 -225 -225 -225 -225 -225 -225 -225 -225 -225 -225 -225 -225 -225 -225 -225 -225 -225 -225 -225 -225 -225 -225 -225 -225 -225 -225 -225 -225 -225 -225 -225 -225 -225 -225 -225 -225 -225 -225 -225 -225 -225 -225 -225 -225 -225 -225 -225 -209 -209 -209 -209 -209 -209 -209 -209 -209 23 19 20 19 16 15 18 -177 -209 -209 -177 -177 -177 142 143 146 146 145 147 -193 146 146 -209 -209 -209 140 -193 145 -209 -209 -193 147 150 -209 -209 -193 148 149 149 -209 -193 -209 -209 -193 -209 -209 -209 -209 -209 -209 146 150 150 150 151 150 -193 150 150 150 148 151 150 151 152 152 153 152 152 154 153 153 155 -193 -193 -209 -209 135 136 138 137 0 0 0 0 0
    0 0 0 0 0 0 0 0 0 0 0 0 0 0 0 0 0 0 0 0 0 0 0 0 0 0 0 0 0 0 0 0 0 0 0 0 0 0 0 0 0 0 0 0 0 0 0 0 0 0 0 0 0 0 0 0 0 0 0 0 0 0 0 0 0 0 0 0 0 169 170 170 170 170 170 170 170 171 172 147 150 153 153 154 154 156 155 158 158 158 157 156 156 156 155 155 154 153 153 154 155 -225 -225 -225 -225 -225 -225 -225 -225 -225 -225 -225 -225 -225 -225 -225 -225 -225 -225 -225 -225 -225 -225 -225 -225 -225 -225 -225 -225 -225 -225 -225 -225 -225 -225 -225 -225 -225 -225 -225 -225 -225 -225 -225 -225 -225 -225 -225 -225 -225 -225 -225 -225 -225 -225 -225 -225 -225 -225 -225 -225 -225 -225 -225 -225 -225 -225 -225 -225 -225 -225 -225 -225 -225 -225 -225 -225 -225 -225 -225 -225 -225 -225 -225 -225 -225 -225 -225 -225 -225 -225 -225 -225 -225 -225 -225 -225 -225 -225 -225 -225 -225 -225 -225 -225 -225 -225 -225 -225 -225 -225 -225 -225 -225 -225 -225 -225 -225 -225 -225 -225 -225 -225 -225 -225 -209 -209 -209 -209 -209 -209 -209 -209 -209 -193 19 19 17 14 -177 -177 -177 -209 -177 -177 -177 140 142 142 146 145 145 148 148 147 148 -209 -209 -209 142 147 146 -209 -209 -193 -209 -209 -209 -209 -209 -209 -209 -209 599 -209 -209 -209 315 -209 -193 -209 -209 -209 -209 -209 -209 -193 -193 -193 -209 -193 151 153 152 150 152 151 152 152 153 153 152 153 154 154 155 156 154 -209 -209 -209 -193 137 139 139 0 0 0 0 0
    0 0 0 0 0 0 0 0 0 0 0 0 0 0 0 0 0 0 0 0 0 0 0 0 0 0 0 0 0 0 0 0 0 0 0 0 0 0 0 0 0 0 0 0 0 0 0 0 0 0 0 0 0 0 0 0 0 0 0 0 0 0 0 0 0 0 0 0 0 172 173 172 172 172 173 172 172 173 174 151 151 156 154 155 155 156 155 158 158 158 157 156 156 157 155 156 154 154 153 154 156 -225 -225 -225 -225 -225 -225 -225 -225 -225 -225 -225 -225 -225 -225 -225 -225 -225 -225 -225 -225 -225 -225 -225 -225 -225 -225 -225 -225 -225 -225 -225 -225 -225 -225 -225 -225 -225 -225 -225 -225 -225 -225 -225 -225 -225 -225 -225 -225 -225 -225 -225 -225 -225 -225 -225 -225 -225 -225 -225 -225 -225 -225 -225 -225 -225 -225 -225 -225 -225 -225 -225 -225 -225 -225 -225 -225 -225 -225 -225 -225 -225 -225 -225 -225 -225 -225 -225 -225 -225 -225 -225 -225 -225 -225 -225 -225 -225 -225 -225 -225 -225 -225 -225 -225 -225 -225 -225 -225 -225 -225 -225 -225 -225 -225 -225 -225 -225 -225 -225 -225 -225 -225 -225 -225 -209 -209 -209 -209 -209 -209 -209 -209 -209 16 13 14 11 10 12 -177 -177 -209 -209 -193 -177 -193 140 141 144 144 144 148 149 148 149 149 148 146 147 152 150 151 -209 -209 -209 -209 -209 -209 -209 -209 -209 -209 -209 -193 -193 -209 -209 -209 -209 -209 -209 -209 -209 -193 -193 -193 -193 -193 -209 -193 153 154 154 152 153 153 153 153 153 153 151 153 154 155 156 159 -209 -209 -193 -193 -209 -209 -193 -193 0 0 0 0 0
    0 0 0 0 0 0 0 0 0 0 0 0 0 0 0 0 0 0 0 0 0 0 0 0 0 0 0 0 0 0 0 0 0 0 0 0 0 0 0 0 0 0 0 0 0 0 0 0 0 0 0 0 0 0 0 0 0 0 0 0 0 0 0 0 0 0 0 0 0 176 176 175 175 175 175 175 174 175 176 -193 -193 161 155 155 155 156 155 158 158 158 156 156 156 157 155 157 154 155 155 156 160 -225 -225 -225 -225 -225 -225 -225 -225 -225 -225 -225 -225 -225 -225 -225 -225 -225 -225 -225 -225 -225 -225 -225 -225 -225 -225 -225 -225 -225 -225 -225 -225 -225 -225 -225 -225 -225 -225 -225 -225 -225 -225 -225 -225 -225 -225 -225 -225 -225 -225 -225 -225 -225 -225 -225 -225 -225 -225 -225 -225 -225 -225 -225 -225 -225 -225 -225 -225 -225 -225 -225 -225 -225 -225 -225 -225 -225 -225 -225 -225 -225 -225 -225 -225 -225 -225 -225 -225 -225 -225 -225 -225 -225 -225 -225 -225 -225 -225 -225 -225 -225 -225 -225 -225 -225 -225 -225 -225 -225 -225 -225 -225 -225 -225 -225 -225 -225 -225 -225 -225 -225 -225 -225 -209 -209 -209 -209 -209 -209 -209 -209 -209 -209 -209 14 -209 13 -209 -209 -209 -209 -209 -209 -193 118 -209 -209 -209 149 -193 -193 -193 -193 152 153 153 153 152 151 156 156 156 160 -209 166 169 -193 -209 -209 -209 -209 -193 -209 158 -193 -209 -209 -209 -209 388 -193 -209 -209 -193 -193 -193 -193 -193 -193 -193 -193 155 155 154 155 154 154 153 153 153 152 154 155 157 158 163 -209 -209 -193 -193 22 -209 -209 -209 0 0 0 0 0</data></disparity>
</opencv_storage>
