<?xml version="1.0"?>
<opencv_storage>
<gps_time_stamp>39543</gps_time_stamp>
<gps_x>-1.4011891365051270e+001</gps_x>
<gps_y>1.5476375818252563e+000</gps_y>
<gps_z>-4.2815489768981934e+000</gps_z>
<image_time_stamp>27464</image_time_stamp>
<disparity type_id="opencv-matrix">
  <rows>93</rows>
  <cols>320</cols>
  <dt>s</dt>
  <data>
    0 0 0 0 0 0 0 0 0 0 0 0 0 0 0 0 0 0 0 0 0 0 0 0 0 0 0 0 0 0 0 0 0 0 0 0 0 0 0 0 0 0 0 0 0 0 0 0 0 0 0 0 0 0 0 0 0 0 0 0 0 0 0 0 0 0 0 0 0 0 0 0 0 0 0 0 0 0 0 9 9 0 0 0 0 0 0 0 0 0 0 0 0 0 0 0 0 0 0 0 0 0 10 9 9 0 0 9 0 0 0 -193 0 0 0 0 0 -193 10 10 0 0 9 0 0 0 0 0 0 0 0 0 9 12 14 12 12 12 11 11 11 10 10 9 10 10 10 12 12 12 13 13 14 13 14 12 12 14 11 9 0 0 0 0 0 0 0 0 0 0 9 9 9 9 11 12 -193 9 17 13 13 12 12 -193 11 11 12 0 0 0 10 10 10 12 12 11 12 12 13 12 12 16 13 13 14 12 10 10 10 11 9 14 12 11 12 14 14 16 16 14 11 17 20 15 15 16 16 15 16 16 16 15 17 16 18 16 16 17 16 17 17 17 17 14 18 18 16 21 19 19 20 21 23 21 22 22 21 22 23 22 22 21 24 23 23 23 23 22 23 23 24 25 25 25 26 28 27 28 27 27 27 27 26 26 27 28 27 26 27 26 27 -193 28 29 28 28 30 31 31 31 30 30 30 32 33 32 34 35 38 39 39 39 39 41 41 0 0 0 0 0
    0 0 0 0 0 0 0 0 0 0 0 0 0 0 0 0 0 0 0 0 0 0 0 0 0 0 0 0 0 0 0 0 0 0 0 0 0 0 0 0 0 0 0 0 0 0 0 0 0 0 0 0 0 0 0 0 0 0 0 0 0 0 0 0 0 0 0 0 0 0 0 0 0 0 0 0 0 0 0 9 0 0 0 0 0 0 0 0 0 0 0 0 0 0 0 0 0 0 0 0 0 0 9 0 0 0 0 0 0 0 0 0 0 0 0 0 0 -193 10 10 0 0 9 0 0 0 0 0 0 0 9 0 10 13 14 12 12 12 11 11 11 11 10 9 10 10 9 12 11 11 12 12 13 12 13 12 11 13 11 10 0 0 0 0 0 0 0 0 0 0 9 9 9 9 10 11 -193 0 17 12 13 12 11 -193 10 11 12 0 0 0 9 10 10 11 12 11 12 12 13 12 12 16 13 13 14 11 9 10 10 10 9 14 11 11 12 15 14 16 16 14 11 16 20 15 15 16 15 15 16 16 16 15 17 16 18 16 16 17 16 17 17 16 17 13 17 18 16 20 18 18 20 21 23 21 22 22 21 23 23 23 22 21 24 23 23 23 23 22 23 23 24 24 25 25 26 28 27 28 28 27 28 27 27 27 27 28 27 26 26 25 25 -193 26 -193 27 27 29 30 30 30 30 29 30 32 33 32 33 34 38 39 39 39 40 41 41 0 0 0 0 0
    0 0 0 0 0 0 0 0 0 0 0 0 0 0 0 0 0 0 0 0 0 0 0 0 0 0 0 0 0 0 0 0 0 0 0 0 0 0 0 0 0 0 0 0 0 0 0 0 0 0 0 0 0 0 0 0 0 0 0 0 0 0 0 0 0 0 0 0 0 0 0 0 0 0 0 0 0 0 0 9 0 0 0 0 0 0 0 0 0 0 0 0 0 0 0 0 0 0 0 0 0 0 8 0 0 0 0 0 0 0 0 0 0 0 0 0 0 10 10 10 0 0 0 0 0 0 0 0 0 9 9 0 10 13 14 12 13 13 12 12 12 11 11 10 11 10 10 12 11 12 13 13 15 13 14 14 13 15 13 10 0 0 0 0 0 0 0 0 0 0 9 10 9 10 11 11 -193 0 16 12 12 11 11 -193 10 10 11 0 0 0 9 9 10 11 12 11 12 12 12 12 12 16 13 12 13 9 0 9 9 9 0 13 11 10 12 16 14 16 15 14 11 15 19 14 14 16 14 15 16 16 16 15 17 16 19 16 16 17 16 16 17 16 17 12 18 18 17 20 18 18 20 21 22 21 22 22 22 22 23 22 22 21 24 23 23 22 22 22 22 23 23 23 24 25 26 27 27 28 27 27 28 28 27 27 28 28 27 26 26 25 25 -193 -193 -193 26 27 29 30 29 29 29 29 30 32 33 33 34 36 39 40 40 41 41 42 42 0 0 0 0 0
    0 0 0 0 0 0 0 0 0 0 0 0 0 0 0 0 0 0 0 0 0 0 0 0 0 0 0 0 0 0 0 0 0 0 0 0 0 0 0 0 0 0 0 0 0 0 0 0 0 0 0 0 0 0 0 0 0 0 0 0 0 0 0 0 0 0 0 0 0 0 0 0 0 0 0 0 9 9 9 9 0 0 0 0 0 0 0 0 0 0 0 0 9 0 0 0 0 0 0 0 0 0 0 0 0 0 0 0 0 0 0 0 0 0 0 0 0 10 9 10 0 0 0 0 0 0 0 0 0 0 0 0 0 11 12 11 13 13 12 12 12 11 11 10 12 10 11 14 13 13 16 16 17 15 16 15 14 15 13 9 0 0 0 0 0 0 0 0 0 0 9 10 10 10 12 11 -193 0 15 12 12 11 10 -193 10 10 11 0 0 0 0 9 9 10 11 11 12 12 12 12 12 14 13 11 13 0 0 9 9 9 0 13 11 10 12 16 14 15 14 13 11 14 17 13 13 14 14 15 16 16 16 15 17 16 19 16 16 16 16 16 17 17 17 12 18 18 18 20 19 18 21 22 22 21 22 23 22 22 22 22 22 21 23 23 22 22 23 22 22 23 24 24 25 26 27 28 27 28 28 27 29 29 27 27 28 29 28 26 26 25 26 -193 27 -193 26 27 29 29 29 29 28 29 29 32 34 35 36 38 41 42 42 42 42 43 42 0 0 0 0 0
    0 0 0 0 0 0 0 0 0 0 0 0 0 0 0 0 0 0 0 0 0 0 0 0 0 0 0 0 0 0 0 0 0 0 0 0 0 0 0 0 0 0 0 0 0 0 0 0 0 0 0 0 0 0 0 0 0 0 0 0 0 0 0 0 0 0 0 0 0 0 0 0 0 0 9 9 9 9 9 9 0 0 0 0 0 0 0 0 0 0 0 0 9 0 0 0 0 0 0 0 0 0 0 0 0 0 0 0 0 0 0 0 0 0 0 0 0 10 9 10 0 0 0 0 0 0 0 0 0 0 0 0 0 10 10 10 12 12 11 12 12 11 11 10 12 11 12 15 16 15 17 17 18 15 16 15 14 13 11 0 0 0 0 0 0 0 0 0 0 0 9 10 11 11 13 12 -193 0 15 12 12 11 10 -193 9 10 11 0 0 0 0 0 9 9 10 10 11 11 11 11 12 13 12 11 13 0 0 0 0 0 0 12 10 10 12 15 14 14 13 13 11 13 16 13 13 14 14 15 16 16 16 15 16 16 19 16 16 16 16 15 17 17 17 12 18 18 19 20 20 18 21 22 23 22 22 23 22 23 23 22 22 22 23 23 22 22 22 20 21 23 23 23 24 26 26 27 27 27 27 27 29 29 27 27 29 30 28 27 26 26 26 -193 28 28 26 28 30 30 29 29 29 29 30 33 35 36 39 39 42 42 43 42 43 43 43 0 0 0 0 0
    0 0 0 0 0 0 0 0 0 0 0 0 0 0 0 0 0 0 0 0 0 0 0 0 0 0 0 0 0 0 0 0 0 0 0 0 0 0 0 0 0 0 0 0 0 0 0 0 0 0 0 0 0 0 0 0 0 0 0 0 0 0 0 0 0 0 0 0 0 0 0 0 0 0 9 9 9 9 9 9 0 0 0 0 0 0 0 0 0 0 0 0 9 0 0 0 0 0 0 0 0 0 0 0 8 0 0 0 0 0 0 0 0 0 0 0 0 10 9 10 0 0 0 0 0 0 0 0 0 0 0 0 0 10 10 10 12 12 11 11 12 11 11 11 13 12 13 16 17 16 17 16 17 15 15 13 12 11 10 0 0 0 0 0 0 0 0 0 0 0 9 10 10 11 12 11 9 0 14 12 12 10 10 -193 9 10 10 0 0 0 0 0 0 0 9 9 10 10 10 10 11 11 11 10 13 0 0 0 0 0 0 12 10 9 12 14 13 13 13 12 11 13 16 13 13 13 14 15 16 16 17 14 16 16 20 16 16 16 16 14 18 17 17 12 18 18 19 20 20 17 22 23 23 22 23 23 21 22 23 22 21 21 23 22 21 22 21 20 21 23 23 22 23 25 25 26 25 26 26 26 29 30 28 28 30 32 29 27 27 26 -193 -193 28 -193 26 28 30 29 29 29 29 30 30 34 36 38 40 40 43 43 43 43 44 43 43 0 0 0 0 0
    0 0 0 0 0 0 0 0 0 0 0 0 0 0 0 0 0 0 0 0 0 0 0 0 0 0 0 0 0 0 0 0 0 0 0 0 0 0 0 0 0 0 0 0 0 0 0 0 0 0 0 0 0 0 0 0 0 0 0 0 0 0 0 0 0 0 0 0 0 9 9 0 9 9 10 10 10 10 9 9 0 0 0 0 0 0 0 0 0 0 0 0 9 0 0 0 0 0 0 0 0 0 0 0 9 0 0 0 0 0 0 0 0 0 0 0 9 9 9 10 0 0 0 0 0 0 0 0 0 0 0 0 0 9 10 10 13 12 11 12 12 12 11 12 14 12 14 17 18 16 17 16 17 14 14 12 12 11 9 0 0 0 0 0 0 0 0 0 9 9 9 10 10 10 11 10 0 0 13 11 11 10 10 -193 9 10 10 0 0 0 0 0 0 0 9 9 9 9 10 9 10 10 9 9 12 0 0 0 0 0 0 12 10 9 11 13 13 12 12 12 11 12 15 13 13 13 14 15 15 16 17 14 16 16 20 16 16 16 16 14 19 17 17 12 18 18 19 20 19 16 21 22 22 22 22 22 22 23 23 23 22 23 23 22 22 22 22 21 22 23 23 22 23 25 25 25 25 26 26 26 29 30 27 28 30 32 29 28 26 26 -193 -193 28 -193 26 29 30 29 30 29 30 31 31 35 37 40 42 41 43 44 44 44 44 44 44 0 0 0 0 0
    0 0 0 0 0 0 0 0 0 0 0 0 0 0 0 0 0 0 0 0 0 0 0 0 0 0 0 0 0 0 0 0 0 0 0 0 0 0 0 0 0 0 0 0 0 0 0 0 0 0 0 0 0 0 0 0 0 0 0 0 0 0 0 0 0 0 0 0 0 9 9 0 0 9 10 10 11 10 9 9 0 0 0 0 0 0 0 0 0 0 0 0 9 0 0 0 0 0 0 0 0 0 0 0 10 0 0 0 0 0 0 0 0 0 0 0 9 9 9 10 0 0 0 0 0 0 0 0 0 0 0 0 0 9 10 10 13 12 11 12 12 12 11 12 14 12 15 18 19 17 18 17 17 15 14 13 12 11 9 0 0 0 0 0 0 0 0 9 10 10 10 11 11 10 11 10 0 0 12 11 11 9 9 9 9 9 10 0 0 0 0 0 0 0 9 9 9 9 9 9 10 0 0 0 11 0 0 0 0 0 9 12 10 0 11 12 12 12 12 11 10 12 15 13 12 13 13 14 15 16 17 14 16 17 20 16 16 16 16 15 19 18 17 13 19 19 20 20 19 17 21 22 22 22 22 22 22 22 22 22 20 21 21 20 20 20 20 20 21 23 23 22 23 26 25 25 24 25 25 26 28 29 27 28 30 32 29 27 -193 26 -193 -193 27 28 26 29 30 29 29 29 30 31 31 35 37 41 43 41 44 44 44 44 44 44 44 0 0 0 0 0
    0 0 0 0 0 0 0 0 0 0 0 0 0 0 0 0 0 0 0 0 0 0 0 0 0 0 0 0 0 0 0 0 0 0 0 0 0 0 0 0 0 0 0 0 0 0 0 0 0 0 0 0 0 0 0 0 0 0 0 0 0 0 0 0 0 0 0 0 0 9 9 0 0 9 9 9 11 10 10 11 9 0 0 0 0 0 0 0 0 0 0 0 9 0 0 0 0 0 0 0 0 0 0 0 11 0 9 0 0 0 0 0 0 0 0 0 9 9 9 10 0 0 0 0 0 0 0 0 0 0 0 0 0 9 9 10 13 12 11 11 12 12 11 12 15 13 15 18 19 18 18 17 17 14 14 12 11 10 0 0 0 0 0 0 0 0 0 9 10 10 10 11 11 10 10 9 0 0 11 10 11 9 9 9 9 9 10 0 0 0 0 0 0 0 0 9 9 9 9 9 9 0 0 0 11 0 0 0 0 0 9 12 10 0 10 11 11 11 11 11 10 11 15 12 12 12 13 14 15 15 18 13 16 18 20 16 16 16 16 15 18 17 17 14 19 19 19 20 19 18 22 23 22 22 22 22 22 22 21 20 17 18 19 18 17 18 20 20 22 24 23 23 24 26 25 25 25 25 25 27 29 30 26 28 30 32 28 27 -193 26 28 26 28 29 27 29 29 29 29 28 29 31 31 35 37 40 41 41 43 44 43 43 44 44 44 0 0 0 0 0
    0 0 0 0 0 0 0 0 0 0 0 0 0 0 0 0 0 0 0 0 0 0 0 0 0 0 0 0 0 0 0 0 0 0 0 0 0 0 0 0 0 0 0 0 0 0 0 0 0 0 0 0 0 0 0 0 0 0 0 0 0 0 0 0 0 0 0 0 0 10 9 0 0 9 9 9 11 10 10 10 9 0 0 0 0 0 0 0 0 0 0 0 9 0 0 0 0 0 0 0 0 0 0 0 11 0 9 0 0 0 0 0 0 0 0 0 9 9 9 9 0 0 0 0 0 0 0 0 0 0 0 0 0 0 0 9 12 11 11 11 12 11 11 12 15 13 15 17 18 17 18 16 16 14 13 12 11 10 0 0 0 0 0 0 0 9 9 10 11 11 10 11 11 10 10 9 0 0 11 10 10 9 9 0 9 9 9 0 0 0 0 0 0 0 0 0 0 0 9 0 9 0 0 0 11 0 0 0 0 0 9 12 10 0 9 10 10 10 11 10 9 11 15 12 12 12 13 14 15 15 18 13 17 18 19 16 17 17 16 15 18 18 16 14 19 19 20 20 20 19 23 23 23 23 22 22 22 21 21 20 17 17 19 18 18 20 22 22 23 24 23 23 23 26 25 25 25 25 25 27 29 30 26 28 30 31 28 28 27 28 29 28 30 30 28 30 29 29 29 28 29 30 30 34 36 39 41 41 43 44 43 43 44 44 44 0 0 0 0 0
    0 0 0 0 0 0 0 0 0 0 0 0 0 0 0 0 0 0 0 0 0 0 0 0 0 0 0 0 0 0 0 0 0 0 0 0 0 0 0 0 0 0 0 0 0 0 0 0 0 0 0 0 0 0 0 0 0 0 0 0 0 0 0 0 0 0 0 0 0 10 9 0 0 9 9 9 11 10 10 9 0 0 0 0 0 0 0 0 0 0 0 0 9 0 0 0 0 0 0 0 0 0 0 0 11 0 9 0 0 0 0 0 0 0 0 0 9 9 9 9 0 0 0 0 0 0 0 0 0 0 0 0 0 0 0 0 10 9 10 9 10 10 11 13 14 12 14 15 17 16 16 15 14 13 13 11 11 10 0 0 0 0 0 0 0 9 9 10 11 11 10 11 12 11 11 11 9 9 10 10 10 9 0 0 0 0 0 0 0 0 0 0 0 0 0 0 0 0 9 0 9 0 0 0 11 0 0 0 0 0 9 11 10 0 9 9 9 10 10 10 9 10 15 12 12 13 14 14 15 16 19 13 17 19 19 16 17 17 16 14 18 18 16 15 19 18 20 20 20 20 23 23 23 23 22 22 22 21 21 20 17 16 20 20 20 21 23 23 24 24 23 22 23 25 25 24 24 25 25 27 29 29 25 27 29 31 28 28 29 29 31 29 31 32 29 31 30 30 29 28 30 31 30 33 36 39 41 41 43 44 43 43 44 44 44 0 0 0 0 0
    0 0 0 0 0 0 0 0 0 0 0 0 0 0 0 0 0 0 0 0 0 0 0 0 0 0 0 0 0 0 0 0 0 0 0 0 0 0 0 0 0 0 0 0 0 0 0 0 0 0 0 0 0 0 0 0 0 0 0 0 0 0 0 0 0 0 0 0 0 10 9 9 0 9 9 9 11 10 10 0 0 0 0 0 0 0 0 0 0 0 0 0 9 0 0 0 0 0 0 0 0 0 0 0 11 0 9 0 0 0 0 0 0 0 0 0 0 9 9 10 0 0 0 0 0 0 0 0 0 0 0 0 0 0 0 0 9 0 9 0 9 9 10 11 12 11 12 13 14 14 14 14 13 12 12 11 10 10 9 0 0 0 0 0 0 9 9 10 11 11 10 10 11 11 11 12 10 10 9 9 9 0 0 0 0 0 0 0 0 0 9 0 9 0 0 0 9 0 9 0 9 0 0 0 11 0 0 0 0 0 9 12 10 0 9 0 9 9 10 10 9 10 16 12 13 13 14 14 15 16 19 13 16 19 18 16 17 17 17 15 18 18 16 16 19 18 20 21 21 22 24 23 24 23 22 22 21 21 21 20 20 17 20 21 21 23 23 24 24 24 22 22 23 25 25 24 24 25 26 27 29 29 25 27 29 31 29 29 29 30 32 30 32 33 30 31 31 30 30 29 31 31 29 33 35 38 40 41 43 43 42 42 44 44 44 0 0 0 0 0
    0 0 0 0 0 0 0 0 0 0 0 0 0 0 0 0 0 0 0 0 0 0 0 0 0 0 0 0 0 0 0 0 0 0 0 0 0 0 0 0 0 0 0 0 0 0 0 0 0 0 0 0 0 0 0 0 0 0 0 0 0 0 0 0 0 0 0 0 0 10 10 9 9 10 10 10 12 11 11 0 0 0 0 0 0 0 0 0 0 0 0 0 9 0 0 0 0 0 0 0 0 0 9 9 11 0 9 0 0 0 0 0 0 0 0 0 8 9 9 10 0 0 0 0 0 0 0 0 0 0 0 0 9 0 0 0 9 0 9 0 9 9 9 11 12 10 11 11 12 12 12 12 11 10 11 10 10 9 0 0 0 -193 0 0 -193 9 9 10 10 10 9 10 10 9 10 11 9 10 0 0 0 0 0 0 0 0 0 0 0 0 10 8 9 0 0 0 0 0 0 0 0 0 0 0 10 0 0 0 0 0 10 12 10 0 9 9 9 9 10 10 9 10 18 13 13 14 14 14 15 16 19 12 16 19 18 16 17 17 17 15 18 18 16 16 19 18 20 21 21 22 24 23 24 23 22 22 21 20 20 20 20 18 21 21 21 23 24 24 24 23 21 20 22 24 24 24 24 24 26 28 30 29 26 28 29 32 30 29 30 31 33 31 32 34 30 32 31 31 30 29 32 31 29 32 34 36 38 39 41 42 41 42 43 43 44 0 0 0 0 0
    0 0 0 0 0 0 0 0 0 0 0 0 0 0 0 0 0 0 0 0 0 0 0 0 0 0 0 0 0 0 0 0 0 0 0 0 0 0 0 0 0 0 0 0 0 0 0 0 0 0 0 0 0 0 0 0 0 0 0 0 0 0 0 0 0 0 0 0 0 10 10 9 9 9 9 9 12 10 10 0 0 0 0 0 0 0 0 0 0 0 0 0 9 0 0 0 0 0 0 0 0 0 9 9 10 0 0 0 0 0 0 0 0 0 0 0 9 9 9 11 0 0 0 0 0 0 0 0 0 0 0 0 9 0 0 0 10 0 9 9 9 9 9 10 11 9 10 10 10 10 10 11 10 -193 10 9 10 9 -193 -193 -193 -193 -193 -209 -209 -193 -193 10 10 9 9 9 0 0 0 10 0 9 0 0 0 0 0 0 0 0 0 0 9 0 11 10 10 9 0 9 0 0 0 0 0 0 0 0 10 0 8 0 0 0 10 12 10 0 9 9 10 10 11 10 9 11 18 13 13 14 15 14 15 16 18 12 15 18 17 16 17 17 17 15 18 18 16 16 19 19 20 20 21 21 22 21 22 21 20 20 19 19 20 19 19 19 21 22 22 24 24 24 24 23 20 20 22 25 24 24 24 25 27 29 31 30 27 29 29 32 30 30 30 31 33 30 32 34 31 32 31 31 30 29 32 31 30 32 32 35 36 38 39 41 41 41 42 43 44 0 0 0 0 0
    0 0 0 0 0 0 0 0 0 0 0 0 0 0 0 0 0 0 0 0 0 0 0 0 0 0 0 0 0 0 0 0 0 0 0 0 0 0 0 0 0 0 0 0 0 0 0 0 0 0 0 0 0 0 0 0 0 0 0 0 0 0 0 0 0 0 0 0 0 10 10 9 9 0 0 0 10 9 9 0 0 0 0 0 0 0 0 0 0 0 0 0 9 0 0 0 0 0 0 0 0 0 9 0 0 0 0 0 0 0 0 0 0 0 0 0 9 9 9 11 0 0 0 0 0 0 0 0 0 0 0 0 9 0 9 0 10 0 9 9 9 -193 -193 -193 11 -209 -193 -209 -209 -209 -193 10 9 -209 -193 -209 10 -193 -193 -193 -193 399 -193 -209 -193 -209 -209 -209 -209 -209 0 0 0 0 0 10 0 9 0 0 0 0 0 0 0 0 0 9 10 9 12 11 11 10 9 9 9 0 0 0 0 0 0 0 10 0 9 9 8 9 10 13 11 0 10 10 11 11 11 11 10 12 18 13 13 13 15 14 15 16 18 12 15 18 16 16 17 17 17 15 17 18 15 17 19 19 21 20 22 22 21 21 21 20 19 19 19 17 19 19 16 18 21 21 21 22 23 23 24 22 20 20 22 25 25 25 25 25 28 30 31 30 27 29 29 31 30 30 30 31 34 30 32 33 31 32 31 31 30 29 32 30 29 31 30 33 33 37 37 39 39 40 41 42 43 0 0 0 0 0
    0 0 0 0 0 0 0 0 0 0 0 0 0 0 0 0 0 0 0 0 0 0 0 0 0 0 0 0 0 0 0 0 0 0 0 0 0 0 0 0 0 0 0 0 0 0 0 0 0 0 0 0 0 0 0 0 0 0 0 0 0 0 0 0 0 0 0 0 0 9 9 0 0 0 0 0 9 0 0 0 0 0 0 0 0 0 0 0 9 9 9 9 10 0 0 0 0 0 0 0 0 0 0 0 0 0 0 0 0 0 0 0 0 0 0 0 0 9 9 12 0 0 0 0 0 0 0 0 0 0 0 0 9 9 9 0 10 0 9 9 9 -193 10 -193 12 -209 -193 -193 -193 -193 -193 -193 -193 -209 -209 -209 -193 -193 -209 -209 -193 398 -193 -209 -209 -209 -193 138 -209 -209 -193 0 -193 0 0 10 9 9 -193 0 0 0 0 -193 0 0 0 9 10 10 11 11 11 10 9 10 9 0 0 0 0 0 0 0 10 0 9 9 9 9 10 13 11 0 12 11 12 11 12 12 11 12 18 13 14 14 15 14 15 16 17 12 15 18 16 15 17 17 17 15 17 17 15 17 19 19 21 20 23 21 21 21 21 20 19 19 19 16 19 19 14 19 22 23 22 22 23 23 24 21 20 20 22 25 25 25 25 25 29 31 31 30 27 29 29 29 30 30 30 32 34 31 32 33 31 32 31 31 30 29 31 30 29 30 29 31 30 34 35 36 37 38 40 40 42 0 0 0 0 0
    0 0 0 0 0 0 0 0 0 0 0 0 0 0 0 0 0 0 0 0 0 0 0 0 0 0 0 0 0 0 0 0 0 0 0 0 0 0 0 0 0 0 0 0 0 0 0 0 0 0 0 0 0 0 0 0 0 0 0 0 0 0 0 0 0 0 0 0 0 9 0 0 0 0 0 0 9 0 0 0 0 0 0 0 0 0 0 0 9 9 9 9 10 9 9 0 0 0 0 0 0 0 0 0 0 0 0 0 0 0 0 0 0 0 0 0 0 9 9 11 0 0 0 0 0 0 0 0 0 0 0 0 9 9 9 0 10 0 9 9 9 -193 -193 -193 12 -209 -193 -193 -193 -193 -193 -193 -193 -209 -209 -209 -193 -209 -193 -209 -193 -193 -193 -209 -193 -193 -193 138 -193 -193 0 0 -193 -193 -193 11 9 10 -193 0 0 0 0 -193 0 0 0 9 10 10 11 11 11 10 9 9 9 0 0 0 0 0 0 0 10 0 9 9 10 10 11 14 12 9 14 12 14 12 13 13 12 13 19 13 14 14 16 15 15 16 17 12 15 18 15 16 17 17 17 15 17 17 15 17 18 18 20 21 23 21 20 21 21 20 20 19 19 17 20 20 14 22 24 24 24 23 23 23 23 20 18 18 21 24 24 24 25 25 29 31 30 29 27 29 29 29 30 29 30 31 33 31 32 33 31 31 31 31 31 30 31 30 29 30 29 30 30 34 34 36 36 37 39 40 41 0 0 0 0 0
    0 0 0 0 0 0 0 0 0 0 0 0 0 0 0 0 0 0 0 0 0 0 0 0 0 0 0 0 0 0 0 0 0 0 0 0 0 0 0 0 0 0 0 0 0 0 0 0 0 0 0 0 0 0 0 0 0 0 0 0 0 0 0 0 0 0 0 0 0 0 0 0 0 0 0 0 9 0 0 0 0 0 0 0 0 0 0 0 9 9 0 9 9 0 0 0 0 0 0 0 0 0 0 0 0 0 0 0 0 0 0 0 0 0 0 0 0 9 9 11 0 0 0 0 0 0 0 0 0 0 0 9 9 9 9 0 10 0 9 9 9 -193 -193 -193 -193 -193 -193 -193 -193 -193 -193 -193 -193 -209 -209 -209 -193 -209 -193 -209 -193 -193 -193 -209 -193 -193 -193 -193 -193 -193 0 0 -193 -193 -193 11 10 11 -209 0 0 0 -193 -193 0 0 0 9 11 11 12 12 11 12 11 10 10 9 0 0 0 0 0 0 11 9 10 9 10 10 12 14 12 10 15 13 15 13 14 13 13 14 19 14 15 14 16 15 16 16 17 12 15 17 15 16 18 17 18 16 18 18 16 17 18 18 21 21 22 20 19 21 20 19 19 19 18 18 20 21 14 23 25 25 24 22 22 21 22 19 17 17 20 23 23 23 24 23 27 29 29 28 27 28 29 28 30 29 30 31 33 31 31 33 31 31 31 31 31 30 31 30 29 30 29 31 30 33 33 35 36 36 37 38 39 0 0 0 0 0
    0 0 0 0 0 0 0 0 0 0 0 0 0 0 0 0 0 0 0 0 0 0 0 0 0 0 0 0 0 0 0 0 0 0 0 0 0 0 0 0 0 0 0 0 0 0 0 0 0 0 0 0 0 0 0 0 0 0 0 0 0 0 0 0 0 0 0 0 0 0 0 0 0 0 0 0 0 0 0 0 0 0 0 0 0 0 0 0 0 0 0 0 9 0 0 0 0 0 0 9 9 0 0 0 0 0 0 0 0 0 0 0 0 0 0 0 0 9 9 12 9 9 0 0 0 0 0 0 0 0 0 9 10 9 9 0 10 0 9 9 10 -193 -193 -193 -193 -193 -193 -177 142 141 -193 -193 -193 -209 -193 -193 -193 -209 -193 -209 -193 -193 -193 -193 -193 0 0 -209 -193 -193 0 0 -193 -193 -193 11 10 11 0 0 0 0 0 -193 0 0 0 9 11 11 12 12 12 13 12 12 11 10 9 0 0 0 0 0 11 9 10 10 11 11 13 15 13 11 16 14 16 13 14 14 13 14 18 13 15 14 16 15 16 16 17 12 15 16 15 16 18 17 18 17 18 18 17 17 18 19 21 21 22 19 19 21 19 19 19 19 18 18 20 21 14 24 25 25 24 20 21 20 22 19 16 16 20 22 23 22 22 21 26 28 27 27 26 29 29 28 30 29 29 31 33 31 30 32 31 31 31 32 31 30 31 30 29 31 30 32 30 33 33 34 35 35 37 37 39 0 0 0 0 0
    0 0 0 0 0 0 0 0 0 0 0 0 0 0 0 0 0 0 0 0 0 0 0 0 0 0 0 0 0 0 0 0 0 0 0 0 0 0 0 0 0 0 0 0 0 0 0 0 0 0 0 0 0 0 0 0 0 0 0 0 0 0 0 0 0 0 0 0 0 0 9 0 0 0 0 0 0 0 0 0 0 0 0 0 0 0 0 0 0 0 0 0 9 0 0 0 9 9 9 9 9 0 0 0 0 0 0 0 0 0 0 0 0 0 0 0 0 0 9 12 10 10 9 0 0 0 0 0 0 0 0 9 10 9 9 0 10 0 10 10 10 10 -193 -193 -193 -209 -193 -177 -177 141 -193 -193 -193 -209 -193 140 -193 -209 -209 -209 -193 -193 -193 -209 -193 0 0 -209 -209 -193 -193 -193 -193 -193 -209 11 10 10 0 0 0 0 0 -209 0 0 0 9 11 12 13 12 12 13 13 12 11 10 10 0 0 0 0 0 12 10 11 10 12 11 13 15 13 11 17 14 16 13 14 13 13 14 18 13 15 14 16 15 16 16 17 13 16 17 15 16 17 17 18 17 18 18 16 17 18 20 21 21 21 19 19 21 19 19 19 18 18 18 20 20 13 25 25 25 24 19 20 19 22 19 17 16 20 21 22 21 21 20 24 26 26 26 26 29 30 28 30 30 29 31 32 30 30 31 31 30 30 31 31 30 31 30 29 31 30 32 30 32 32 32 34 34 36 36 37 0 0 0 0 0
    0 0 0 0 0 0 0 0 0 0 0 0 0 0 0 0 0 0 0 0 0 0 0 0 0 0 0 0 0 0 0 0 0 0 0 0 0 0 0 0 0 0 0 0 0 0 0 0 0 0 0 0 0 0 0 0 0 0 0 0 0 0 0 0 0 0 0 0 0 8 9 0 0 0 0 0 0 0 0 0 0 0 0 0 0 0 0 0 0 0 0 0 9 9 9 0 9 9 9 9 9 0 0 0 0 0 0 0 0 0 0 0 0 0 0 0 0 0 0 12 10 10 9 0 0 0 0 0 0 0 0 0 9 9 9 0 10 0 10 11 11 10 10 -193 12 -193 -193 -193 -177 -193 -193 -193 -193 -209 -193 -193 -193 -193 0 -193 -193 -193 -193 -209 -193 0 -193 -209 -193 -209 -193 -193 -193 -193 -209 11 10 11 0 0 0 0 0 0 0 0 0 9 10 12 12 12 12 14 13 12 11 10 9 0 0 0 0 0 12 11 11 11 12 11 13 14 13 11 17 13 16 13 14 13 13 14 17 13 15 13 15 15 16 16 16 13 16 17 15 16 17 17 17 16 17 18 15 18 19 21 21 22 22 19 19 21 19 19 18 18 18 18 20 20 11 24 24 25 24 18 18 17 22 19 17 17 20 21 21 21 21 20 22 25 25 25 26 29 30 28 30 30 29 30 31 30 29 30 30 30 29 31 31 30 31 30 30 32 31 33 31 32 33 33 35 34 36 36 36 0 0 0 0 0
    0 0 0 0 0 0 0 0 0 0 0 0 0 0 0 0 0 0 0 0 0 0 0 0 0 0 0 0 0 0 0 0 0 0 0 0 0 0 0 0 0 0 0 0 0 0 0 0 0 0 0 0 0 0 0 0 0 0 0 0 0 0 0 0 0 0 0 0 0 0 0 0 0 0 0 0 0 0 0 0 0 0 0 0 0 0 0 0 0 0 0 0 10 9 9 0 10 10 10 10 10 0 0 0 0 0 0 0 0 0 0 0 0 0 0 0 0 0 0 12 10 10 9 9 0 0 0 0 0 0 0 0 0 10 10 9 11 9 11 12 12 11 10 12 12 10 11 -193 -209 -193 10 -193 10 -209 -193 -209 -193 9 0 0 -193 0 0 0 -193 0 0 -193 -193 -193 -193 -193 -193 -193 -193 11 10 11 9 0 0 0 0 0 0 0 0 9 10 12 12 12 12 13 13 12 11 10 9 0 0 0 0 0 13 11 11 11 12 11 13 14 13 11 17 13 16 13 14 13 13 14 17 12 15 13 16 15 16 16 16 14 16 17 15 16 16 16 17 16 16 18 14 19 20 21 22 22 22 20 20 21 19 19 18 18 18 18 20 20 11 25 25 26 25 18 18 17 22 20 18 17 20 20 20 21 21 19 21 24 24 23 26 29 30 28 30 30 29 30 30 30 29 29 30 29 29 30 30 30 30 30 30 32 31 33 31 32 32 32 35 34 35 35 35 0 0 0 0 0
    0 0 0 0 0 0 0 0 0 0 0 0 0 0 0 0 0 0 0 0 0 0 0 0 0 0 0 0 0 0 0 0 0 0 0 0 0 0 0 0 0 0 0 0 0 0 0 0 0 0 0 0 0 0 0 0 0 0 0 0 0 0 0 0 0 0 0 0 0 0 0 0 0 0 0 0 0 0 0 0 0 0 0 0 0 0 0 0 0 0 0 0 10 9 9 0 10 10 10 10 10 0 0 0 0 0 0 0 0 0 0 0 0 0 0 0 0 0 0 12 10 10 9 9 0 0 0 0 0 0 0 0 0 12 11 11 12 11 12 12 12 11 10 12 12 10 11 10 10 11 11 12 11 10 10 9 10 9 0 9 0 0 0 0 -193 0 0 0 0 -193 -193 -193 -193 -193 -193 12 11 13 10 9 9 9 9 9 0 0 0 9 10 12 12 12 12 13 13 12 11 10 0 0 0 0 0 0 12 11 11 11 12 11 14 14 13 11 16 13 16 13 14 13 13 14 17 12 15 14 15 16 17 16 17 14 16 18 15 16 17 16 17 16 16 17 14 19 20 21 23 22 22 20 20 22 19 19 19 19 19 19 21 20 11 25 26 27 26 19 18 18 22 21 19 18 21 20 20 20 20 19 20 23 23 21 25 28 30 28 30 30 28 29 30 30 29 29 29 28 28 30 30 29 30 30 29 31 31 33 31 31 33 32 34 34 35 34 34 0 0 0 0 0
    0 0 0 0 0 0 0 0 0 0 0 0 0 0 0 0 0 0 0 0 0 0 0 0 0 0 0 0 0 0 0 0 0 0 0 0 0 0 0 0 0 0 0 0 0 0 0 0 0 0 0 0 0 0 0 0 0 0 0 0 0 0 0 0 0 0 0 0 0 0 0 0 0 0 0 0 0 9 9 9 9 0 0 0 0 0 0 0 0 0 0 0 10 9 9 9 10 -193 10 10 10 0 0 0 0 0 0 0 0 0 0 0 0 0 0 0 0 0 0 12 10 11 9 0 0 0 0 8 0 0 0 0 -193 16 11 12 12 12 11 12 11 11 9 10 10 10 10 10 10 11 12 13 12 12 11 10 10 9 9 9 0 0 0 0 0 0 0 0 0 0 0 -193 260 -193 9 15 12 16 11 11 10 9 9 10 0 0 0 9 9 12 12 12 11 13 13 11 10 10 0 0 0 0 0 0 12 11 11 11 12 11 13 13 13 11 15 13 15 13 13 12 12 13 16 12 15 14 15 16 17 17 18 16 17 18 16 17 17 16 16 15 15 17 13 19 21 22 23 23 21 20 21 23 20 19 19 19 19 21 21 21 12 25 27 28 27 20 20 19 22 22 20 19 21 20 20 20 20 19 19 23 23 21 25 27 30 28 30 30 28 29 30 30 29 29 29 28 28 29 31 29 30 30 29 31 31 33 31 31 32 31 34 33 34 34 34 0 0 0 0 0
    0 0 0 0 0 0 0 0 0 0 0 0 0 0 0 0 0 0 0 0 0 0 0 0 0 0 0 0 0 0 0 0 0 0 0 0 0 0 0 0 0 0 0 0 0 0 0 0 0 0 0 0 0 0 0 0 0 0 0 0 0 0 0 0 0 0 0 0 0 0 0 0 0 0 0 0 0 9 9 10 9 0 0 0 0 0 0 0 0 0 0 0 10 10 9 9 10 -193 11 11 11 0 0 0 0 0 0 0 0 0 0 0 0 0 0 0 0 0 0 13 11 11 10 9 0 9 9 9 0 0 0 0 0 13 10 11 10 11 10 11 10 9 0 0 0 0 0 0 0 9 10 12 12 12 11 10 12 10 10 10 9 0 9 9 9 0 0 0 0 0 9 0 -193 -193 10 19 14 18 12 11 10 10 10 10 0 9 0 0 9 11 12 11 11 12 12 11 10 9 0 0 0 0 0 0 11 11 11 11 12 11 13 13 12 11 15 12 14 12 13 11 12 12 14 11 14 14 15 16 18 18 19 16 17 19 16 17 17 16 16 15 16 18 12 21 22 24 24 23 21 21 21 23 20 20 19 19 20 22 22 21 12 25 28 28 27 20 20 19 22 22 21 20 22 20 20 20 20 19 19 23 23 22 26 28 30 29 30 30 29 30 30 31 30 29 29 28 28 29 31 29 30 30 29 31 31 32 30 30 32 30 33 32 34 33 33 0 0 0 0 0
    0 0 0 0 0 0 0 0 0 0 0 0 0 0 0 0 0 0 0 0 0 0 0 0 0 0 0 0 0 0 0 0 0 0 0 0 0 0 0 0 0 0 0 0 0 0 0 0 0 0 0 0 0 0 0 0 0 0 0 0 0 0 0 0 0 0 0 0 0 0 0 0 0 0 0 0 0 9 9 9 9 0 0 0 0 0 0 0 0 0 0 0 10 10 10 9 10 11 11 11 11 0 0 0 0 0 0 0 0 0 0 0 0 0 0 0 0 0 0 14 11 12 10 9 9 9 9 9 0 0 0 0 0 12 10 11 10 10 10 10 9 9 0 0 0 0 0 0 0 0 0 9 10 10 9 9 11 10 10 10 10 0 0 0 9 9 0 0 0 0 9 9 10 9 10 19 14 19 13 12 11 10 10 10 0 8 0 0 0 11 11 10 11 12 12 11 10 9 0 0 0 0 0 0 10 10 10 10 11 10 12 12 11 10 13 11 12 11 12 10 11 11 13 11 14 14 15 16 18 18 19 17 16 19 16 16 16 16 16 15 16 18 11 22 22 24 24 22 19 20 20 23 20 19 19 19 20 22 22 21 12 25 29 30 29 21 21 20 23 23 22 21 22 21 20 20 20 19 19 23 23 22 26 29 31 30 31 31 29 30 31 31 30 29 30 28 29 29 30 29 29 29 29 31 31 32 30 30 32 30 33 32 34 33 33 0 0 0 0 0
    0 0 0 0 0 0 0 0 0 0 0 0 0 0 0 0 0 0 0 0 0 0 0 0 0 0 0 0 0 0 0 0 0 0 0 0 0 0 0 0 0 0 0 0 0 0 0 0 0 0 0 0 0 0 0 0 0 0 0 0 0 0 0 0 0 0 0 0 0 0 0 0 0 0 0 0 0 9 9 9 9 0 0 0 0 0 0 0 0 0 0 0 11 10 10 10 10 10 11 11 10 0 0 0 0 0 0 0 0 0 0 0 0 0 0 0 0 0 0 15 12 13 11 9 9 9 10 10 0 0 0 0 10 13 11 11 10 10 9 10 9 9 0 0 0 0 0 0 0 0 0 0 0 0 0 0 9 9 9 10 10 0 0 9 9 9 9 0 0 0 9 9 10 9 -193 19 14 19 13 12 11 10 11 10 9 9 0 0 0 10 10 10 10 10 11 10 9 9 0 0 0 0 0 0 9 9 9 10 10 9 11 10 10 10 12 10 11 10 10 9 10 10 11 10 13 13 14 15 18 18 19 17 16 19 16 16 16 16 16 14 15 17 10 23 23 24 24 22 19 19 20 23 19 19 19 19 20 22 -193 21 11 25 28 29 28 21 22 22 23 24 23 22 23 22 21 21 21 19 19 23 23 23 27 30 33 31 32 31 30 31 31 31 31 29 30 29 29 29 30 29 29 29 28 30 31 31 29 29 32 30 34 32 34 33 33 0 0 0 0 0
    0 0 0 0 0 0 0 0 0 0 0 0 0 0 0 0 0 0 0 0 0 0 0 0 0 0 0 0 0 0 0 0 0 0 0 0 0 0 0 0 0 0 0 0 0 0 0 0 0 0 0 0 0 0 0 0 0 0 0 0 0 0 0 0 0 0 0 0 0 0 0 0 0 0 0 0 0 0 9 0 0 0 0 0 0 0 0 0 0 0 0 0 11 10 10 10 10 10 10 10 10 0 0 0 0 0 0 0 0 0 0 0 0 0 0 0 0 0 0 15 12 13 11 9 10 10 10 10 0 0 0 0 11 13 11 11 10 10 9 9 9 0 0 0 0 0 0 0 0 0 0 0 0 0 0 -193 -193 0 9 10 9 0 0 0 9 9 9 0 0 0 9 9 9 9 9 19 13 18 13 12 11 10 11 10 9 9 0 0 0 10 10 9 9 10 10 10 9 0 0 0 0 0 0 0 0 0 0 9 9 9 10 10 10 9 11 10 10 10 10 9 9 9 11 10 13 13 14 14 17 19 19 16 16 19 16 16 16 15 15 14 15 16 10 21 21 22 23 21 18 18 19 23 19 19 18 18 20 21 -193 21 11 25 27 27 27 20 23 23 24 24 24 23 24 22 22 22 22 20 21 24 24 25 27 29 33 31 31 31 30 31 31 31 31 29 30 29 30 30 31 29 29 28 29 30 30 30 29 28 31 29 33 31 33 32 33 0 0 0 0 0
    0 0 0 0 0 0 0 0 0 0 0 0 0 0 0 0 0 0 0 0 0 0 0 0 0 0 0 0 0 0 0 0 0 0 0 0 0 0 0 0 0 0 0 0 0 0 0 0 0 0 0 0 0 0 0 0 0 0 0 0 0 0 0 0 0 0 0 0 0 0 0 0 0 0 0 0 0 0 9 0 0 0 0 0 0 0 0 0 0 0 0 0 10 10 10 10 10 10 10 10 10 0 0 0 0 0 0 0 0 0 0 0 0 0 0 0 0 0 0 14 12 13 11 9 9 10 10 10 0 0 0 0 11 13 11 11 10 9 9 9 0 0 0 0 0 0 0 0 0 0 0 0 0 -193 -209 -209 -193 0 0 9 9 0 0 0 0 0 0 0 0 0 9 9 9 9 -177 19 13 19 13 12 11 11 11 11 9 9 0 0 0 9 10 0 9 9 10 9 9 0 0 0 9 9 0 0 0 0 0 9 9 9 10 9 9 9 11 10 10 10 10 9 10 10 12 11 13 14 14 14 17 19 19 15 15 19 16 16 16 15 15 14 15 17 10 22 20 21 22 20 17 17 18 22 19 19 18 18 20 -193 -193 21 12 25 26 27 26 21 24 25 24 -209 24 24 24 23 23 23 23 22 23 25 25 26 28 30 33 30 31 31 29 30 30 30 30 29 30 29 30 30 31 29 30 29 29 30 30 30 29 28 31 29 33 31 33 32 33 0 0 0 0 0
    0 0 0 0 0 0 0 0 0 0 0 0 0 0 0 0 0 0 0 0 0 0 0 0 0 0 0 0 0 0 0 0 0 0 0 0 0 0 0 0 0 0 0 0 0 0 0 0 0 0 0 0 0 0 0 0 0 0 0 0 0 0 0 0 0 0 0 0 0 0 0 0 0 0 0 0 0 0 9 0 0 0 0 0 0 0 0 0 0 0 0 0 -193 10 10 10 9 10 10 10 10 0 0 0 0 0 0 0 0 0 0 0 0 0 9 0 0 0 0 13 11 13 10 0 10 10 11 11 0 0 0 9 12 13 11 11 10 9 9 0 0 0 0 0 0 0 0 0 0 0 0 0 0 -193 -209 -209 -193 0 9 10 10 0 0 0 8 0 0 0 0 0 9 9 9 9 0 19 13 19 13 13 12 11 12 11 9 10 0 0 0 9 10 0 9 9 10 10 9 9 0 0 12 10 9 0 0 0 0 9 9 0 9 9 9 9 11 10 10 10 11 10 11 11 14 12 14 15 15 14 17 19 18 15 16 20 16 16 16 16 15 14 16 17 10 21 19 21 21 20 16 16 18 22 19 19 19 19 20 -193 -193 21 12 25 26 26 26 22 25 26 24 -209 24 24 24 23 23 23 23 24 24 26 26 27 28 30 33 30 30 30 29 29 29 29 29 28 29 29 29 29 30 29 29 28 28 29 29 29 29 28 31 30 33 32 33 32 33 0 0 0 0 0
    0 0 0 0 0 0 0 0 0 0 0 0 0 0 0 0 0 0 0 0 0 0 0 0 0 0 0 0 0 0 0 0 0 0 0 0 0 0 0 0 0 0 0 0 0 0 0 0 0 0 0 0 0 0 0 0 0 0 0 0 0 0 0 0 0 0 0 0 0 0 9 0 0 0 0 9 0 0 9 0 0 0 0 0 0 0 0 0 0 0 0 0 -193 10 10 9 -193 9 10 9 9 0 0 0 0 0 0 0 0 0 0 0 0 0 9 0 0 0 0 12 11 13 10 -193 10 10 11 11 0 0 0 9 13 14 11 11 10 9 0 0 0 0 0 0 0 0 0 0 0 0 0 0 0 0 -193 -209 13 9 9 9 10 0 0 0 -193 -193 -193 -193 -193 0 10 10 10 9 9 19 13 19 14 13 12 11 12 11 10 10 0 0 0 9 9 0 0 9 9 9 9 9 0 0 13 11 10 9 0 0 0 0 0 0 0 0 0 9 11 10 10 10 10 10 11 11 16 13 14 15 15 14 17 19 18 14 16 20 16 16 16 16 14 15 17 17 10 20 18 20 21 21 16 16 18 22 19 19 19 19 19 -177 -193 21 12 24 25 25 25 22 25 27 26 -209 25 24 24 24 23 23 24 24 24 26 26 27 28 30 33 29 30 29 29 29 28 28 29 28 29 28 29 29 31 30 30 29 28 29 29 29 29 28 31 30 32 32 34 33 34 0 0 0 0 0
    0 0 0 0 0 0 0 0 0 0 0 0 0 0 0 0 0 0 0 0 0 0 0 0 0 0 0 0 0 0 0 0 0 0 0 0 0 0 0 0 0 0 0 0 0 0 0 0 0 0 0 0 0 0 0 0 0 0 0 0 0 0 0 0 0 0 0 0 0 9 9 0 0 0 0 0 0 0 9 0 0 0 0 0 0 0 0 0 0 0 0 0 -193 9 9 9 -193 9 9 9 9 0 0 0 0 0 10 10 9 10 10 0 0 0 9 0 0 0 0 11 11 12 10 -193 10 11 11 12 0 0 0 9 13 13 11 11 10 0 0 0 0 0 0 0 0 0 0 0 0 0 0 0 0 0 -193 -193 11 0 0 9 10 0 0 -193 -193 -193 -209 -209 -209 9 10 11 11 10 9 19 13 19 13 13 12 11 12 11 10 10 0 0 0 9 9 0 0 0 9 9 9 9 9 9 15 11 10 9 0 0 0 0 0 0 0 0 0 0 11 10 10 10 10 11 12 12 17 13 14 14 15 15 17 19 18 14 16 20 16 16 16 16 14 15 17 17 10 22 21 -193 24 23 18 18 19 22 19 19 19 19 18 -177 21 21 12 23 24 24 24 22 26 27 27 -209 25 24 -193 24 23 23 23 23 24 25 26 27 28 30 32 29 30 29 29 29 28 28 29 28 29 28 30 29 31 30 30 29 29 29 30 29 29 28 31 30 32 32 34 33 34 0 0 0 0 0
    0 0 0 0 0 0 0 0 0 0 0 0 0 0 0 0 0 0 0 0 0 0 0 0 0 0 0 0 0 0 0 0 0 0 0 0 0 0 0 0 0 0 0 0 0 0 0 0 0 0 0 0 0 0 0 0 0 0 0 0 0 0 0 0 0 0 0 0 0 9 9 0 0 0 0 0 0 0 9 0 0 0 0 0 0 0 0 0 0 0 0 0 -193 9 9 9 -193 9 9 9 9 0 0 0 0 9 12 12 10 12 11 0 0 0 0 0 0 0 0 11 11 12 10 -193 10 11 12 12 0 0 0 9 12 11 10 10 10 0 0 0 0 0 0 0 0 0 9 0 9 0 0 0 0 0 -193 -193 12 9 9 10 10 0 0 -193 -193 -193 -193 -193 -193 9 11 11 11 9 9 17 13 19 13 13 12 11 12 11 10 10 0 0 0 0 0 0 0 0 0 9 9 10 9 10 16 12 11 10 0 0 0 0 0 0 0 0 0 0 10 9 11 10 10 11 12 12 18 13 14 14 15 14 16 19 17 13 15 20 16 16 16 16 14 16 18 18 11 24 23 29 28 24 20 19 20 23 20 19 18 19 17 -177 21 20 12 22 23 23 24 22 25 27 27 -209 24 24 -193 23 23 23 23 22 23 24 25 26 27 30 32 29 29 29 29 29 27 27 28 28 28 28 29 29 30 29 29 29 29 29 29 29 28 28 31 30 32 33 34 34 35 0 0 0 0 0
    0 0 0 0 0 0 0 0 0 0 0 0 0 0 0 0 0 0 0 0 0 0 0 0 0 0 0 0 0 0 0 0 0 0 0 0 0 0 0 0 0 0 0 0 0 0 0 0 0 0 0 0 0 0 0 0 0 0 0 0 0 0 0 0 0 0 0 0 0 0 0 0 0 0 0 0 0 0 9 0 0 0 0 0 0 0 0 0 0 0 0 0 -193 0 0 0 0 0 9 0 9 0 0 0 0 9 12 12 11 12 11 0 0 0 0 0 0 0 0 10 10 12 10 0 10 11 12 12 0 0 0 0 11 10 10 10 9 0 0 0 0 0 0 0 0 0 9 10 10 0 0 0 0 0 -193 9 11 9 9 10 10 0 0 0 0 -193 9 -193 -193 9 11 11 10 9 0 15 12 19 13 13 12 11 12 11 10 10 0 0 0 0 0 0 0 0 0 9 10 11 10 11 17 12 11 10 0 0 0 0 0 0 0 0 0 0 10 9 10 10 10 11 12 12 17 13 14 13 15 14 16 19 16 13 15 20 16 16 17 16 15 17 18 18 13 25 24 30 30 27 21 21 21 23 20 20 18 18 -193 -193 21 20 12 22 23 23 23 22 24 26 26 -209 24 23 -193 23 22 22 22 21 23 23 24 26 27 31 30 28 28 27 28 28 26 27 28 28 28 28 30 29 29 29 29 29 29 29 29 29 28 29 32 31 32 33 35 35 36 0 0 0 0 0
    0 0 0 0 0 0 0 0 0 0 0 0 0 0 0 0 0 0 0 0 0 0 0 0 0 0 0 0 0 0 0 0 0 0 0 0 0 0 0 0 0 0 0 0 0 0 0 0 0 0 0 0 0 0 0 0 0 0 0 0 0 0 0 0 0 0 0 0 0 0 0 0 0 0 0 0 0 0 10 0 0 0 0 0 0 0 0 0 0 0 0 0 -193 0 0 0 0 0 0 0 0 0 0 0 0 10 12 12 10 11 11 0 0 0 0 0 0 0 0 9 10 11 9 0 10 11 12 12 0 0 0 0 10 9 9 9 0 0 0 0 0 0 0 0 0 0 9 9 10 0 0 0 0 0 9 10 11 0 9 10 9 0 0 0 0 -193 9 9 9 9 11 11 9 9 9 -193 12 20 14 13 12 12 12 11 10 10 0 0 0 0 0 0 0 0 0 9 10 11 10 11 17 12 11 10 0 0 0 0 0 0 0 0 0 0 10 9 10 9 9 10 11 11 16 12 13 13 15 15 16 19 16 12 15 20 16 16 17 17 15 19 19 19 15 25 25 29 30 28 21 21 21 23 20 20 18 18 -177 -193 20 20 12 21 21 21 21 21 22 24 -193 -193 23 23 23 22 22 22 22 21 24 23 24 26 27 30 28 27 26 26 28 28 26 26 28 28 28 28 30 29 29 29 29 29 29 29 29 29 29 29 32 31 32 33 35 35 36 0 0 0 0 0
    0 0 0 0 0 0 0 0 0 0 0 0 0 0 0 0 0 0 0 0 0 0 0 0 0 0 0 0 0 0 0 0 0 0 0 0 0 0 0 0 0 0 0 0 0 0 0 0 0 0 0 0 0 0 0 0 0 0 0 0 0 0 0 0 0 0 0 0 0 0 0 0 9 9 0 9 0 0 10 0 0 0 0 0 0 0 0 0 0 0 0 0 0 0 0 0 0 0 0 0 0 0 0 0 0 10 13 12 10 11 11 0 0 0 0 0 0 0 0 0 9 10 9 0 9 11 11 11 0 0 0 0 9 9 9 0 0 0 0 0 0 0 0 0 0 0 9 10 10 9 0 0 9 0 11 12 12 9 9 9 9 0 0 0 0 -193 9 9 9 9 11 11 10 10 10 14 12 20 14 14 13 12 12 11 10 11 0 0 0 0 0 0 0 0 0 0 10 12 11 10 16 11 10 9 0 0 0 0 0 0 0 0 0 0 10 9 9 9 9 10 10 10 16 12 13 13 15 15 16 19 16 12 16 20 16 16 17 16 15 19 20 20 18 26 27 29 31 29 22 22 22 23 20 20 18 18 -177 -177 20 20 12 21 21 21 20 20 21 23 -193 -193 22 22 23 22 22 22 22 21 23 23 23 25 27 29 27 26 26 26 28 28 25 26 28 28 28 28 30 29 29 29 29 29 29 29 29 29 29 29 32 31 31 33 34 35 35 0 0 0 0 0
    0 0 0 0 0 0 0 0 0 0 0 0 0 0 0 0 0 0 0 0 0 0 0 0 0 0 0 0 0 0 0 0 0 0 0 0 0 0 0 0 0 0 0 0 0 0 0 0 0 0 0 0 0 0 0 0 0 0 0 0 0 0 0 0 0 0 0 0 0 0 9 -193 12 12 12 11 9 9 12 0 0 0 0 0 0 0 0 0 0 0 0 0 0 0 0 0 0 0 0 0 0 0 0 0 0 10 12 10 10 10 10 0 0 0 0 0 0 0 0 0 9 9 0 0 9 10 11 11 0 0 0 0 0 0 9 0 0 0 0 0 0 0 0 0 0 0 9 9 10 0 0 0 0 0 9 11 11 0 9 0 9 0 0 0 0 0 9 9 9 9 11 11 10 10 11 14 13 20 14 14 13 12 12 11 10 11 0 0 0 0 0 0 0 0 0 9 10 12 12 11 15 10 9 9 0 0 0 0 0 0 0 0 0 0 10 9 -193 9 9 10 10 10 15 12 13 13 16 15 16 19 16 12 16 20 15 15 17 16 16 19 20 21 20 26 28 30 32 31 24 23 22 23 20 20 18 18 -177 -177 20 20 13 21 21 21 20 21 21 23 24 22 22 22 23 21 21 21 21 20 23 23 23 25 28 30 27 27 27 27 28 28 25 26 28 28 28 28 30 29 28 29 29 30 29 29 29 28 29 30 32 31 30 33 34 35 35 0 0 0 0 0
    0 0 0 0 0 0 0 0 0 0 0 0 0 0 0 0 0 0 0 0 0 0 0 0 0 0 0 0 0 0 0 0 0 0 0 0 0 0 0 0 0 0 0 0 0 0 0 0 0 0 0 0 0 0 0 0 0 0 0 0 0 0 0 0 0 0 0 0 0 10 11 11 15 17 15 14 12 11 12 0 0 0 0 0 0 0 0 0 0 0 0 0 0 0 0 0 0 0 0 0 0 0 0 0 0 9 11 9 9 9 9 0 0 0 0 0 0 0 0 0 0 9 0 0 9 10 10 10 0 0 0 0 0 0 0 0 0 0 0 0 0 0 0 0 0 0 9 9 9 0 0 0 0 0 9 11 11 0 9 0 9 0 0 0 0 0 9 9 9 9 11 11 10 10 11 13 13 21 15 14 13 12 12 11 10 11 0 0 0 0 0 0 0 0 0 0 10 11 11 10 11 9 0 0 0 0 0 0 0 0 0 0 0 0 10 10 -193 9 9 10 10 10 15 12 13 13 16 16 17 19 16 12 18 20 16 15 17 16 16 19 21 22 22 27 28 30 32 32 25 24 23 24 20 20 18 19 -177 21 20 20 13 20 20 21 20 21 21 23 23 21 21 21 22 20 20 20 20 18 22 22 23 -193 28 30 28 28 27 28 29 29 26 26 28 28 28 28 30 29 28 28 28 30 29 29 29 28 29 30 32 31 30 32 34 35 35 0 0 0 0 0
    0 0 0 0 0 0 0 0 0 0 0 0 0 0 0 0 0 0 0 0 0 0 0 0 0 0 0 0 0 0 0 0 0 0 0 0 0 0 0 0 0 0 0 0 0 0 0 0 0 0 0 0 0 0 0 0 0 0 0 0 0 0 0 0 0 0 0 0 0 11 11 12 18 19 17 16 14 13 13 9 9 0 0 0 0 0 0 0 0 0 0 0 0 0 0 0 0 0 0 0 0 0 0 0 0 9 10 9 9 9 9 0 0 0 0 0 0 0 0 0 0 0 0 0 0 9 9 9 0 0 0 0 0 0 0 0 0 0 0 0 0 0 0 0 0 0 9 9 9 0 0 0 0 0 9 10 9 0 0 0 0 0 0 0 0 0 9 0 9 9 10 11 10 10 11 12 13 21 15 15 13 12 11 11 10 11 0 0 0 0 0 0 0 0 0 0 0 9 9 10 9 0 0 0 0 0 0 0 0 0 0 0 0 0 10 10 -193 9 9 10 10 10 15 12 13 13 17 17 17 19 17 13 19 20 16 15 17 16 16 19 20 22 23 27 29 31 32 33 27 25 24 24 21 20 18 19 15 20 20 19 12 20 19 20 19 20 21 23 -193 21 21 21 22 20 20 20 19 16 21 22 22 -193 28 30 28 28 28 28 30 30 27 27 29 29 28 28 30 29 28 28 28 30 29 29 29 28 29 30 32 31 29 32 34 35 35 0 0 0 0 0
    0 0 0 0 0 0 0 0 0 0 0 0 0 0 0 0 0 0 0 0 0 0 0 0 0 0 0 0 0 0 0 0 0 0 0 0 0 0 0 0 0 0 0 0 0 0 0 0 0 0 0 0 0 0 0 0 0 0 0 0 0 0 0 0 0 0 0 0 0 11 10 12 18 19 18 17 15 14 14 11 11 0 0 0 0 0 0 0 0 0 0 0 0 0 0 0 0 0 0 0 0 0 0 0 0 9 9 0 9 9 9 0 0 0 0 0 0 0 0 0 0 0 0 0 0 0 0 0 0 0 0 0 0 0 0 0 0 0 0 0 0 0 0 0 0 0 9 0 0 0 0 0 0 0 8 9 9 0 0 0 0 0 0 0 0 0 9 0 0 9 10 11 10 10 11 12 12 21 14 15 13 12 11 11 10 11 0 0 0 0 0 9 9 9 0 0 0 9 12 13 11 9 9 0 0 0 0 0 0 0 0 0 0 0 10 10 9 9 9 10 10 10 15 12 13 13 18 18 18 20 17 13 20 20 16 15 17 16 16 19 20 21 23 27 28 30 32 32 27 25 24 23 20 20 18 19 15 20 19 18 12 19 19 20 19 20 21 23 -193 21 20 21 22 20 19 19 19 16 22 22 22 -193 28 30 28 29 28 28 31 31 28 28 29 29 28 28 31 29 27 28 28 30 29 29 29 28 28 30 32 31 29 32 34 35 35 0 0 0 0 0
    0 0 0 0 0 0 0 0 0 0 0 0 0 0 0 0 0 0 0 0 0 0 0 0 0 0 0 0 0 0 0 0 0 0 0 0 0 0 0 0 0 0 0 0 0 0 0 0 0 0 0 0 0 0 0 0 0 0 0 0 0 0 0 0 0 0 0 0 0 11 10 13 18 19 18 18 16 15 15 13 13 11 9 9 9 9 9 0 0 0 0 0 0 0 0 0 0 0 0 0 0 0 0 0 0 0 0 0 0 0 0 0 0 0 0 0 0 0 0 0 0 0 0 0 0 0 0 0 0 0 0 0 0 0 0 0 0 0 0 0 0 0 0 0 0 0 0 0 0 0 0 0 0 0 0 9 10 0 0 0 0 0 0 0 0 0 0 0 0 0 10 10 10 10 11 12 12 20 14 15 13 12 11 11 11 11 0 0 0 0 0 9 10 10 9 9 9 11 15 19 14 10 10 0 0 0 0 0 0 0 0 0 0 0 11 10 9 9 0 10 10 10 15 12 13 14 18 18 18 20 18 13 21 19 16 15 17 16 16 19 20 21 24 27 28 29 31 31 25 24 23 23 20 19 18 19 15 20 19 18 13 19 19 20 18 20 21 22 23 20 20 20 22 19 19 19 18 15 21 22 22 -193 27 30 28 29 28 29 31 31 28 28 29 29 28 28 30 29 26 27 27 30 29 29 29 28 29 31 32 31 29 32 34 35 35 0 0 0 0 0
    0 0 0 0 0 0 0 0 0 0 0 0 0 0 0 0 0 0 0 0 0 0 0 0 0 0 0 0 0 0 0 0 0 0 0 0 0 0 0 0 0 0 0 0 0 0 0 0 0 0 0 0 0 0 0 0 0 0 0 0 0 0 0 0 0 0 0 0 0 13 11 14 19 18 18 18 17 16 15 15 15 13 11 11 11 11 11 10 0 0 0 0 0 0 0 0 0 0 0 0 0 0 0 0 0 0 0 0 0 0 0 0 0 0 0 0 0 0 0 0 0 0 0 0 0 0 0 0 0 0 0 0 0 0 0 0 0 0 0 0 0 0 0 0 0 0 0 0 0 0 0 0 0 0 0 0 9 0 0 0 0 0 0 0 0 0 0 0 0 0 9 10 10 10 12 12 12 20 14 15 13 13 11 11 11 12 0 0 0 0 0 10 11 11 10 9 9 11 14 19 13 10 10 0 0 0 0 0 0 0 0 0 0 9 12 11 10 10 9 10 10 10 16 12 13 14 18 19 18 20 18 13 21 19 17 15 16 16 16 19 20 -193 24 26 27 28 30 30 24 23 22 22 19 19 18 18 15 19 19 17 13 19 19 20 18 20 20 22 23 19 19 19 21 19 18 18 18 14 21 21 22 19 27 29 28 28 28 29 31 32 28 29 29 29 28 28 30 28 26 27 27 31 29 29 28 28 29 31 33 31 29 33 34 35 35 0 0 0 0 0
    0 0 0 0 0 0 0 0 0 0 0 0 0 0 0 0 0 0 0 0 0 0 0 0 0 0 0 0 0 0 0 0 0 0 0 0 0 0 0 0 0 0 0 0 0 0 0 0 0 0 0 0 0 0 0 0 0 0 0 0 0 0 0 0 0 0 0 0 0 15 13 14 19 19 18 18 17 17 16 17 17 15 13 13 13 12 13 11 9 0 0 0 -193 0 0 0 0 0 0 0 0 0 0 0 0 0 0 0 0 0 0 0 0 0 0 0 0 0 0 0 0 0 0 0 0 0 0 0 0 0 0 0 0 0 0 0 0 0 0 0 0 0 0 0 0 0 0 0 0 0 0 0 0 0 0 0 0 0 0 0 0 0 0 0 0 0 0 0 0 0 9 9 10 11 12 13 12 19 14 15 13 13 12 11 11 12 0 9 0 9 0 10 11 11 10 9 0 10 11 16 11 9 9 0 0 0 0 0 0 0 0 0 0 9 13 12 10 11 10 11 12 12 17 13 14 15 18 19 19 20 18 14 22 19 17 14 16 15 15 18 19 -193 -193 26 27 27 29 28 22 21 21 21 18 18 18 18 15 19 18 16 12 18 18 19 17 20 20 22 23 19 19 19 21 19 18 18 18 14 20 21 22 18 26 28 28 28 29 30 31 32 28 29 29 28 28 27 29 27 26 27 27 31 29 29 28 28 29 31 32 31 29 32 34 35 35 0 0 0 0 0
    0 0 0 0 0 0 0 0 0 0 0 0 0 0 0 0 0 0 0 0 0 0 0 0 0 0 0 0 0 0 0 0 0 0 0 0 0 0 0 0 0 0 0 0 0 0 0 0 0 0 0 0 0 0 0 0 0 0 0 0 0 0 0 0 0 0 0 0 0 14 13 15 19 18 18 18 17 17 16 17 17 15 13 14 13 13 13 12 10 0 0 0 -193 0 0 0 -193 0 0 0 0 0 0 0 0 0 0 0 0 0 0 0 0 0 0 0 0 0 0 0 0 0 0 0 0 0 0 0 0 0 0 0 0 0 0 0 0 0 0 0 0 0 0 0 0 0 0 0 0 0 0 0 0 0 0 0 0 0 0 0 0 0 0 0 0 0 0 0 0 0 9 9 10 11 12 12 11 18 13 14 13 12 12 11 11 13 9 9 0 10 9 11 12 12 10 9 9 9 11 14 10 9 9 0 0 0 0 0 0 0 0 0 0 9 14 13 12 12 11 13 13 13 19 14 14 15 18 19 19 20 18 14 22 19 18 15 16 15 14 18 19 -193 24 26 26 26 28 26 22 21 21 20 18 18 17 17 15 18 18 15 12 18 18 19 17 20 21 23 23 19 19 19 21 19 18 18 18 14 20 21 22 17 26 28 28 29 29 30 31 31 28 28 28 28 27 27 28 27 26 27 28 31 29 29 28 28 29 31 31 31 28 32 34 35 35 0 0 0 0 0
    0 0 0 0 0 0 0 0 0 0 0 0 0 0 0 0 0 0 0 0 0 0 0 0 0 0 0 0 0 0 0 0 0 0 0 0 0 0 0 0 0 0 0 0 0 0 0 0 0 0 0 0 0 0 0 0 0 0 0 0 0 0 0 0 0 0 0 0 0 16 13 15 19 18 17 18 17 17 16 17 17 15 14 14 13 13 13 12 10 0 0 0 -193 0 0 0 -193 0 0 0 0 0 0 0 0 0 0 0 0 0 0 0 0 0 0 0 0 0 0 0 0 0 0 0 0 0 0 0 0 0 0 0 0 0 0 0 0 0 0 0 0 0 9 0 0 0 0 0 0 0 0 0 0 0 0 0 0 0 0 0 9 0 0 0 0 0 9 0 0 0 9 9 9 10 12 11 10 18 13 14 12 12 12 11 11 13 9 10 9 10 10 11 13 13 11 9 10 10 11 14 11 10 10 9 0 0 0 0 0 0 0 0 0 10 15 14 13 14 13 15 15 15 20 15 15 16 19 19 19 20 19 15 22 19 18 15 16 15 14 18 18 15 23 24 25 25 25 23 21 21 20 20 18 18 17 16 16 18 18 15 13 19 18 20 17 20 22 23 24 19 19 19 21 20 18 18 18 14 20 21 21 16 25 28 28 29 29 30 31 31 28 28 27 28 28 27 27 27 26 27 28 31 29 29 28 28 29 31 31 31 29 33 34 35 35 0 0 0 0 0
    0 0 0 0 0 0 0 0 0 0 0 0 0 0 0 0 0 0 0 0 0 0 0 0 0 0 0 0 0 0 0 0 0 0 0 0 0 0 0 0 0 0 0 0 0 0 0 0 0 0 0 0 0 0 0 0 0 0 0 0 0 0 0 0 0 0 0 0 0 17 14 15 19 18 17 18 17 17 16 17 17 15 13 14 13 13 13 12 10 0 0 0 -193 0 0 9 -193 0 0 0 0 0 0 0 0 0 0 0 0 0 0 0 0 0 0 0 0 0 0 0 0 0 0 0 0 0 0 0 0 0 0 0 0 0 0 0 0 0 0 0 0 0 9 0 0 0 0 0 0 0 0 0 0 0 0 0 0 0 0 0 9 0 0 9 0 0 9 0 0 0 0 8 0 9 12 11 11 17 13 13 12 12 12 11 11 13 10 10 9 10 10 11 12 12 10 9 9 9 11 13 11 10 10 10 0 0 0 0 0 9 9 9 -193 10 15 15 14 15 14 15 16 17 21 15 16 16 19 19 20 20 19 15 23 19 19 -193 16 14 14 17 17 13 21 22 23 23 23 22 20 20 20 20 18 17 17 16 16 18 18 14 13 19 19 20 18 21 24 24 -193 19 19 19 21 20 18 18 18 15 20 21 21 15 -193 28 27 28 29 30 30 31 28 28 27 28 28 28 27 27 26 27 28 30 29 29 28 28 29 31 31 31 29 33 33 35 35 0 0 0 0 0
    0 0 0 0 0 0 0 0 0 0 0 0 0 0 0 0 0 0 0 0 0 0 0 0 0 0 0 0 0 0 0 0 0 0 0 0 0 0 0 0 0 0 0 0 0 0 0 0 0 0 0 0 0 0 0 0 0 0 0 0 0 0 0 0 0 0 0 0 0 16 13 15 19 18 17 18 17 16 16 17 17 15 13 14 13 13 13 11 10 0 0 0 -193 0 0 9 -193 0 0 0 0 0 0 0 0 0 0 0 0 0 0 0 0 0 0 0 0 0 0 0 0 0 0 0 0 0 0 0 0 0 0 0 0 0 0 0 0 0 0 0 0 0 0 -193 0 0 0 0 0 0 0 0 0 0 0 0 0 0 0 0 9 0 0 9 0 0 0 0 0 0 0 0 0 9 11 11 10 14 12 12 11 11 11 10 10 12 10 11 9 10 10 10 12 12 10 0 9 9 9 12 11 10 10 10 0 0 0 0 0 9 10 10 10 12 15 15 15 16 16 15 16 17 21 16 16 16 19 19 19 20 19 15 23 19 19 15 16 15 14 17 17 12 19 20 20 20 22 20 18 18 20 19 17 17 17 15 16 18 18 14 13 20 20 21 19 23 25 26 -193 20 19 20 21 -193 18 19 18 15 21 21 22 17 -209 27 26 28 29 30 30 31 28 28 27 28 28 28 27 27 26 27 28 30 29 29 28 29 30 32 32 32 30 33 33 35 34 0 0 0 0 0
    0 0 0 0 0 0 0 0 0 0 0 0 0 0 0 0 0 0 0 0 0 0 0 0 0 0 0 0 0 0 0 0 0 0 0 0 0 0 0 0 0 0 0 0 0 0 0 0 0 0 0 0 0 0 0 0 0 0 0 0 0 0 0 0 0 0 0 0 0 14 13 15 19 18 17 18 17 16 16 17 17 15 13 14 13 13 13 11 10 0 0 0 0 0 0 0 0 0 0 0 0 0 0 0 0 0 0 0 0 0 0 0 0 0 0 0 0 0 0 0 0 0 0 0 0 0 0 0 0 0 0 0 0 0 0 0 0 0 0 0 0 0 0 0 0 0 0 0 0 0 0 0 0 0 0 0 0 0 0 0 9 0 0 9 0 0 0 0 0 0 0 0 0 9 11 10 10 12 10 11 11 11 10 9 10 11 10 11 9 10 11 11 13 13 10 9 9 9 9 11 10 10 10 10 0 0 0 9 9 10 12 12 11 13 16 16 15 17 16 15 16 17 21 16 16 16 19 19 19 20 19 14 22 19 19 15 16 15 14 17 17 11 18 17 17 17 21 18 17 17 19 18 17 17 16 14 17 18 18 14 15 21 21 22 21 -193 26 28 33 22 22 -193 -193 -193 20 20 20 16 22 21 22 19 25 27 27 28 29 31 31 32 29 28 28 28 28 28 27 27 26 27 28 30 30 29 29 29 30 33 32 33 31 34 33 35 34 0 0 0 0 0
    0 0 0 0 0 0 0 0 0 0 0 0 0 0 0 0 0 0 0 0 0 0 0 0 0 0 0 0 0 0 0 0 0 0 0 0 0 0 0 0 0 0 0 0 0 0 0 0 0 0 0 0 0 0 0 0 0 0 0 0 0 0 0 0 0 0 0 0 0 15 14 15 19 18 17 18 16 16 15 16 17 14 13 13 13 13 13 11 10 0 0 0 0 0 0 0 0 0 0 0 0 0 0 0 0 0 0 0 0 0 0 0 0 0 0 0 0 0 0 0 0 0 0 0 0 0 0 0 0 0 0 0 0 0 0 0 0 0 0 0 0 0 9 0 0 0 0 0 0 0 0 0 0 0 0 0 0 0 0 0 9 0 0 9 0 0 -193 -193 0 0 0 0 0 9 10 10 10 11 10 10 10 10 10 9 9 10 10 11 9 11 11 11 13 13 10 9 10 9 0 10 10 9 9 10 0 0 0 11 10 11 14 13 12 13 16 16 15 17 17 15 16 16 21 16 16 16 18 18 19 20 19 14 22 19 19 15 17 14 14 17 17 11 17 16 16 16 21 18 16 17 19 18 17 17 16 14 17 18 18 14 16 22 22 23 22 26 27 31 36 -209 -193 -209 -193 -193 22 22 21 18 23 22 22 20 25 27 27 29 31 33 32 34 30 30 31 29 30 29 27 27 26 27 28 29 30 29 29 30 30 33 31 33 31 34 33 34 34 0 0 0 0 0
    0 0 0 0 0 0 0 0 0 0 0 0 0 0 0 0 0 0 0 0 0 0 0 0 0 0 0 0 0 0 0 0 0 0 0 0 0 0 0 0 0 0 0 0 0 0 0 0 0 0 0 0 0 0 0 0 0 0 0 0 0 0 0 0 0 0 0 0 0 17 -193 16 20 19 18 19 17 16 15 15 16 14 13 13 12 12 12 10 9 0 0 0 0 0 0 0 0 0 0 0 0 0 9 0 0 0 0 0 0 0 0 0 0 0 0 0 0 0 0 0 0 0 0 0 0 0 0 0 0 0 0 0 0 0 0 0 0 0 0 0 0 0 9 0 0 0 0 0 0 0 0 0 0 0 0 0 0 0 0 0 0 0 9 9 0 0 -193 -193 0 0 0 0 0 0 10 10 10 9 9 10 9 9 9 0 9 10 10 11 10 11 11 11 13 13 11 10 10 10 0 10 9 9 9 11 0 0 9 12 11 12 16 15 13 14 16 16 16 17 17 14 15 16 21 16 16 16 19 18 19 20 18 14 22 19 18 15 17 14 15 17 17 11 17 16 16 16 21 17 16 16 19 17 16 16 16 13 18 18 18 13 18 23 24 24 24 28 30 33 37 39 30 -193 -193 -193 -193 23 23 19 24 23 23 22 25 28 28 30 33 -193 35 37 34 34 36 32 33 31 28 28 26 28 29 29 30 30 29 31 32 34 32 33 32 34 33 34 34 0 0 0 0 0
    0 0 0 0 0 0 0 0 0 0 0 0 0 0 0 0 0 0 0 0 0 0 0 0 0 0 0 0 0 0 0 0 0 0 0 0 0 0 0 0 0 0 0 0 0 0 0 0 0 0 0 0 0 0 0 0 0 0 0 0 0 0 0 0 0 0 0 0 0 -193 -193 17 21 20 19 19 17 15 15 14 15 13 12 12 11 11 11 10 9 0 0 0 0 0 0 0 0 0 0 0 0 0 9 8 0 0 0 0 0 0 0 0 0 0 0 0 0 0 0 0 0 0 0 0 0 0 0 0 0 0 0 0 0 0 0 0 0 0 0 0 9 0 9 0 0 0 0 0 0 0 0 0 0 0 0 0 0 0 0 0 0 0 9 10 0 0 -193 -193 0 0 0 0 0 0 9 9 9 0 0 9 9 9 0 0 0 9 10 12 10 11 12 12 13 14 11 11 11 10 9 10 10 10 9 12 9 9 9 13 12 12 18 16 14 15 16 17 16 17 17 14 14 15 21 16 16 15 19 17 19 19 18 14 22 18 18 14 17 15 15 17 17 11 18 16 17 17 21 17 16 16 20 17 16 16 16 14 18 18 18 13 20 24 25 25 26 30 33 36 39 40 35 33 34 31 26 26 25 21 25 25 25 25 27 31 31 34 35 -193 38 39 38 38 39 36 37 35 29 29 27 28 29 29 31 30 30 33 34 35 33 34 33 35 34 35 34 0 0 0 0 0
    0 0 0 0 0 0 0 0 0 0 0 0 0 0 0 0 0 0 0 0 0 0 0 0 0 0 0 0 0 0 0 0 0 0 0 0 0 0 0 0 0 0 0 0 0 0 0 0 0 0 0 0 0 0 0 0 0 0 0 0 0 0 0 0 0 0 0 0 0 16 -193 17 21 20 19 19 16 15 14 14 15 12 11 11 10 11 11 10 10 0 9 0 9 0 0 0 0 0 0 0 0 0 0 0 0 0 0 0 0 0 0 0 0 0 0 0 0 0 0 0 0 0 0 0 0 0 0 0 0 0 0 0 0 0 0 0 0 0 0 0 9 9 9 0 0 0 0 0 0 0 0 0 0 0 0 0 0 0 0 0 0 0 9 10 0 0 -193 0 0 0 0 0 0 0 9 9 9 0 0 0 0 0 0 0 0 0 10 11 10 12 12 12 13 14 13 12 13 12 11 12 12 11 11 12 10 10 10 14 12 13 19 17 15 15 16 16 16 17 17 14 14 15 21 16 16 15 19 17 19 19 18 14 22 18 18 14 16 15 15 17 17 11 18 17 17 18 22 17 16 17 20 18 17 17 17 15 20 20 20 14 23 27 29 30 32 36 37 38 40 41 38 36 37 34 29 29 28 23 27 26 27 26 30 36 37 37 38 -193 40 41 40 40 41 38 39 38 31 31 28 29 30 29 33 31 33 35 36 37 35 36 35 36 36 36 35 0 0 0 0 0
    0 0 0 0 0 0 0 0 0 0 0 0 0 0 0 0 0 0 0 0 0 0 0 0 0 0 0 0 0 0 0 0 0 0 0 0 0 0 0 0 0 0 0 0 0 0 0 0 0 0 0 0 0 0 0 0 0 0 0 0 0 0 0 0 0 0 0 0 0 17 16 17 21 20 19 19 17 16 15 14 15 12 11 11 10 11 12 11 11 9 11 9 10 10 0 0 0 0 0 0 0 0 0 0 0 0 0 0 0 0 0 0 0 0 0 0 0 0 9 0 0 0 0 0 0 0 0 0 0 0 0 0 0 0 0 0 0 0 0 0 9 9 9 0 0 0 0 0 0 0 0 0 0 0 0 0 0 0 0 0 0 0 9 10 0 0 0 0 0 0 0 0 0 0 9 9 9 0 0 0 0 0 0 0 0 0 10 11 10 12 12 12 13 14 14 13 13 13 12 12 13 12 12 13 11 10 11 15 13 14 19 17 15 15 16 16 15 16 16 13 13 14 20 16 16 15 19 17 19 19 18 13 22 18 18 14 16 15 15 17 17 11 19 19 20 21 23 18 18 19 22 19 19 19 19 17 -193 -193 -193 17 26 33 35 36 37 39 39 40 41 42 39 38 39 36 32 32 31 25 29 28 29 28 35 40 40 40 40 45 42 44 42 41 42 40 40 39 35 35 30 32 32 31 36 -193 -193 37 37 39 37 38 37 37 38 37 37 0 0 0 0 0
    0 0 0 0 0 0 0 0 0 0 0 0 0 0 0 0 0 0 0 0 0 0 0 0 0 0 0 0 0 0 0 0 0 0 0 0 0 0 0 0 0 0 0 0 0 0 0 0 0 0 0 0 0 0 0 0 0 0 0 0 0 0 0 0 0 0 0 0 0 17 16 18 21 21 20 20 18 16 15 14 14 12 12 12 11 12 13 12 13 11 13 11 11 10 9 0 0 0 0 0 0 0 0 0 0 0 0 0 0 0 0 0 0 0 0 0 0 0 9 0 0 0 0 0 0 0 0 0 0 0 0 0 0 0 0 0 0 0 0 0 9 9 9 0 0 0 0 0 0 0 0 0 0 0 0 0 0 0 0 0 0 0 9 9 0 0 0 0 0 0 0 0 0 0 0 9 9 0 0 0 0 0 0 0 0 0 10 11 10 13 13 13 14 15 15 14 14 14 13 13 13 12 13 12 11 11 12 15 13 14 19 17 16 15 15 16 15 16 15 13 13 13 20 16 15 15 19 17 18 19 18 13 22 18 18 13 16 15 15 16 17 11 20 20 21 23 24 20 20 21 23 20 20 20 20 20 -177 -177 -193 -193 28 37 37 39 40 40 40 40 41 42 40 39 39 37 34 34 35 26 31 30 32 31 39 42 42 42 41 46 44 45 44 42 43 41 41 42 38 38 32 36 35 34 38 -193 -193 37 39 40 38 39 38 39 39 38 38 0 0 0 0 0
    0 0 0 0 0 0 0 0 0 0 0 0 0 0 0 0 0 0 0 0 0 0 0 0 0 0 0 0 0 0 0 0 0 0 0 0 0 0 0 0 0 0 0 0 0 0 0 0 0 0 0 0 0 0 0 0 0 0 0 0 0 0 0 0 0 0 0 0 0 16 16 17 21 20 19 19 17 16 15 14 14 13 13 13 13 14 16 14 16 13 17 13 11 11 9 0 0 0 0 0 0 0 0 0 0 0 0 0 0 0 0 0 0 0 0 0 0 0 9 0 0 0 0 0 0 0 0 0 0 0 0 0 0 0 0 0 0 0 0 0 10 9 9 0 0 0 0 0 0 0 0 0 0 0 0 0 0 0 0 0 0 0 -193 -193 0 0 0 0 0 0 0 0 0 0 0 0 0 0 0 0 0 0 0 0 0 0 10 12 11 15 16 16 17 17 18 16 15 15 14 14 14 13 13 12 12 11 12 14 13 14 18 16 15 15 15 16 15 15 15 13 12 13 19 15 14 15 19 17 18 19 18 13 23 18 18 13 17 15 15 17 18 12 21 21 22 23 24 21 22 22 24 21 22 -193 -193 -193 -193 -193 -193 -209 33 39 39 41 42 41 41 40 42 41 40 40 40 38 36 37 38 30 36 35 37 36 42 43 43 43 43 46 45 46 45 43 44 42 42 43 40 40 37 39 38 38 41 38 39 39 40 41 40 -193 39 40 -193 40 -193 0 0 0 0 0
    0 0 0 0 0 0 0 0 0 0 0 0 0 0 0 0 0 0 0 0 0 0 0 0 0 0 0 0 0 0 0 0 0 0 0 0 0 0 0 0 0 0 0 0 0 0 0 0 0 0 0 0 0 0 0 0 0 0 0 0 0 0 0 0 0 0 0 0 0 15 16 16 20 19 18 18 16 16 15 13 14 14 14 16 15 16 -193 -193 -193 -193 21 15 11 10 9 0 0 0 0 0 0 0 0 0 0 0 0 0 0 0 0 0 0 0 0 0 0 0 0 0 0 0 0 0 0 0 0 0 0 0 0 0 0 0 0 0 0 0 -177 0 10 10 9 0 0 0 0 0 0 0 0 0 0 0 0 0 0 0 0 -193 -193 -193 -193 394 -193 0 0 0 0 0 0 0 0 9 0 0 0 0 0 0 0 0 0 0 0 0 10 13 12 17 20 20 20 20 21 19 17 16 15 14 14 13 14 12 12 11 12 13 13 14 17 16 15 14 14 15 14 15 14 13 12 12 18 15 14 14 19 17 18 19 17 13 23 18 18 13 17 15 16 17 18 13 23 23 24 26 26 23 24 24 28 23 24 -193 -193 -193 29 31 30 28 36 40 40 42 42 42 41 40 42 41 40 40 39 38 37 38 40 36 40 39 41 40 43 45 45 44 44 47 46 47 46 44 45 43 43 44 42 42 40 41 40 41 43 40 41 40 42 42 42 42 41 42 43 42 42 0 0 0 0 0
    0 0 0 0 0 0 0 0 0 0 0 0 0 0 0 0 0 0 0 0 0 0 0 0 0 0 0 0 0 0 0 0 0 0 0 0 0 0 0 0 0 0 0 0 0 0 0 0 0 0 0 0 0 0 0 0 0 0 0 0 0 0 0 0 0 0 0 0 0 15 17 16 19 19 18 17 16 15 15 13 14 14 15 18 -193 -193 -193 -177 -193 -209 -209 -209 10 10 9 0 0 0 0 0 0 0 0 0 0 8 0 0 0 0 0 0 0 0 0 0 0 0 0 0 0 0 0 0 0 0 0 0 0 0 0 0 0 0 0 10 0 0 -177 9 10 10 9 0 0 0 0 0 0 0 0 0 0 0 0 0 0 0 0 -193 -193 -193 -193 394 -193 9 0 0 0 0 0 0 0 9 0 0 9 0 0 0 0 0 0 0 0 0 10 14 12 18 21 22 22 22 22 20 19 17 16 15 15 13 14 12 12 11 12 12 12 14 16 15 15 14 14 15 14 15 13 13 12 12 18 14 14 15 18 17 18 18 17 13 22 18 17 13 17 16 17 19 20 14 25 25 26 29 28 29 30 29 32 27 27 28 27 29 32 34 35 34 39 41 41 43 43 42 42 41 42 40 40 40 39 37 37 38 40 37 41 41 42 41 44 44 45 44 44 47 46 47 46 45 45 44 43 45 43 43 42 43 42 44 45 43 43 42 44 44 44 44 43 44 44 43 44 0 0 0 0 0
    0 0 0 0 0 0 0 0 0 0 0 0 0 0 0 0 0 0 0 0 0 0 0 0 0 0 0 0 0 0 0 0 0 0 0 0 0 0 0 0 0 0 0 0 0 0 0 0 0 0 0 0 0 0 0 0 0 0 0 0 0 0 0 0 0 0 0 0 0 16 18 15 19 19 18 17 16 16 15 13 14 15 16 20 -193 -193 -177 -177 -193 -193 -193 -193 -193 -193 0 0 0 0 0 0 0 0 0 0 0 0 0 0 0 0 0 0 0 0 0 0 0 0 0 0 0 0 0 0 0 0 0 0 0 0 0 0 0 0 0 11 0 0 -177 9 9 9 9 0 0 0 0 0 0 0 0 0 0 0 0 0 0 0 0 -193 -193 -193 -193 394 -193 -193 9 9 0 0 0 0 0 10 0 0 10 0 0 0 -193 -193 0 0 0 0 10 13 13 20 23 24 24 23 23 21 20 17 17 15 15 13 14 12 13 11 11 11 12 15 15 15 14 13 14 15 15 15 13 13 12 12 18 15 14 15 18 17 18 18 16 13 22 17 16 13 17 17 18 20 21 16 26 27 28 31 30 35 35 34 35 32 31 33 30 33 35 36 38 38 40 42 42 43 44 43 43 42 42 40 39 40 39 37 38 38 41 39 42 43 43 42 44 44 44 44 44 46 46 46 46 45 45 44 44 45 43 43 43 44 44 45 46 44 44 43 44 44 44 45 43 44 45 44 45 0 0 0 0 0
    0 0 0 0 0 0 0 0 0 0 0 0 0 0 0 0 0 0 0 0 0 0 0 0 0 0 0 0 0 0 0 0 0 0 0 0 0 0 0 0 0 0 0 0 0 0 0 0 0 0 0 0 0 0 0 0 0 0 0 0 0 0 0 0 0 0 0 0 0 15 18 15 18 18 17 18 16 16 16 14 16 18 19 22 22 -193 -209 -193 -209 -193 -193 -177 -193 -193 -193 0 0 0 0 0 0 0 0 0 0 9 0 0 0 0 0 0 0 0 0 0 0 0 0 0 0 0 0 0 0 0 0 0 0 0 0 0 0 0 0 12 9 -177 -177 9 9 9 9 0 0 0 0 0 0 0 0 0 0 0 0 0 0 0 0 -193 -193 -193 394 394 -193 -193 9 9 0 0 0 0 0 10 0 0 11 0 0 0 -193 -193 0 0 0 0 10 13 15 21 25 26 26 24 24 22 20 18 17 15 14 13 14 12 13 11 11 11 11 15 14 14 14 13 13 15 15 15 13 14 13 13 17 15 15 15 18 17 18 18 16 13 22 16 15 13 17 17 19 21 21 18 26 28 29 32 31 37 38 36 37 35 35 36 34 36 37 37 39 39 41 42 42 43 44 43 43 42 43 41 39 40 39 38 39 39 42 41 44 44 44 43 44 44 44 44 44 46 46 46 46 45 45 45 44 45 44 44 44 45 44 45 46 45 44 44 44 44 44 44 43 44 44 45 45 0 0 0 0 0
    0 0 0 0 0 0 0 0 0 0 0 0 0 0 0 0 0 0 0 0 0 0 0 0 0 0 0 0 0 0 0 0 0 0 0 0 0 0 0 0 0 0 0 0 0 0 0 0 0 0 0 0 0 0 0 0 0 0 0 0 0 0 0 0 0 0 0 0 0 15 18 15 18 18 17 18 17 17 17 17 19 21 22 25 25 25 28 31 30 31 30 28 18 16 13 0 9 9 9 0 9 9 10 0 0 9 0 0 0 0 0 0 0 0 0 0 0 0 0 0 0 0 0 0 0 0 0 0 0 0 0 0 0 0 0 11 9 9 9 9 9 9 9 0 0 0 0 0 0 0 0 0 0 0 0 0 0 0 0 -193 -193 -193 -193 394 -193 9 10 9 0 0 0 0 0 10 0 0 12 0 0 0 -177 -177 0 0 0 0 10 13 15 23 26 27 28 26 25 22 21 18 17 15 14 13 14 12 13 11 11 11 11 15 14 14 15 13 13 15 15 15 13 15 14 13 17 15 16 15 19 18 19 18 16 13 22 16 15 13 17 18 19 21 22 20 27 29 30 33 33 37 38 36 37 36 37 37 36 37 38 38 40 40 41 42 42 43 43 42 43 42 43 41 40 40 39 38 40 41 44 42 45 45 45 44 45 44 44 44 44 46 46 46 46 45 45 45 44 45 44 44 45 45 45 45 46 45 44 44 44 44 43 43 43 44 44 45 44 0 0 0 0 0
    0 0 0 0 0 0 0 0 0 0 0 0 0 0 0 0 0 0 0 0 0 0 0 0 0 0 0 0 0 0 0 0 0 0 0 0 0 0 0 0 0 0 0 0 0 0 0 0 0 0 0 0 0 0 0 0 0 0 0 0 0 0 0 0 0 0 0 0 0 15 19 15 18 18 18 18 18 18 19 18 21 23 24 27 28 28 30 32 33 34 32 31 22 18 16 10 10 9 9 0 10 10 10 9 9 10 0 9 9 9 0 0 0 0 0 0 0 0 0 0 0 0 0 0 0 0 0 0 0 0 0 0 0 0 0 11 9 9 9 9 9 9 9 0 0 0 0 0 0 0 0 0 0 0 0 0 0 0 0 -193 -193 -193 -193 -177 -193 9 10 10 0 9 10 10 0 11 9 0 14 0 0 -209 -177 -193 0 9 9 0 11 15 17 24 26 27 29 27 26 23 21 19 17 15 14 13 14 12 13 11 11 11 11 16 14 14 15 12 14 15 16 15 13 15 15 13 17 15 16 15 19 18 19 18 17 15 22 16 15 14 18 18 20 22 23 -193 27 29 31 33 33 37 38 36 37 37 37 37 36 37 38 38 40 41 41 42 41 43 42 42 42 41 42 40 40 40 38 39 41 42 46 43 46 46 45 45 45 44 44 44 44 45 46 45 46 45 45 45 45 45 44 44 45 46 46 45 46 45 -193 -193 -193 -193 43 -193 -193 -193 -193 44 44 0 0 0 0 0
    0 0 0 0 0 0 0 0 0 0 0 0 0 0 0 0 0 0 0 0 0 0 0 0 0 0 0 0 0 0 0 0 0 0 0 0 0 0 0 0 0 0 0 0 0 0 0 0 0 0 0 0 0 0 0 0 0 0 0 0 0 0 0 0 0 0 0 0 0 15 19 14 18 19 18 19 19 20 21 19 23 24 25 29 31 30 32 34 35 36 33 32 18 13 13 10 10 9 10 0 10 10 11 10 9 10 9 9 10 10 9 0 0 0 0 9 0 0 0 0 0 0 0 0 0 0 0 0 0 0 0 0 0 0 0 12 10 10 10 11 9 10 9 0 0 0 0 0 0 0 0 -193 -209 -209 -209 -209 0 0 0 -193 -193 0 -193 -193 -193 10 10 11 0 13 23 23 -193 20 13 11 17 9 9 10 -193 9 9 10 11 0 12 18 20 26 28 30 32 31 29 24 22 19 17 15 14 13 14 12 13 11 11 11 11 16 14 14 15 12 14 15 17 15 14 16 15 14 17 16 17 16 19 18 19 18 17 16 21 15 15 15 18 18 21 22 23 -177 27 29 31 32 33 36 38 36 36 37 37 37 36 38 39 38 41 41 41 41 41 43 42 41 42 41 41 39 39 40 36 39 43 43 47 44 46 46 45 45 45 44 44 43 43 45 45 45 45 45 45 45 45 46 44 44 46 46 46 45 46 -193 -193 188 -193 -193 -193 -193 -193 -193 -193 44 43 0 0 0 0 0
    0 0 0 0 0 0 0 0 0 0 0 0 0 0 0 0 0 0 0 0 0 0 0 0 0 0 0 0 0 0 0 0 0 0 0 0 0 0 0 0 0 0 0 0 0 0 0 0 0 0 0 0 0 0 0 0 0 0 0 0 0 0 0 0 0 0 0 0 0 14 19 14 18 19 19 20 -193 21 22 21 24 26 27 30 31 29 31 33 33 35 33 34 -193 22 22 0 10 9 11 9 11 12 13 11 11 12 12 12 13 14 15 9 9 9 10 12 0 0 0 0 0 0 0 0 0 0 0 0 0 0 0 0 0 0 0 13 11 11 11 12 10 11 10 9 0 0 0 0 -193 11 27 31 27 30 27 -193 -193 0 -209 -209 -193 0 0 0 9 11 12 13 11 22 27 27 -193 -193 20 15 19 11 11 12 11 10 10 11 13 10 15 20 23 27 29 32 34 33 30 26 23 20 18 15 14 13 14 12 13 11 11 11 11 16 14 14 16 12 14 15 18 16 14 17 16 14 17 16 18 16 19 18 19 18 17 16 21 15 14 15 18 18 21 23 23 -177 27 29 31 32 33 37 38 36 37 38 38 38 37 38 -193 38 41 41 41 -193 41 42 -209 -209 -209 40 41 39 39 39 35 39 44 43 47 43 46 45 45 45 45 44 44 43 43 45 45 45 45 45 45 45 45 46 44 44 45 45 46 46 46 46 -193 -193 -193 -193 -193 -193 -193 -193 43 44 43 0 0 0 0 0
    0 0 0 0 0 0 0 0 0 0 0 0 0 0 0 0 0 0 0 0 0 0 0 0 0 0 0 0 0 0 0 0 0 0 0 0 0 0 0 0 0 0 0 0 0 0 0 0 0 0 0 0 0 0 0 0 0 0 0 0 0 0 0 0 0 0 0 0 0 14 19 14 18 19 19 21 -193 22 23 22 26 28 28 31 31 29 31 33 33 35 33 34 30 28 28 25 17 12 13 11 13 14 15 13 13 15 16 17 20 21 23 18 12 15 13 16 0 0 0 0 0 0 -193 -193 -193 -193 -193 0 0 0 0 0 0 0 0 13 14 14 13 15 13 14 13 12 11 10 25 26 26 26 29 34 30 31 29 28 27 -209 -209 -209 -193 -193 9 -193 9 13 14 16 18 26 29 29 -193 -193 22 17 19 12 12 12 11 11 10 11 14 11 17 21 24 28 30 33 34 33 31 27 -193 21 19 16 14 13 14 12 13 11 11 11 12 17 14 14 16 13 15 16 19 16 14 18 17 14 17 16 19 15 19 18 19 17 17 16 20 14 14 15 18 -193 21 -193 -177 -177 28 30 32 32 34 37 38 35 37 37 37 37 37 -209 -193 -193 -177 -193 -209 -209 -209 42 -209 -209 -209 40 41 39 39 39 34 40 45 43 47 43 45 45 45 45 45 44 44 43 44 45 45 45 45 45 45 45 46 46 45 45 46 46 46 46 46 -193 -193 -193 -193 -193 45 45 44 44 43 43 42 0 0 0 0 0
    0 0 0 0 0 0 0 0 0 0 0 0 0 0 0 0 0 0 0 0 0 0 0 0 0 0 0 0 0 0 0 0 0 0 0 0 0 0 0 0 0 0 0 0 0 0 0 0 0 0 0 0 0 0 0 0 0 0 0 0 0 0 0 0 0 0 0 0 0 14 19 15 18 19 20 -193 191 -193 -193 -193 29 32 32 34 32 30 32 33 33 35 33 33 32 30 30 27 24 17 15 13 15 16 17 15 15 18 21 21 24 24 26 26 18 23 18 20 0 9 11 0 0 9 -193 -193 961 -193 -193 0 0 0 0 0 0 0 9 14 18 19 19 20 20 22 22 22 21 25 26 28 28 28 30 35 31 32 30 30 29 27 26 25 15 10 11 10 10 14 18 19 25 29 34 33 -193 -209 23 18 19 11 11 11 11 11 10 12 16 13 21 23 26 30 31 33 34 33 30 27 -193 21 19 17 14 14 15 12 13 12 12 11 12 17 14 15 17 14 16 17 19 17 15 19 17 14 17 16 19 16 19 19 19 18 -177 -177 -193 13 -193 16 19 146 144 144 146 -177 28 30 32 31 34 37 38 35 36 37 37 37 37 -193 -193 389 390 -177 -209 -209 -209 -193 -193 -209 -193 39 41 39 39 39 33 40 46 43 48 44 46 46 46 45 46 44 45 43 44 45 45 45 45 45 45 45 46 46 45 45 46 46 46 46 46 -193 -193 -193 -193 45 45 45 44 44 43 43 42 0 0 0 0 0
    0 0 0 0 0 0 0 0 0 0 0 0 0 0 0 0 0 0 0 0 0 0 0 0 0 0 0 0 0 0 0 0 0 0 0 0 0 0 0 0 0 0 0 0 0 0 0 0 0 0 0 0 0 0 0 0 0 0 0 0 0 0 0 0 0 0 0 0 0 14 19 15 19 20 21 -193 191 -193 28 28 33 36 36 36 34 34 35 35 35 36 35 35 35 35 33 29 27 24 20 16 18 19 18 19 19 22 25 25 27 28 29 30 25 26 24 23 20 14 23 -209 10 19 -193 964 962 -193 -193 0 0 0 0 0 0 9 12 19 22 24 24 24 25 25 25 26 25 27 27 30 30 30 32 36 33 33 31 31 30 29 28 27 21 13 13 12 10 17 22 22 28 33 37 36 35 -193 -193 -193 -193 10 11 -193 11 11 11 12 18 17 25 25 27 32 31 33 34 34 31 29 -193 23 20 18 15 14 14 12 12 12 12 11 11 17 14 14 17 14 16 17 20 17 15 19 18 -193 -193 -193 19 16 20 19 20 19 -193 -193 -193 -193 -177 16 19 144 143 143 145 -209 28 30 32 31 34 36 38 34 36 37 37 37 37 -193 -177 388 389 -177 -209 -209 -209 -193 -193 -209 -209 39 40 39 39 39 33 41 47 44 49 44 46 46 46 45 46 44 45 43 44 45 45 45 44 44 45 45 46 46 45 45 46 46 46 46 46 -193 -193 -193 46 45 45 45 44 45 43 44 42 0 0 0 0 0
    0 0 0 0 0 0 0 0 0 0 0 0 0 0 0 0 0 0 0 0 0 0 0 0 0 0 0 0 0 0 0 0 0 0 0 0 0 0 0 0 0 0 0 0 0 0 0 0 0 0 0 0 0 0 0 0 0 0 0 0 0 0 0 0 0 0 0 0 0 15 20 16 19 -193 22 -193 -193 28 33 33 35 38 37 37 36 35 36 35 35 37 35 35 36 36 34 31 29 26 23 21 21 21 20 22 22 25 28 28 30 30 31 32 29 30 28 26 27 22 30 -209 22 26 -209 -209 -193 -209 -193 0 0 0 0 0 0 9 16 23 25 27 26 26 27 27 28 28 27 29 28 33 32 32 34 36 33 33 32 32 32 30 29 29 25 21 19 20 12 21 26 25 33 36 39 37 37 -193 -209 -209 -193 -209 -193 -193 11 11 13 15 22 25 27 28 28 32 32 33 34 33 31 30 -193 24 21 20 16 14 14 11 11 12 11 11 10 16 13 14 17 14 16 17 20 17 15 20 18 15 -193 -193 20 17 21 20 21 19 -177 -193 -193 14 -177 17 19 144 143 143 145 -193 29 31 32 30 34 36 37 34 36 37 37 37 37 -193 -177 388 389 388 -193 388 -193 -193 -193 -193 -209 39 40 39 40 40 32 41 47 44 48 43 45 45 45 45 45 43 45 43 43 44 44 44 44 44 -193 44 46 46 45 46 46 46 46 46 46 -193 46 47 46 46 46 45 45 45 44 45 43 0 0 0 0 0
    0 0 0 0 0 0 0 0 0 0 0 0 0 0 0 0 0 0 0 0 0 0 0 0 0 0 0 0 0 0 0 0 0 0 0 0 0 0 0 0 0 0 0 0 0 0 0 0 0 0 0 0 0 0 0 0 0 0 0 0 0 0 0 0 0 0 0 0 0 15 20 16 20 -193 22 -193 -193 33 37 36 37 39 38 38 37 36 37 36 36 37 36 36 37 37 35 33 30 28 25 24 24 24 23 27 27 29 31 30 32 31 32 33 31 33 30 27 28 27 38 -209 29 32 -209 -209 -209 -209 -209 0 0 0 0 0 -193 9 -193 25 27 30 29 28 29 30 31 31 29 31 30 35 34 34 34 36 33 33 33 33 32 31 30 30 26 25 24 26 -193 25 29 29 36 38 39 38 38 -193 -209 -177 -209 -209 -209 286 -193 -193 16 20 26 28 31 30 30 33 33 33 33 33 31 29 28 25 23 21 18 15 14 11 11 11 11 10 10 16 13 14 17 14 16 17 20 18 16 20 18 15 18 18 20 18 21 20 21 20 -177 -177 21 14 -193 17 20 144 144 145 146 -193 29 31 32 30 34 35 37 33 36 36 37 36 37 -193 -193 -193 388 -177 -193 -193 -193 -193 -193 -193 -209 39 41 39 40 40 33 41 46 43 48 42 45 44 44 44 45 43 44 42 43 44 44 -193 -193 -193 -193 44 45 45 45 45 46 46 46 46 46 45 46 47 46 47 46 46 46 46 45 45 44 0 0 0 0 0
    0 0 0 0 0 0 0 0 0 0 0 0 0 0 0 0 0 0 0 0 0 0 0 0 0 0 0 0 0 0 0 0 0 0 0 0 0 0 0 0 0 0 0 0 0 0 0 0 0 0 0 0 0 0 0 0 0 0 0 0 0 0 0 0 0 0 0 0 0 15 20 17 21 -193 23 29 33 36 38 38 38 39 39 39 38 37 37 37 37 38 37 37 38 38 36 34 30 28 26 27 27 27 27 30 29 32 33 32 32 32 33 33 33 34 30 27 28 35 39 -209 34 36 -193 -193 -209 -209 -209 0 0 0 0 0 -193 -193 -193 25 28 32 31 31 32 32 34 33 33 34 31 36 35 34 35 36 33 33 33 34 33 32 32 31 27 28 27 29 29 28 32 32 37 38 39 37 36 -193 -209 -193 -209 -209 -209 -177 -209 -209 -209 -193 35 35 34 33 31 33 34 33 33 33 31 30 29 27 25 23 20 16 14 11 11 11 10 10 9 16 13 14 16 14 15 17 19 18 16 20 18 16 19 19 20 18 21 21 22 21 -177 -177 21 15 15 18 20 145 145 146 146 -193 29 31 32 30 33 34 36 33 35 36 37 36 37 38 38 37 -193 -193 39 -193 -209 42 -193 41 41 40 41 40 41 41 35 41 46 43 47 42 44 43 44 44 44 43 45 42 44 44 44 -193 -193 -193 -193 44 45 45 45 45 46 46 46 46 -193 -193 -193 -193 47 47 46 47 47 47 46 46 45 0 0 0 0 0
    0 0 0 0 0 0 0 0 0 0 0 0 0 0 0 0 0 0 0 0 0 0 0 0 0 0 0 0 0 0 0 0 0 0 0 0 0 0 0 0 0 0 0 0 0 0 0 0 0 0 0 0 0 0 0 0 0 0 0 0 0 0 0 0 0 0 0 0 0 16 20 19 22 -209 24 32 36 38 39 39 39 40 39 39 38 38 38 38 38 38 37 38 38 38 35 33 29 26 26 27 27 28 28 30 30 32 33 32 32 32 32 33 33 34 30 27 30 38 40 -193 37 38 -193 -193 -193 -193 -209 -193 0 0 0 0 -193 -193 -209 27 30 35 34 34 35 35 35 35 35 35 32 36 35 35 35 36 34 33 34 34 34 33 33 31 28 29 31 33 34 33 35 35 37 38 38 36 35 -193 -209 -209 -177 -209 -209 -209 -209 -209 -209 -193 39 38 36 36 34 34 35 35 34 34 32 32 32 29 28 26 22 18 14 11 10 11 10 10 9 15 12 14 16 14 15 18 20 18 16 20 19 16 19 19 21 18 21 21 22 21 -177 -177 -177 15 16 18 20 145 144 146 146 147 29 31 32 30 33 35 36 33 36 36 37 36 37 38 38 37 40 40 39 39 40 42 -193 41 41 40 42 41 42 41 36 41 44 42 46 42 43 43 43 43 44 43 45 43 44 44 45 -193 -193 -193 -193 44 45 45 45 45 45 45 45 45 -193 46 47 49 48 48 47 47 48 49 47 48 46 0 0 0 0 0
    0 0 0 0 0 0 0 0 0 0 0 0 0 0 0 0 0 0 0 0 0 0 0 0 0 0 0 0 0 0 0 0 0 0 0 0 0 0 0 0 0 0 0 0 0 0 0 0 0 0 0 0 0 0 0 0 0 0 0 0 0 0 0 0 0 0 0 0 0 17 22 21 -209 -209 27 36 38 39 39 40 39 40 39 39 39 39 39 39 38 38 38 38 38 38 34 33 29 26 26 26 27 28 29 31 31 33 34 32 32 32 32 33 33 34 29 26 29 39 40 41 38 38 -177 -193 -193 -193 -177 -193 0 0 0 0 -193 -193 -193 28 31 36 35 35 37 36 37 37 37 36 33 35 34 33 34 35 34 32 33 34 33 32 33 31 29 31 35 36 37 37 38 38 38 39 38 37 35 -209 -209 -177 -177 -193 -209 -209 -209 -209 -209 -193 41 40 39 37 35 35 35 35 34 35 33 33 35 32 31 31 25 22 14 11 10 11 10 9 0 15 12 14 16 15 15 18 20 19 17 20 19 16 19 20 21 19 21 21 23 22 -177 -177 -177 15 16 18 20 144 145 146 147 147 30 31 32 30 33 34 36 33 36 36 37 36 37 38 37 37 39 39 39 39 40 42 40 41 41 41 42 41 41 41 36 41 43 41 44 41 42 42 42 43 44 43 45 43 45 45 46 46 45 44 -193 44 45 45 44 45 45 45 45 45 45 45 47 48 47 49 48 49 49 50 48 49 48 0 0 0 0 0
    0 0 0 0 0 0 0 0 0 0 0 0 0 0 0 0 0 0 0 0 0 0 0 0 0 0 0 0 0 0 0 0 0 0 0 0 0 0 0 0 0 0 0 0 0 0 0 0 0 0 0 0 0 0 0 0 0 0 0 0 0 0 0 0 0 0 0 0 0 -209 27 25 -193 -209 30 37 37 38 39 39 39 40 40 40 40 40 40 40 39 39 38 37 37 37 32 30 27 25 25 26 27 29 30 31 31 33 34 32 32 32 32 34 33 34 30 28 33 41 41 41 39 -193 -177 -177 -177 -177 -177 -193 -193 -193 -193 0 -177 -193 -193 29 32 36 35 36 37 36 37 37 37 37 34 35 34 32 34 34 34 31 34 34 34 32 33 32 30 31 35 36 -193 38 39 39 39 40 39 37 37 -193 -209 -177 -177 -209 -193 -193 -209 -193 -209 -209 41 41 39 37 35 35 35 35 35 35 33 34 36 35 35 35 33 27 14 12 10 11 10 9 0 14 12 14 16 15 16 18 20 19 18 21 19 17 20 20 21 20 22 22 24 23 -177 -177 -177 16 16 19 21 145 145 147 148 148 31 32 32 31 33 35 36 33 36 36 37 36 36 38 37 37 39 39 39 39 41 42 41 42 42 42 42 41 41 41 37 40 42 41 44 41 42 42 42 43 43 43 44 43 44 45 46 46 45 45 45 44 45 45 44 45 45 45 45 45 44 44 46 47 46 48 48 48 49 50 48 49 48 0 0 0 0 0
    0 0 0 0 0 0 0 0 0 0 0 0 0 0 0 0 0 0 0 0 0 0 0 0 0 0 0 0 0 0 0 0 0 0 0 0 0 0 0 0 0 0 0 0 0 0 0 0 0 0 0 0 0 0 0 0 0 0 0 0 0 0 0 0 0 0 0 0 0 36 34 31 34 36 34 36 36 37 37 38 39 39 39 39 40 40 40 40 40 39 38 38 38 37 30 29 25 23 24 26 27 29 30 31 31 32 33 32 32 32 32 34 35 34 32 33 38 41 40 40 38 39 -177 -177 -177 -177 -177 -193 0 0 0 0 -193 -209 -177 30 32 36 36 36 37 37 37 38 38 37 36 36 35 34 35 35 35 33 35 35 34 33 34 33 31 31 35 -193 -193 38 39 40 39 40 38 37 -193 -193 -209 -177 -177 -193 -193 -193 -209 -193 -209 -193 41 40 39 38 36 36 36 36 36 36 35 35 37 36 37 37 36 32 12 10 9 11 10 9 0 14 12 14 17 16 16 19 20 20 19 21 20 18 21 22 22 22 24 24 25 24 24 -177 -177 -177 17 19 21 -193 147 148 148 148 31 33 32 31 33 34 35 32 35 35 36 36 36 37 37 37 39 39 39 40 41 43 42 42 42 42 42 42 42 41 37 40 41 41 43 42 42 42 42 43 43 43 44 43 44 45 46 45 45 45 46 45 45 45 45 46 46 45 45 44 44 44 46 46 46 49 47 48 49 50 49 49 49 0 0 0 0 0
    0 0 0 0 0 0 0 0 0 0 0 0 0 0 0 0 0 0 0 0 0 0 0 0 0 0 0 0 0 0 0 0 0 0 0 0 0 0 0 0 0 0 0 0 0 0 0 0 0 0 0 0 0 0 0 0 0 0 0 0 0 0 0 0 0 0 0 0 0 38 36 32 34 35 33 35 34 35 36 37 38 38 38 39 39 40 40 41 40 40 39 38 38 36 28 27 23 21 25 27 29 30 30 33 31 33 34 32 31 32 32 35 35 35 35 36 39 40 39 39 38 39 -177 -177 -177 -177 -177 -193 0 0 0 0 -193 -209 -177 31 33 36 36 36 38 38 38 39 39 39 39 39 37 36 36 36 36 35 36 36 35 34 35 35 32 33 36 -193 -193 38 39 39 38 39 37 36 -193 -193 -209 -193 -193 -209 -209 -193 -193 -193 -209 -193 40 39 39 38 36 36 36 36 36 36 36 36 37 37 38 38 38 36 -193 -209 9 12 10 9 0 14 12 15 18 16 15 19 21 21 20 22 21 20 23 23 24 24 25 26 27 26 25 25 -177 -177 19 20 21 -193 -193 149 150 149 32 33 33 32 33 35 35 33 35 34 35 35 34 37 37 37 38 39 39 40 41 43 42 42 43 43 42 42 42 41 38 40 40 41 43 42 42 42 42 43 43 43 44 43 44 45 46 46 45 45 46 45 45 46 45 46 46 45 45 45 44 45 47 46 46 50 48 48 49 50 49 49 49 0 0 0 0 0
    0 0 0 0 0 0 0 0 0 0 0 0 0 0 0 0 0 0 0 0 0 0 0 0 0 0 0 0 0 0 0 0 0 0 0 0 0 0 0 0 0 0 0 0 0 0 0 0 0 0 0 0 0 0 0 0 0 0 0 0 0 0 0 0 0 0 0 0 0 39 37 33 35 35 33 35 34 35 35 36 37 38 38 39 39 39 40 40 40 39 38 37 37 31 26 26 20 20 25 28 30 31 32 33 31 33 33 32 31 31 31 35 35 37 37 39 40 41 40 40 39 40 -193 -177 -177 -177 -177 -177 -209 -193 -193 -193 -193 -193 -193 33 35 37 37 38 39 39 39 40 41 40 40 40 38 37 36 37 37 35 37 37 35 34 35 35 33 33 35 35 36 38 39 38 37 38 36 36 34 32 -193 -193 -193 -209 -209 -193 -209 -209 -193 -193 39 39 39 38 36 36 36 37 37 37 36 36 37 38 38 39 39 37 36 39 -209 19 14 10 9 16 13 17 19 17 16 20 22 22 22 24 23 23 25 25 26 26 27 27 29 28 26 26 -177 20 20 20 22 20 -193 150 151 -193 32 34 34 -193 33 35 35 34 35 34 34 33 33 36 36 37 37 39 39 40 41 43 42 42 43 43 42 42 41 41 38 39 40 40 42 42 42 42 42 43 43 43 43 43 44 45 46 46 46 46 46 46 45 46 45 46 46 45 45 45 44 45 48 46 47 51 48 48 49 50 48 48 49 0 0 0 0 0
    0 0 0 0 0 0 0 0 0 0 0 0 0 0 0 0 0 0 0 0 0 0 0 0 0 0 0 0 0 0 0 0 0 0 0 0 0 0 0 0 0 0 0 0 0 0 0 0 0 0 0 0 0 0 0 0 0 0 0 0 0 0 0 0 0 0 0 0 0 37 36 32 33 33 32 33 34 35 35 36 37 38 38 39 39 40 40 40 40 40 38 38 38 31 25 26 17 20 25 29 31 31 32 33 32 33 33 32 31 31 31 35 36 37 38 40 40 41 40 40 40 41 -193 -209 -209 -177 -177 -177 -209 -209 -209 -209 -209 -209 -193 36 37 38 39 39 40 40 40 41 41 40 40 40 39 38 37 38 38 37 37 37 36 35 36 36 34 34 35 35 35 37 38 38 37 38 35 35 33 32 -193 -209 -209 -209 -209 -209 -209 -209 -177 35 38 38 39 38 37 37 37 38 38 37 37 37 38 39 39 40 40 39 41 41 41 28 28 20 16 21 18 21 21 20 20 22 23 24 24 25 24 25 26 28 28 27 28 29 31 30 28 28 24 22 21 21 22 22 22 -193 151 -193 33 34 35 -193 34 35 34 34 33 35 35 33 32 35 36 37 37 39 39 40 42 43 42 43 43 43 42 42 41 41 37 38 39 40 41 42 42 42 42 43 43 43 43 44 44 45 46 46 46 46 46 46 45 46 45 45 45 45 45 45 44 45 49 47 48 51 48 48 49 49 48 48 50 0 0 0 0 0
    0 0 0 0 0 0 0 0 0 0 0 0 0 0 0 0 0 0 0 0 0 0 0 0 0 0 0 0 0 0 0 0 0 0 0 0 0 0 0 0 0 0 0 0 0 0 0 0 0 0 0 0 0 0 0 0 0 0 0 0 0 0 0 0 0 0 0 0 0 39 38 34 35 33 33 32 33 34 34 36 37 38 39 39 40 40 40 41 41 40 39 38 39 30 25 25 18 21 26 30 33 33 33 34 32 34 34 32 31 32 31 36 36 37 38 40 40 41 40 41 41 42 43 42 47 -193 -193 -209 -209 -209 -209 -209 -209 -209 39 39 39 40 40 41 41 42 42 42 41 41 42 40 40 39 38 38 39 38 38 38 37 36 37 37 35 34 35 35 35 38 38 38 37 38 35 35 34 33 34 -193 -193 -193 -209 -209 -209 -209 -177 34 37 37 38 38 37 37 37 38 38 38 38 38 39 40 40 41 41 40 42 41 42 35 37 36 36 34 30 29 30 28 28 28 30 32 31 31 30 31 30 33 33 31 31 32 34 35 32 33 27 26 24 24 24 24 22 -193 -193 -193 -193 36 37 -209 -193 36 33 33 31 34 34 33 32 35 36 37 37 39 39 40 41 43 42 42 43 43 41 41 41 40 37 38 39 40 41 43 43 42 42 43 43 43 43 44 44 46 46 46 46 46 46 46 45 46 45 45 46 45 45 45 45 45 50 47 48 51 48 48 49 49 48 47 50 0 0 0 0 0
    0 0 0 0 0 0 0 0 0 0 0 0 0 0 0 0 0 0 0 0 0 0 0 0 0 0 0 0 0 0 0 0 0 0 0 0 0 0 0 0 0 0 0 0 0 0 0 0 0 0 0 0 0 0 0 0 0 0 0 0 0 0 0 0 0 0 0 0 0 39 38 34 34 32 33 31 32 34 32 35 37 38 39 39 40 40 40 40 40 40 38 37 38 -193 25 30 23 23 28 32 34 34 34 35 33 34 34 33 32 34 33 37 37 38 39 40 40 41 41 42 43 44 45 44 51 49 50 51 -209 -209 -209 44 45 40 42 41 41 42 42 43 43 44 44 43 43 43 44 42 41 40 39 39 39 38 38 38 37 36 36 37 35 33 35 35 36 38 39 38 37 38 36 36 35 34 35 33 -193 34 -193 -209 -209 -209 -193 32 35 36 38 38 37 37 37 38 39 39 39 39 40 40 41 41 42 41 42 41 41 34 36 35 36 34 34 34 36 35 36 37 37 38 38 37 37 36 35 36 36 35 35 35 37 38 38 40 41 39 41 41 39 41 42 -193 -209 -209 -209 38 -209 -209 -193 -193 32 32 30 33 34 33 32 34 35 36 36 39 39 39 41 42 42 42 42 42 40 40 40 38 36 38 39 40 -209 43 42 42 42 42 43 42 43 44 44 46 46 46 46 46 47 47 46 47 45 46 46 45 46 45 45 45 50 46 48 50 48 47 48 48 48 47 50 0 0 0 0 0
    0 0 0 0 0 0 0 0 0 0 0 0 0 0 0 0 0 0 0 0 0 0 0 0 0 0 0 0 0 0 0 0 0 0 0 0 0 0 0 0 0 0 0 0 0 0 0 0 0 0 0 0 0 0 0 0 0 0 0 0 0 0 0 0 0 0 0 0 0 39 37 33 34 31 32 30 32 33 32 35 37 38 40 40 41 41 40 41 41 40 38 36 38 30 30 36 28 26 31 34 36 35 35 36 34 35 35 34 34 35 35 38 38 39 40 41 41 41 42 43 44 45 47 46 52 51 51 51 50 50 45 46 48 43 46 45 44 45 44 46 46 47 45 45 44 46 46 43 43 42 39 40 40 39 39 38 37 36 36 37 35 34 36 36 37 39 40 39 37 38 36 36 35 35 36 34 -193 35 32 -209 -209 -193 -193 31 33 34 37 37 38 38 38 38 39 39 39 39 41 40 41 41 42 41 42 40 40 33 34 32 32 30 29 30 32 33 34 37 37 38 39 38 38 37 37 37 37 35 35 34 35 37 37 40 42 41 44 44 42 44 45 46 42 41 -209 -193 36 -193 -209 -193 30 31 29 31 34 34 33 34 35 35 36 38 38 38 40 41 41 41 42 42 39 40 40 37 35 37 38 40 -209 43 42 42 42 42 43 42 42 44 44 46 46 46 46 46 47 47 46 47 45 46 46 45 46 45 45 46 50 46 48 50 48 47 48 47 48 47 50 0 0 0 0 0
    0 0 0 0 0 0 0 0 0 0 0 0 0 0 0 0 0 0 0 0 0 0 0 0 0 0 0 0 0 0 0 0 0 0 0 0 0 0 0 0 0 0 0 0 0 0 0 0 0 0 0 0 0 0 0 0 0 0 0 0 0 0 0 0 0 0 0 0 0 37 36 33 34 32 33 30 32 34 33 36 37 38 39 40 41 40 40 40 41 39 38 36 37 30 33 37 30 29 32 36 36 36 36 36 35 36 36 36 35 37 37 39 39 39 40 41 41 42 43 44 47 48 50 49 54 52 53 52 52 51 46 49 51 46 51 50 47 49 46 49 48 49 47 46 46 47 46 45 45 44 40 40 40 39 39 39 37 36 37 38 36 35 37 37 37 39 40 39 38 38 37 37 36 36 37 35 -193 36 -193 -193 -193 -193 -193 30 30 32 36 36 37 38 38 38 38 38 39 39 40 40 40 41 41 41 41 40 38 34 33 30 30 28 27 28 28 30 33 38 37 39 39 38 39 39 38 38 38 37 36 35 36 36 37 38 40 39 43 43 42 43 44 45 42 42 -209 -193 -193 -209 -209 -209 -193 32 30 32 33 34 33 34 35 34 35 37 37 37 40 41 40 41 41 42 39 40 40 37 35 37 38 40 -209 43 42 42 42 42 42 41 42 43 43 45 46 46 46 46 47 48 -193 47 45 46 46 45 45 45 45 45 50 46 48 50 47 47 47 47 47 46 50 0 0 0 0 0
    0 0 0 0 0 0 0 0 0 0 0 0 0 0 0 0 0 0 0 0 0 0 0 0 0 0 0 0 0 0 0 0 0 0 0 0 0 0 0 0 0 0 0 0 0 0 0 0 0 0 0 0 0 0 0 0 0 0 0 0 0 0 0 0 0 0 0 0 0 37 37 35 35 34 35 31 34 36 35 36 37 37 37 37 39 39 38 39 39 39 37 37 38 34 35 37 32 31 34 36 37 36 37 37 35 37 37 37 36 38 38 39 39 40 41 41 41 42 43 44 49 49 51 51 55 53 53 51 51 50 47 50 52 49 53 52 51 53 50 53 51 52 49 48 48 49 48 46 46 45 41 41 41 40 40 39 37 36 38 39 38 37 38 38 38 40 41 40 38 39 38 38 37 36 37 36 -193 -193 -193 -193 -193 -193 -193 29 29 30 36 38 38 39 39 39 39 39 40 40 41 40 40 41 41 42 42 40 38 36 34 31 30 28 28 28 27 29 32 40 -193 -209 40 40 40 40 39 39 39 38 37 36 37 37 38 38 39 39 42 42 43 43 43 44 41 42 -209 35 -193 -209 -209 -209 -209 -209 29 32 33 34 34 35 36 35 35 37 37 37 39 41 39 40 41 41 38 39 39 37 34 37 39 41 -193 43 42 42 42 42 42 42 42 44 44 46 46 47 46 47 47 48 46 47 45 45 45 45 45 45 46 46 51 47 49 50 47 47 47 46 47 46 49 0 0 0 0 0
    0 0 0 0 0 0 0 0 0 0 0 0 0 0 0 0 0 0 0 0 0 0 0 0 0 0 0 0 0 0 0 0 0 0 0 0 0 0 0 0 0 0 0 0 0 0 0 0 0 0 0 0 0 0 0 0 0 0 0 0 0 0 0 0 0 0 0 0 0 39 39 37 37 35 36 33 35 37 37 37 37 37 38 38 39 40 39 40 40 41 40 39 41 38 40 40 38 36 37 38 38 38 38 38 37 38 39 39 38 39 39 40 41 41 42 42 43 44 46 48 53 53 53 53 56 54 54 52 51 51 47 50 52 50 53 52 52 54 51 54 52 53 50 50 49 50 48 47 47 46 41 43 43 42 41 39 38 37 38 39 38 38 39 40 40 41 42 41 39 39 39 40 38 37 -193 38 -193 38 -193 -193 29 -193 -193 30 29 29 37 37 38 39 39 38 38 39 40 40 41 41 41 41 42 42 42 40 38 37 36 34 33 31 30 30 30 31 35 42 40 47 41 40 41 41 40 40 40 40 38 37 39 39 40 39 41 40 43 42 44 43 43 44 42 43 -209 -193 -193 -193 -209 -209 35 -193 31 33 34 35 34 35 36 34 35 36 36 36 38 40 39 40 41 41 39 39 40 38 36 37 39 42 39 43 42 42 42 42 42 42 42 44 44 46 47 47 47 47 48 48 46 46 45 44 45 44 45 45 45 46 51 47 50 50 47 47 47 46 47 46 49 0 0 0 0 0
    0 0 0 0 0 0 0 0 0 0 0 0 0 0 0 0 0 0 0 0 0 0 0 0 0 0 0 0 0 0 0 0 0 0 0 0 0 0 0 0 0 0 0 0 0 0 0 0 0 0 0 0 0 0 0 0 0 0 0 0 0 0 0 0 0 0 0 0 0 41 40 39 38 35 37 34 37 39 38 38 38 38 39 39 41 40 39 40 41 41 41 41 42 41 42 43 40 39 39 40 38 38 38 38 38 39 40 40 39 41 41 43 43 43 43 43 45 46 49 52 55 55 55 55 57 55 55 53 52 52 48 51 52 51 53 53 53 54 52 53 53 53 50 50 50 51 48 48 49 48 42 44 44 43 41 39 38 37 39 40 39 39 40 41 41 42 42 42 40 40 39 41 38 38 -193 38 39 38 36 35 30 34 -193 34 32 28 37 37 39 40 40 39 38 39 40 41 41 41 41 41 41 42 42 40 38 38 37 35 34 34 34 34 33 33 37 42 42 46 41 40 40 40 40 40 40 40 37 37 39 39 39 -193 40 39 41 -193 -209 42 42 44 42 -209 -209 -209 -209 -209 -209 -209 -209 -209 -193 35 36 37 35 34 35 33 34 36 36 35 38 39 40 41 41 42 40 40 41 40 39 38 39 44 40 43 42 42 42 42 42 42 42 44 44 46 47 47 47 46 47 47 46 45 44 44 44 44 44 44 45 45 50 47 50 50 47 47 47 46 47 45 49 0 0 0 0 0
    0 0 0 0 0 0 0 0 0 0 0 0 0 0 0 0 0 0 0 0 0 0 0 0 0 0 0 0 0 0 0 0 0 0 0 0 0 0 0 0 0 0 0 0 0 0 0 0 0 0 0 0 0 0 0 0 0 0 0 0 0 0 0 0 0 0 0 0 0 41 41 39 37 35 36 33 36 40 39 39 39 39 39 39 42 41 39 40 40 41 41 42 42 41 43 43 40 39 39 39 38 38 37 37 37 39 40 41 -193 42 42 46 45 44 45 44 47 49 52 54 56 56 56 56 57 56 56 55 55 54 51 54 55 54 54 55 54 55 52 54 54 54 51 51 52 53 51 52 52 52 45 49 47 45 42 40 39 37 39 41 41 40 41 43 42 42 42 42 41 40 40 41 38 37 38 37 38 37 36 35 30 35 38 38 37 34 40 40 40 41 42 40 38 40 41 42 42 42 42 41 42 42 42 41 38 38 37 35 35 36 36 37 35 34 37 41 41 45 41 39 40 40 40 38 39 38 36 36 39 -209 40 -209 40 40 42 -209 -209 -193 42 -193 -193 -209 -209 -209 -209 -209 -209 -209 -209 -193 37 37 38 39 37 36 36 34 35 36 36 35 38 40 41 41 41 42 41 41 42 42 41 40 41 47 41 44 43 43 43 43 43 42 42 44 44 46 46 46 46 46 47 46 45 45 44 44 44 -193 -193 -193 45 46 50 47 50 50 47 47 47 46 47 45 49 0 0 0 0 0
    0 0 0 0 0 0 0 0 0 0 0 0 0 0 0 0 0 0 0 0 0 0 0 0 0 0 0 0 0 0 0 0 0 0 0 0 0 0 0 0 0 0 0 0 0 0 0 0 0 0 0 0 0 0 0 0 0 0 0 0 0 0 0 0 0 0 0 0 0 42 41 39 37 36 36 34 36 40 39 39 38 39 39 39 41 41 39 40 41 41 41 42 43 41 42 42 40 39 38 39 38 37 37 37 37 39 41 42 44 43 44 48 48 46 46 47 50 51 54 56 57 57 57 57 57 57 56 56 56 55 53 55 56 56 55 55 55 56 54 55 55 55 52 52 52 53 51 51 52 52 44 49 49 47 42 39 39 37 39 41 -193 41 42 45 45 43 43 43 42 41 41 41 39 37 38 37 38 37 36 35 31 35 38 38 38 37 40 42 40 40 41 39 38 40 41 42 42 42 42 41 42 42 42 41 38 39 37 35 35 37 36 36 34 33 35 38 39 42 40 39 40 41 41 39 38 37 34 36 40 -209 -209 -209 -209 -193 -209 -209 -209 -193 -193 -209 -209 -209 -209 -209 -209 -209 -209 -193 -193 -193 37 36 38 39 38 36 35 34 34 35 35 34 36 39 41 41 42 42 41 42 42 42 41 41 42 48 42 45 44 43 43 43 43 42 42 44 44 45 45 45 45 46 46 46 45 45 44 44 45 45 -193 45 45 46 50 47 50 49 47 47 47 46 47 46 49 0 0 0 0 0
    0 0 0 0 0 0 0 0 0 0 0 0 0 0 0 0 0 0 0 0 0 0 0 0 0 0 0 0 0 0 0 0 0 0 0 0 0 0 0 0 0 0 0 0 0 0 0 0 0 0 0 0 0 0 0 0 0 0 0 0 0 0 0 0 0 0 0 0 0 42 40 39 36 35 35 34 37 40 39 39 38 38 38 39 40 40 39 41 41 41 42 42 43 42 43 42 40 39 38 39 37 37 36 36 37 39 41 42 48 45 47 50 50 49 49 50 52 53 56 57 58 58 57 57 57 57 56 56 55 55 54 55 56 56 55 55 55 56 54 55 55 55 52 52 52 52 50 51 51 51 44 50 51 48 42 39 -193 -193 40 41 -193 41 42 46 46 44 43 44 42 41 41 42 39 38 38 37 38 37 37 36 31 35 38 38 38 39 40 41 39 39 40 38 37 39 41 43 42 42 42 42 42 43 42 41 38 40 38 36 35 37 36 36 34 32 35 36 37 41 39 37 39 40 41 39 37 37 34 37 41 44 52 50 44 47 -193 -193 -193 -193 43 42 -209 -209 -209 -209 -193 -209 -209 -193 -193 -193 -193 38 40 39 38 36 36 34 34 34 35 34 37 40 42 42 42 43 42 42 42 42 41 41 42 48 41 45 44 43 43 43 42 42 42 44 44 45 45 45 45 46 46 46 46 45 45 45 45 46 -193 45 46 46 50 47 51 49 47 47 48 46 47 46 48 0 0 0 0 0
    0 0 0 0 0 0 0 0 0 0 0 0 0 0 0 0 0 0 0 0 0 0 0 0 0 0 0 0 0 0 0 0 0 0 0 0 0 0 0 0 0 0 0 0 0 0 0 0 0 0 0 0 0 0 0 0 0 0 0 0 0 0 0 0 0 0 0 0 0 43 41 40 38 37 37 36 37 40 39 39 38 38 37 38 40 39 40 40 41 41 41 42 43 42 43 42 -193 39 38 39 37 37 35 36 38 40 43 44 53 47 49 51 52 51 51 52 54 54 57 58 58 59 58 57 57 57 57 57 56 56 55 55 57 56 56 56 56 56 54 55 56 55 52 52 52 52 49 51 51 50 44 50 50 48 -193 -193 -193 -193 -193 -193 -193 41 43 46 46 45 44 45 43 42 42 42 39 39 38 37 38 38 37 36 32 36 38 -193 -209 -209 -209 43 39 40 41 39 37 39 42 43 42 42 42 42 42 43 43 41 38 41 39 37 36 37 37 35 34 32 34 34 33 41 36 35 36 39 41 38 37 38 35 38 42 45 51 50 44 47 -193 -193 -193 -209 42 -209 -209 -209 -209 -209 252 -209 -209 -193 41 42 43 40 41 40 38 37 37 35 35 34 35 34 37 40 43 42 42 43 42 42 42 42 41 41 42 47 41 44 44 43 43 42 42 42 42 44 44 45 45 45 45 46 46 46 46 45 45 45 45 46 45 46 46 47 50 47 51 49 47 47 48 46 47 45 48 0 0 0 0 0
    0 0 0 0 0 0 0 0 0 0 0 0 0 0 0 0 0 0 0 0 0 0 0 0 0 0 0 0 0 0 0 0 0 0 0 0 0 0 0 0 0 0 0 0 0 0 0 0 0 0 0 0 0 0 0 0 0 0 0 0 0 0 0 0 0 0 0 0 0 44 43 42 39 39 40 39 40 41 39 39 39 39 37 36 39 39 40 40 40 41 41 43 44 43 45 43 -193 39 39 39 37 37 35 36 39 41 45 -193 -209 48 50 52 52 52 52 53 54 55 57 57 58 58 58 57 58 58 57 57 57 57 56 56 57 57 56 56 56 56 54 55 56 56 52 52 53 53 50 51 51 50 45 50 51 49 -193 -193 -193 -193 -193 -193 -193 -193 43 46 47 45 44 45 43 41 42 42 39 39 39 37 38 38 -193 36 31 -193 -209 -209 -209 -209 -209 -193 40 40 42 40 37 39 42 44 42 42 42 42 42 43 43 41 38 41 40 38 37 39 38 37 35 34 35 34 -193 41 37 36 37 40 41 38 37 37 35 38 42 45 51 51 45 48 -193 -193 -193 -193 42 -209 -209 -209 -209 -193 253 -193 -193 -193 42 44 43 40 41 39 38 36 36 35 35 34 35 34 36 40 43 42 43 43 42 42 42 43 41 41 41 46 41 44 44 43 43 42 42 42 42 44 44 44 44 44 45 45 46 45 45 45 44 45 45 47 46 47 46 47 49 48 51 49 47 47 47 46 47 45 48 0 0 0 0 0
    0 0 0 0 0 0 0 0 0 0 0 0 0 0 0 0 0 0 0 0 0 0 0 0 0 0 0 0 0 0 0 0 0 0 0 0 0 0 0 0 0 0 0 0 0 0 0 0 0 0 0 0 0 0 0 0 0 0 0 0 0 0 0 0 0 0 0 0 0 46 47 43 39 37 38 36 38 41 42 42 43 -193 -209 37 -193 39 41 41 40 42 42 43 45 43 46 -193 -193 -193 -193 -193 -209 -193 34 37 40 -209 -209 -209 -209 50 51 53 53 53 53 54 55 55 57 57 57 57 57 56 56 57 56 56 57 57 56 56 57 57 56 56 56 56 54 56 57 57 52 53 53 53 51 51 52 50 45 51 51 50 -193 -193 -193 -193 -193 -193 -193 -193 43 46 46 45 44 45 43 41 41 42 40 39 39 37 37 37 -193 -193 30 -193 -193 -209 -193 -209 -209 -209 39 40 43 41 37 40 42 44 43 43 43 43 42 43 43 42 40 42 41 39 39 40 39 39 37 36 37 36 -193 -193 -209 37 -193 40 41 38 36 37 34 38 42 46 53 53 48 50 49 -193 -193 -193 41 -209 -209 -209 -209 -177 -177 -193 -193 -193 43 44 43 40 40 39 38 36 36 36 36 35 36 36 38 41 45 44 44 44 43 43 43 43 43 41 41 47 42 45 45 44 44 43 43 43 43 44 44 44 44 44 45 45 45 45 45 44 44 45 45 47 46 47 46 47 49 47 51 49 47 47 47 46 47 45 48 0 0 0 0 0
    0 0 0 0 0 0 0 0 0 0 0 0 0 0 0 0 0 0 0 0 0 0 0 0 0 0 0 0 0 0 0 0 0 0 0 0 0 0 0 0 0 0 0 0 0 0 0 0 0 0 0 0 0 0 0 0 0 0 0 0 0 0 0 0 0 0 0 0 0 53 55 -209 -209 39 -209 -209 38 39 42 45 -209 -193 -209 -209 -209 46 47 44 42 44 43 44 46 44 46 -193 -193 -193 -193 -193 93 -193 -193 -193 -209 -209 -209 203 -193 51 52 54 54 54 54 55 56 55 57 57 57 57 57 56 56 57 57 57 58 58 57 57 58 58 56 56 56 56 54 55 57 57 53 53 54 54 53 53 53 52 47 52 53 51 -193 -193 -193 -193 -193 -193 -193 -193 -193 45 46 44 44 45 42 40 40 42 40 -193 -209 37 37 37 -193 -193 -193 -193 -193 -209 -209 -209 -209 -209 37 39 41 40 37 40 41 43 43 43 44 43 43 44 43 42 41 42 41 40 40 41 40 40 38 36 37 36 -193 -193 -209 -209 -209 39 -193 33 32 34 31 37 42 46 54 55 51 51 50 -193 -193 -193 -209 -209 -209 -209 -209 -177 -177 -193 -193 -209 45 46 45 41 42 40 39 37 37 36 36 35 36 36 38 42 47 46 46 47 45 45 44 45 44 41 40 45 42 45 45 45 45 44 44 44 44 44 45 44 44 44 45 45 45 45 45 44 44 44 45 47 46 47 46 47 49 48 51 49 47 47 47 46 47 46 48 0 0 0 0 0
    0 0 0 0 0 0 0 0 0 0 0 0 0 0 0 0 0 0 0 0 0 0 0 0 0 0 0 0 0 0 0 0 0 0 0 0 0 0 0 0 0 0 0 0 0 0 0 0 0 0 0 0 0 0 0 0 0 0 0 0 0 0 0 0 0 0 0 0 0 -209 68 72 -209 -209 -209 -209 -209 -209 40 45 52 -193 65 61 62 58 57 57 57 53 50 45 -225 -225 -225 -225 -225 -225 -225 -225 -225 -225 -193 -225 -193 46 -209 -209 143 51 51 53 53 53 53 54 55 54 56 57 57 58 57 56 56 57 57 58 59 59 58 58 58 59 57 57 57 -193 55 56 57 58 55 55 55 55 54 53 53 52 49 52 53 51 -209 -209 -209 -209 -209 -209 -193 -193 -209 -193 45 43 -193 -193 -209 38 -193 -193 -193 -209 -209 -193 36 36 -193 -193 -193 -193 -209 -209 -193 -209 -209 -209 -209 -193 39 -193 37 40 40 43 43 44 45 44 43 44 43 43 42 42 40 39 39 41 -193 39 37 34 35 35 -193 -209 -209 -193 -209 36 -209 -209 -193 31 30 37 42 46 52 54 -209 50 -193 -193 -209 -209 -209 -209 -209 -209 -209 -209 -193 45 46 56 52 49 52 45 45 41 40 38 39 38 37 38 39 41 41 46 49 48 49 49 46 45 44 45 42 40 39 42 40 43 43 44 44 42 43 44 43 44 44 44 44 44 45 45 44 45 44 44 44 44 45 47 47 47 47 47 49 48 51 49 47 47 47 46 47 46 48 0 0 0 0 0
    0 0 0 0 0 0 0 0 0 0 0 0 0 0 0 0 0 0 0 0 0 0 0 0 0 0 0 0 0 0 0 0 0 0 0 0 0 0 0 0 0 0 0 0 0 0 0 0 0 0 0 0 0 0 0 0 0 0 0 0 0 0 0 0 0 0 0 0 0 81 75 76 -209 -209 -193 -209 -193 -209 40 45 51 -193 63 61 61 60 -225 -225 -225 -225 -225 -225 -225 -225 -225 -225 -225 -225 -225 -225 -225 -225 -225 -225 -225 -225 -225 -225 -225 -225 52 52 55 54 54 55 55 55 57 58 58 58 59 57 56 58 58 58 59 60 58 58 59 59 58 58 58 -209 -209 -209 58 60 57 57 57 57 56 54 54 53 50 52 53 50 -193 0 0 -209 -193 -193 -193 -193 -193 44 44 -193 -193 -225 -225 -225 -225 -225 -225 -225 -225 -225 -225 -225 -193 142 142 -193 -193 -209 -193 -209 -209 -209 -209 -209 -209 -209 38 -209 40 43 45 47 48 46 46 46 -193 -193 -193 92 -209 -193 -209 86 86 -209 -193 33 -193 35 -209 -209 0 0 -193 -209 -193 0 20 -177 38 40 45 54 55 60 58 55 56 57 54 -193 -209 -209 -209 -209 -209 -209 -209 -209 -193 -193 -193 50 56 51 49 42 -209 -209 -193 40 39 40 40 42 42 48 48 48 50 50 45 44 42 42 38 38 37 39 39 42 42 43 43 41 42 43 43 43 44 44 44 44 45 46 45 45 45 45 44 44 45 48 47 48 47 48 49 49 51 49 47 46 46 45 46 46 47 0 0 0 0 0
    0 0 0 0 0 0 0 0 0 0 0 0 0 0 0 0 0 0 0 0 0 0 0 0 0 0 0 0 0 0 0 0 0 0 0 0 0 0 0 0 0 0 0 0 0 0 0 0 0 0 0 0 0 0 0 0 0 0 0 0 0 0 0 0 0 0 0 0 0 83 78 78 -193 -209 78 -209 44 -209 -209 46 52 56 63 61 61 60 -225 -225 -225 -225 -225 -225 -225 -225 -225 -225 -225 -225 -225 -225 -225 -225 -225 -225 -225 -225 -225 -225 -225 -225 52 52 53 52 53 54 54 52 55 58 58 60 61 58 58 59 60 59 59 60 58 57 58 59 58 57 -209 -209 -209 -209 60 61 60 58 58 57 56 52 52 48 45 47 49 48 -225 -225 -225 -225 -225 -225 -225 -225 -225 -225 -225 -225 -225 -225 -225 -225 -225 -225 -225 -225 -225 -225 -225 -225 -225 -225 -225 -225 -225 -225 -209 -209 -209 -209 -193 -209 -225 -193 -193 -225 -225 -193 47 49 50 47 47 46 43 45 43 43 -193 -193 86 87 88 91 90 -225 -225 -225 -225 -225 0 0 0 -209 -193 0 -209 39 45 -193 54 58 62 65 62 60 62 62 59 60 60 59 56 -209 -209 -209 -209 -209 -209 -209 -209 -209 -193 44 47 41 -193 -209 -209 41 40 42 42 42 43 52 52 52 55 55 -209 44 40 40 36 37 36 39 39 44 45 45 47 43 43 44 45 44 44 44 44 45 45 47 45 45 45 44 42 42 44 48 47 48 47 48 48 50 52 49 46 45 45 44 45 45 47 0 0 0 0 0</data></disparity>
</opencv_storage>
