<?xml version="1.0"?>
<opencv_storage>
<gps_time_stamp>22740</gps_time_stamp>
<gps_x>-3.1632425785064697e+000</gps_x>
<gps_y>3.5735204815864563e-001</gps_y>
<gps_z>-3.7524315714836121e-001</gps_z>
<image_time_stamp>10664</image_time_stamp>
<disparity type_id="opencv-matrix">
  <rows>80</rows>
  <cols>320</cols>
  <dt>s</dt>
  <data>
    0 0 0 0 0 0 0 0 0 0 0 0 0 0 0 0 0 0 0 0 0 0 0 0 0 0 0 0 0 0 0 0 0 0 0 0 0 0 0 0 0 0 0 0 0 0 0 0 0 0 0 0 0 0 0 0 0 0 0 0 0 0 0 0 0 0 0 0 0 238 237 237 237 237 237 237 238 236 236 238 237 237 237 237 236 235 234 234 234 -193 235 235 235 236 236 236 237 238 238 237 236 236 236 237 236 236 235 235 235 235 236 236 237 238 238 239 237 239 237 238 237 236 235 235 234 235 233 234 236 235 234 234 234 234 234 235 235 234 234 236 236 236 238 238 238 238 237 237 238 239 238 238 238 238 238 239 238 240 236 238 236 236 236 236 237 237 237 238 236 237 237 237 238 237 237 236 234 234 234 234 234 234 233 233 232 233 232 233 232 232 233 233 233 233 232 232 233 233 233 233 233 233 232 234 234 232 232 232 232 232 232 233 232 234 235 235 237 236 238 236 237 235 234 233 234 232 231 232 233 232 233 233 233 234 234 235 233 233 233 232 233 233 231 231 232 232 232 231 231 231 231 231 230 229 229 227 227 227 227 231 233 235 235 234 235 235 235 235 235 234 234 234 235 234 235 233 233 232 231 230 230 230 229 229 229 231 229 230 229 229 228 227 227 228 228 229 229 231 230 232 232 233 233 233 233 233 231 232 231 231 232 233 234 235 235 0 0 0 0 0
    0 0 0 0 0 0 0 0 0 0 0 0 0 0 0 0 0 0 0 0 0 0 0 0 0 0 0 0 0 0 0 0 0 0 0 0 0 0 0 0 0 0 0 0 0 0 0 0 0 0 0 0 0 0 0 0 0 0 0 0 0 0 0 0 0 0 0 0 0 238 237 237 237 237 236 237 238 235 236 238 236 236 237 237 235 234 234 234 234 234 235 236 235 235 236 236 237 237 238 236 235 235 235 236 236 236 235 234 234 235 236 237 237 239 238 240 237 239 237 238 237 236 235 235 233 234 233 233 235 235 234 234 234 234 234 235 235 234 234 235 235 236 238 238 238 238 237 238 239 239 239 238 238 238 238 238 237 239 237 239 237 237 237 237 238 238 237 238 237 237 237 237 238 238 238 237 234 235 235 235 236 236 234 234 233 235 233 234 233 232 233 233 234 234 232 233 233 233 233 233 233 233 233 235 234 233 233 233 233 232 232 233 232 234 235 235 237 237 239 237 237 236 235 234 234 232 231 232 233 -193 233 -193 233 234 234 235 233 233 233 233 234 233 231 232 232 232 232 232 232 231 231 231 231 230 230 229 229 231 230 -193 234 235 235 234 234 234 -193 234 233 233 233 233 235 234 235 234 233 232 230 230 230 230 229 229 229 231 229 230 229 229 228 228 228 229 228 230 229 231 230 231 232 233 233 233 233 233 231 232 231 231 232 233 234 235 235 0 0 0 0 0
    0 0 0 0 0 0 0 0 0 0 0 0 0 0 0 0 0 0 0 0 0 0 0 0 0 0 0 0 0 0 0 0 0 0 0 0 0 0 0 0 0 0 0 0 0 0 0 0 0 0 0 0 0 0 0 0 0 0 0 0 0 0 0 0 0 0 0 0 0 238 237 237 237 237 237 237 237 235 236 237 236 235 236 236 235 235 234 234 234 234 235 236 236 236 236 236 237 237 238 237 235 235 235 235 235 235 234 233 233 233 234 235 236 238 237 239 237 239 237 238 237 237 235 235 233 234 233 233 235 235 234 234 234 235 235 236 235 233 234 234 235 235 237 237 237 238 237 238 239 239 239 237 237 237 236 236 236 237 236 238 237 237 237 237 238 238 237 239 237 238 237 237 238 238 238 238 235 237 236 236 237 237 236 236 235 237 234 236 234 233 234 234 234 234 232 233 233 233 233 233 233 234 234 235 234 233 233 233 233 232 232 232 232 234 235 235 238 237 239 238 238 236 235 234 234 231 231 231 232 -193 -193 -193 233 234 234 235 233 233 233 233 234 233 232 232 233 232 232 232 232 232 231 231 231 230 231 229 230 231 231 234 234 234 235 233 234 233 -193 233 233 233 233 233 235 234 235 234 232 231 229 229 230 230 229 229 229 231 229 230 230 229 229 228 228 229 228 229 229 231 230 231 232 233 233 233 233 233 231 231 231 231 232 233 234 235 235 0 0 0 0 0
    0 0 0 0 0 0 0 0 0 0 0 0 0 0 0 0 0 0 0 0 0 0 0 0 0 0 0 0 0 0 0 0 0 0 0 0 0 0 0 0 0 0 0 0 0 0 0 0 0 0 0 0 0 0 0 0 0 0 0 0 0 0 0 0 0 0 0 0 0 237 236 237 237 236 236 237 237 235 236 237 236 235 236 236 235 235 234 234 234 234 235 236 236 236 236 236 237 237 238 237 236 235 235 235 235 235 234 233 232 233 232 233 234 236 235 237 236 238 237 238 237 237 235 235 233 234 233 233 236 235 234 234 235 235 235 236 235 233 233 234 234 234 236 237 236 238 237 238 239 239 239 237 237 236 236 235 235 236 235 237 236 236 237 237 238 238 237 239 237 239 237 237 238 238 239 240 236 238 237 237 238 237 236 237 235 238 235 237 234 233 234 234 233 233 232 233 233 234 234 233 234 234 234 235 234 233 232 232 232 231 231 231 231 233 234 235 237 236 239 238 237 236 234 234 233 230 230 230 232 231 232 -193 232 234 234 235 233 233 234 233 234 233 232 232 233 232 232 232 232 231 231 231 231 229 230 228 228 229 228 231 233 233 234 233 233 233 232 233 233 233 233 233 234 234 235 234 233 232 229 229 230 230 230 230 229 231 229 231 230 229 229 228 228 229 228 229 229 230 231 -193 231 232 232 232 232 232 230 230 231 231 232 233 234 235 235 0 0 0 0 0
    0 0 0 0 0 0 0 0 0 0 0 0 0 0 0 0 0 0 0 0 0 0 0 0 0 0 0 0 0 0 0 0 0 0 0 0 0 0 0 0 0 0 0 0 0 0 0 0 0 0 0 0 0 0 0 0 0 0 0 0 0 0 0 0 0 0 0 0 0 237 236 236 236 236 236 236 236 234 235 237 235 235 236 237 236 236 235 235 235 235 236 237 236 236 235 236 237 236 238 237 235 235 235 235 235 235 235 233 233 233 232 233 233 234 234 236 235 237 236 237 237 236 235 234 233 234 233 232 236 235 234 235 235 235 235 236 235 233 233 233 233 234 235 -193 235 236 236 236 238 238 238 236 236 235 235 235 235 235 235 236 235 236 236 236 237 237 237 238 237 239 237 237 238 238 239 240 237 239 238 238 239 238 237 237 236 238 235 237 234 233 233 234 233 233 232 234 233 234 234 234 234 234 234 235 234 233 232 232 232 231 231 231 231 233 233 234 237 236 238 238 237 235 233 233 232 230 230 230 231 230 231 231 231 233 233 234 233 232 233 233 234 233 232 232 233 232 232 232 231 231 231 231 230 228 229 227 226 227 226 229 231 232 233 232 233 232 232 232 232 233 233 233 234 234 235 234 233 232 229 229 230 231 230 230 230 231 230 232 231 230 229 228 229 229 228 230 229 230 230 231 231 232 231 232 232 231 229 229 230 231 231 233 234 234 235 0 0 0 0 0
    0 0 0 0 0 0 0 0 0 0 0 0 0 0 0 0 0 0 0 0 0 0 0 0 0 0 0 0 0 0 0 0 0 0 0 0 0 0 0 0 0 0 0 0 0 0 0 0 0 0 0 0 0 0 0 0 0 0 0 0 0 0 0 0 0 0 0 0 0 236 236 236 236 236 236 236 236 234 235 236 235 235 236 236 236 237 235 236 236 236 236 237 236 236 235 236 237 236 237 236 235 235 235 235 235 235 235 233 233 233 232 232 232 233 233 235 234 236 236 237 237 236 235 234 233 234 232 232 236 234 234 235 235 235 235 236 235 233 233 232 233 234 235 -193 235 236 235 236 237 237 237 235 235 235 235 235 234 235 235 236 235 235 236 236 237 237 237 239 237 239 237 237 237 238 238 239 237 238 238 238 239 238 237 238 236 238 234 237 234 233 233 234 233 233 233 234 233 234 234 234 234 235 235 235 233 233 232 232 232 231 231 231 232 233 234 235 237 237 239 238 237 235 233 233 232 230 230 230 230 230 231 231 231 232 233 233 232 232 233 233 234 234 232 232 233 232 232 232 231 231 231 230 230 227 229 226 226 227 227 229 231 231 232 231 232 231 231 232 232 232 233 232 233 233 235 234 233 233 230 230 -193 232 231 230 230 231 230 232 231 231 230 229 229 229 229 230 229 230 230 230 231 232 231 232 231 230 229 229 230 230 231 232 233 234 235 0 0 0 0 0
    0 0 0 0 0 0 0 0 0 0 0 0 0 0 0 0 0 0 0 0 0 0 0 0 0 0 0 0 0 0 0 0 0 0 0 0 0 0 0 0 0 0 0 0 0 0 0 0 0 0 0 0 0 0 0 0 0 0 0 0 0 0 0 0 0 0 0 0 0 237 236 237 236 236 236 236 236 234 234 235 234 235 235 236 236 237 236 236 237 237 236 238 236 236 236 236 237 236 237 236 235 235 235 235 235 235 235 233 234 233 233 232 233 -193 233 235 234 236 236 236 237 236 235 234 233 234 233 232 236 234 234 234 234 234 235 235 234 232 232 232 232 233 235 -193 235 235 235 236 236 236 236 234 235 235 235 235 235 235 235 236 236 235 236 236 237 238 238 239 238 239 237 236 237 237 238 238 237 238 238 238 239 238 238 238 237 238 235 237 235 233 233 234 233 233 233 234 233 234 234 234 234 234 235 235 233 233 232 232 232 232 232 232 232 233 234 235 236 237 238 238 236 235 232 233 232 230 230 230 230 230 231 231 -193 232 233 233 232 233 233 233 235 234 233 232 234 232 232 232 231 231 231 230 231 228 229 227 228 228 229 232 233 232 233 232 233 231 232 232 231 232 232 232 232 -193 234 234 233 -193 231 -193 -193 232 232 231 230 231 230 233 232 231 230 229 230 229 229 230 229 230 230 230 230 231 231 232 231 230 229 229 230 230 230 232 233 233 234 0 0 0 0 0
    0 0 0 0 0 0 0 0 0 0 0 0 0 0 0 0 0 0 0 0 0 0 0 0 0 0 0 0 0 0 0 0 0 0 0 0 0 0 0 0 0 0 0 0 0 0 0 0 0 0 0 0 0 0 0 0 0 0 0 0 0 0 0 0 0 0 0 0 0 237 236 237 236 236 236 236 235 233 233 234 234 234 235 235 235 237 236 237 237 237 237 238 237 236 236 236 237 236 237 236 235 235 235 235 235 235 235 234 234 233 233 232 233 -193 -193 235 235 236 236 237 237 236 235 235 234 235 234 233 237 235 234 234 234 234 234 235 234 232 232 232 232 233 234 -209 234 234 234 234 235 234 235 233 234 234 234 234 234 234 235 235 235 235 235 235 237 237 239 239 239 240 237 237 238 238 238 238 237 238 238 238 239 238 238 238 238 239 235 237 234 233 233 234 233 233 233 234 233 234 234 234 234 234 234 235 233 233 233 233 232 232 232 232 232 233 234 235 236 237 237 238 235 233 231 232 231 230 230 230 230 230 231 232 -193 233 233 234 233 232 233 233 234 233 232 232 233 232 232 232 231 231 231 231 231 229 229 226 228 229 231 233 233 232 234 233 234 232 232 232 232 232 232 231 232 -193 233 233 233 -193 -193 -193 -193 233 233 231 230 231 230 233 232 231 230 229 230 229 229 229 228 229 229 229 229 231 230 231 231 229 229 228 230 231 230 231 232 233 234 0 0 0 0 0
    0 0 0 0 0 0 0 0 0 0 0 0 0 0 0 0 0 0 0 0 0 0 0 0 0 0 0 0 0 0 0 0 0 0 0 0 0 0 0 0 0 0 0 0 0 0 0 0 0 0 0 0 0 0 0 0 0 0 0 0 0 0 0 0 0 0 0 0 0 238 236 237 236 236 235 235 235 233 233 234 234 234 234 235 235 237 236 236 237 237 237 238 237 237 236 237 238 237 238 237 236 236 236 236 236 235 236 234 234 233 -193 -193 -193 -193 -193 235 235 236 237 237 237 236 235 235 235 235 234 233 238 235 235 234 234 234 234 234 234 231 232 232 232 -193 -193 -209 233 -193 233 233 233 233 232 231 232 232 233 232 232 233 233 234 234 233 234 233 235 236 238 238 238 239 237 237 238 238 238 238 237 238 238 239 239 238 238 238 238 239 235 238 234 233 233 234 233 232 233 234 233 233 233 234 234 234 234 235 233 232 232 232 232 231 231 232 232 233 234 234 235 237 237 237 234 232 231 231 231 230 230 230 231 231 231 232 232 233 233 233 232 231 232 231 233 232 231 231 232 232 232 232 232 231 231 231 231 229 230 226 228 229 231 233 233 231 234 234 234 234 233 232 232 -193 233 231 232 231 232 232 232 -193 -193 -193 -193 232 233 231 230 231 230 232 231 231 229 229 229 229 228 229 228 229 228 227 228 230 230 231 230 229 229 229 230 231 230 231 232 232 233 0 0 0 0 0
    0 0 0 0 0 0 0 0 0 0 0 0 0 0 0 0 0 0 0 0 0 0 0 0 0 0 0 0 0 0 0 0 0 0 0 0 0 0 0 0 0 0 0 0 0 0 0 0 0 0 0 0 0 0 0 0 0 0 0 0 0 0 0 0 0 0 0 0 0 237 236 237 236 235 235 235 234 233 233 235 234 235 235 236 235 238 236 236 237 238 237 239 237 237 237 237 238 237 238 237 237 237 237 236 236 236 236 234 235 -193 -193 -193 -193 -193 -193 234 234 235 235 236 236 235 235 234 236 235 234 234 238 235 235 234 234 233 234 234 234 231 232 232 232 -193 -193 -209 232 -209 232 232 231 231 230 230 231 231 231 231 231 232 232 233 233 232 232 231 233 234 236 237 238 239 237 237 238 238 238 238 237 238 237 238 239 238 237 238 237 237 235 237 234 233 233 234 233 232 233 234 233 233 233 234 234 233 234 234 232 232 232 231 231 231 231 231 231 233 233 234 235 236 236 237 234 232 231 231 231 230 230 230 231 231 -193 231 232 233 233 232 232 231 231 230 231 231 230 231 232 231 232 231 232 231 231 231 230 229 229 224 227 228 230 231 231 229 232 233 235 234 234 233 232 -193 233 231 231 231 232 232 232 -193 230 230 231 231 232 231 230 230 230 233 231 231 230 229 229 229 228 228 227 228 227 225 227 230 230 231 230 229 229 229 230 231 229 230 231 231 232 0 0 0 0 0
    0 0 0 0 0 0 0 0 0 0 0 0 0 0 0 0 0 0 0 0 0 0 0 0 0 0 0 0 0 0 0 0 0 0 0 0 0 0 0 0 0 0 0 0 0 0 0 0 0 0 0 0 0 0 0 0 0 0 0 0 0 0 0 0 0 0 0 0 0 237 236 236 236 235 234 234 234 233 233 235 235 234 235 235 235 238 236 236 237 238 237 239 237 237 236 237 238 237 238 238 237 237 238 237 237 236 237 235 235 -193 -193 -193 -193 -193 -193 233 233 -193 -193 -193 235 234 235 234 236 235 234 235 237 235 235 234 234 233 234 234 233 231 232 232 232 -193 -193 -193 232 -209 231 231 230 231 230 230 231 231 231 231 230 231 231 232 232 230 230 230 232 234 236 237 237 239 237 236 238 237 237 237 236 237 236 237 237 236 236 236 236 236 234 237 234 234 234 234 233 233 233 234 233 233 233 234 233 233 233 234 231 231 231 231 231 231 231 231 231 232 233 233 234 235 236 237 234 232 231 230 231 230 230 230 231 231 -209 232 232 233 233 232 232 231 232 230 231 231 230 231 231 231 232 231 231 231 230 231 230 229 229 222 226 225 228 229 227 227 230 232 235 234 234 233 233 -193 233 231 231 230 231 231 231 231 230 230 231 231 232 230 229 229 230 234 232 232 230 229 229 229 228 228 227 228 226 225 228 230 230 231 230 230 229 229 230 230 229 229 230 230 231 0 0 0 0 0
    0 0 0 0 0 0 0 0 0 0 0 0 0 0 0 0 0 0 0 0 0 0 0 0 0 0 0 0 0 0 0 0 0 0 0 0 0 0 0 0 0 0 0 0 0 0 0 0 0 0 0 0 0 0 0 0 0 0 0 0 0 0 0 0 0 0 0 0 0 236 235 235 235 235 234 234 234 233 233 235 235 235 235 235 235 238 236 237 237 238 237 239 237 237 236 237 238 237 238 237 237 238 238 238 238 237 237 236 237 -193 -193 -193 -193 -193 -193 232 232 -193 -193 -193 -193 -193 234 233 237 235 234 235 237 235 235 234 234 233 233 233 233 232 232 233 233 -193 -193 -193 233 -209 232 232 231 231 230 229 231 231 231 231 230 231 232 232 233 231 231 231 232 234 237 237 237 238 237 237 238 237 237 237 236 236 236 236 236 235 235 235 235 235 233 236 234 234 234 234 234 233 234 234 233 234 233 233 233 233 233 234 231 231 231 232 231 231 231 231 231 232 233 233 233 234 235 236 234 232 231 231 231 231 231 231 231 231 -193 -193 -193 233 233 232 232 232 233 231 232 231 230 231 231 231 -193 231 231 230 230 231 230 229 229 223 226 225 228 227 226 225 229 231 234 234 234 232 232 -193 232 230 230 229 231 231 232 231 230 230 231 231 232 230 229 229 230 235 234 232 231 230 230 230 229 229 228 228 227 226 229 230 231 231 231 230 230 230 230 230 229 229 230 229 230 0 0 0 0 0
    0 0 0 0 0 0 0 0 0 0 0 0 0 0 0 0 0 0 0 0 0 0 0 0 0 0 0 0 0 0 0 0 0 0 0 0 0 0 0 0 0 0 0 0 0 0 0 0 0 0 0 0 0 0 0 0 0 0 0 0 0 0 0 0 0 0 0 0 0 237 236 236 237 236 235 234 234 234 233 235 235 234 234 234 234 237 236 237 236 239 237 239 237 237 236 236 237 237 237 237 237 238 238 238 238 238 238 236 237 -193 -193 -193 -193 -209 -209 233 233 234 234 235 234 233 234 233 237 235 234 235 237 235 235 234 234 232 233 233 233 233 233 234 234 235 235 234 234 233 232 232 231 230 229 229 230 231 231 231 231 231 232 233 234 233 233 233 234 235 237 237 238 238 237 236 238 237 236 236 236 236 235 235 236 235 234 234 234 233 232 236 234 234 234 234 234 234 234 235 233 234 233 233 232 232 232 234 232 231 232 232 232 231 231 231 231 232 233 233 233 234 235 235 235 234 232 231 232 231 231 231 231 231 -209 -193 -193 233 233 232 233 -193 233 232 234 232 231 232 232 231 -193 231 231 230 230 230 230 230 230 224 227 226 229 228 227 227 230 233 235 235 235 233 233 -193 232 231 230 229 231 231 231 231 231 231 231 231 232 230 229 229 230 234 234 233 231 230 230 230 229 229 228 228 227 228 229 231 232 232 232 231 231 230 231 230 229 229 230 229 229 0 0 0 0 0
    0 0 0 0 0 0 0 0 0 0 0 0 0 0 0 0 0 0 0 0 0 0 0 0 0 0 0 0 0 0 0 0 0 0 0 0 0 0 0 0 0 0 0 0 0 0 0 0 0 0 0 0 0 0 0 0 0 0 0 0 0 0 0 0 0 0 0 0 0 238 237 237 238 238 236 236 235 235 234 234 234 233 232 233 233 236 236 237 236 239 237 240 237 237 236 237 237 237 237 237 237 238 238 238 238 237 238 236 237 234 -193 -193 -209 -209 -209 233 233 234 235 235 235 233 234 233 238 235 235 236 237 235 235 234 234 232 233 233 233 233 233 234 235 236 236 235 234 234 233 232 231 230 229 228 230 231 231 231 231 231 233 234 235 234 234 235 236 238 239 238 238 238 237 236 238 236 236 236 235 235 235 235 235 234 233 233 233 232 232 236 234 235 235 235 235 234 234 235 233 234 233 233 232 232 232 233 232 231 232 232 232 231 231 231 230 231 233 232 232 233 234 234 234 234 232 231 232 232 232 232 232 232 -209 -193 -193 233 233 233 233 233 234 232 234 231 232 232 232 231 -193 231 231 230 231 231 230 230 230 225 229 228 231 230 229 229 231 234 236 236 236 234 234 232 232 231 231 229 231 231 231 231 231 230 231 231 231 229 229 228 228 233 233 232 231 230 230 230 230 229 229 229 228 229 230 232 232 232 232 232 231 231 231 230 229 229 230 229 229 0 0 0 0 0
    0 0 0 0 0 0 0 0 0 0 0 0 0 0 0 0 0 0 0 0 0 0 0 0 0 0 0 0 0 0 0 0 0 0 0 0 0 0 0 0 0 0 0 0 0 0 0 0 0 0 0 0 0 0 0 0 0 0 0 0 0 0 0 0 0 0 0 0 0 238 238 238 239 238 236 237 235 235 234 235 234 233 232 233 233 236 237 237 237 240 238 241 238 238 237 237 237 237 237 237 237 237 238 237 238 237 237 236 237 234 -193 -193 -209 -193 -193 233 233 234 234 234 234 232 233 233 238 235 235 236 236 235 234 234 233 232 232 233 233 233 233 234 235 236 236 235 234 233 231 231 231 229 229 228 230 230 230 231 231 231 232 -193 235 235 235 237 237 238 239 239 238 239 238 236 238 236 236 236 235 235 234 234 234 233 233 232 232 232 232 236 234 235 235 235 235 234 235 235 233 234 233 232 232 232 232 233 232 231 232 232 232 231 231 230 230 231 232 232 231 232 234 233 234 234 232 231 232 232 232 232 232 232 -193 232 233 233 232 233 233 233 233 231 233 231 231 232 232 231 -193 231 231 231 231 231 230 231 230 225 230 228 232 232 231 231 232 234 237 237 237 235 235 233 233 231 231 229 231 230 230 231 230 230 231 230 230 229 229 229 228 232 232 232 231 230 230 230 230 229 229 229 229 229 230 232 233 233 232 232 231 231 231 230 229 229 230 229 229 0 0 0 0 0
    0 0 0 0 0 0 0 0 0 0 0 0 0 0 0 0 0 0 0 0 0 0 0 0 0 0 0 0 0 0 0 0 0 0 0 0 0 0 0 0 0 0 0 0 0 0 0 0 0 0 0 0 0 0 0 0 0 0 0 0 0 0 0 0 0 0 0 0 0 239 239 239 239 239 237 237 235 235 234 236 235 233 232 233 233 236 236 237 -193 239 238 240 238 238 237 237 237 237 237 236 237 237 238 237 237 237 237 235 236 233 -193 -193 -193 231 231 232 232 233 234 234 234 233 234 233 238 235 235 236 236 235 234 234 234 232 233 233 233 233 233 235 235 235 235 234 233 232 231 231 231 230 229 229 230 231 231 231 230 231 232 233 234 234 234 235 236 237 237 237 237 238 237 236 237 236 236 236 235 235 234 234 234 232 232 231 231 231 232 235 234 235 235 235 235 235 235 236 234 235 234 233 234 235 234 234 232 232 232 232 232 231 231 230 230 231 232 232 231 232 233 233 233 234 232 231 232 232 232 232 233 232 -193 232 233 233 232 232 232 232 233 231 232 230 231 232 231 231 232 231 231 231 231 231 230 231 230 225 230 229 232 233 232 233 234 236 238 238 238 236 236 233 233 231 231 229 231 230 230 230 230 230 230 229 230 228 229 229 228 232 232 232 231 231 231 230 230 230 230 230 229 229 231 231 232 232 232 232 231 231 231 231 230 230 231 230 230 0 0 0 0 0
    0 0 0 0 0 0 0 0 0 0 0 0 0 0 0 0 0 0 0 0 0 0 0 0 0 0 0 0 0 0 0 0 0 0 0 0 0 0 0 0 0 0 0 0 0 0 0 0 0 0 0 0 0 0 0 0 0 0 0 0 0 0 0 0 0 0 0 0 0 240 240 241 240 240 238 237 236 236 236 238 234 -193 -193 -193 232 -209 -209 -209 -193 -193 238 240 238 238 238 237 237 238 237 236 236 236 237 236 236 236 236 235 235 233 -193 -193 -193 230 230 231 232 234 234 235 235 234 236 235 240 235 235 236 237 236 235 234 234 233 234 234 234 233 234 235 235 235 235 234 233 232 231 230 231 230 229 228 230 230 230 230 230 230 231 232 233 233 233 234 234 235 236 236 235 236 236 235 236 235 235 236 235 235 234 234 234 232 232 231 230 231 232 235 234 235 235 235 235 235 236 236 235 236 236 235 237 237 236 235 234 232 232 232 232 231 231 230 230 231 232 232 232 232 233 234 234 234 234 233 233 233 232 233 233 233 -193 232 -193 233 231 232 232 231 232 231 232 231 232 234 232 231 232 231 231 231 231 231 229 231 231 225 230 229 232 233 233 234 235 236 237 237 237 236 235 233 232 230 231 229 231 230 230 230 230 230 230 229 230 229 229 229 229 232 233 233 231 231 231 230 230 230 230 230 229 229 230 231 232 232 232 232 231 231 231 230 230 230 231 230 230 0 0 0 0 0
    0 0 0 0 0 0 0 0 0 0 0 0 0 0 0 0 0 0 0 0 0 0 0 0 0 0 0 0 0 0 0 0 0 0 0 0 0 0 0 0 0 0 0 0 0 0 0 0 0 0 0 0 0 0 0 0 0 0 0 0 0 0 0 0 0 0 0 0 0 241 241 242 241 242 239 238 237 237 236 238 233 -193 -193 -209 232 -209 -209 -209 -209 -193 239 241 238 239 238 237 237 237 236 235 235 235 236 235 236 236 235 235 235 233 -193 -193 -193 -193 -193 -193 232 235 235 236 236 -193 239 238 242 236 235 238 237 236 235 234 235 233 234 235 234 234 234 235 235 234 236 234 233 232 231 230 231 230 229 228 230 231 230 230 230 230 231 232 232 233 233 234 234 235 236 236 235 236 236 235 235 235 235 235 234 235 234 234 234 232 233 233 231 232 232 236 235 235 236 235 236 235 236 237 235 237 237 237 238 238 238 236 235 233 233 233 233 232 231 230 230 231 232 232 232 233 234 234 236 236 235 235 234 234 233 234 234 234 -193 233 233 233 232 233 233 233 233 233 233 233 233 236 232 232 232 231 231 231 231 231 229 231 231 224 230 227 231 234 234 236 236 236 236 237 237 236 235 233 231 229 231 230 231 231 230 230 230 230 230 229 229 228 229 229 229 231 232 232 232 231 231 231 230 230 230 230 230 229 230 230 231 232 232 232 231 231 230 230 230 230 231 230 230 0 0 0 0 0
    0 0 0 0 0 0 0 0 0 0 0 0 0 0 0 0 0 0 0 0 0 0 0 0 0 0 0 0 0 0 0 0 0 0 0 0 0 0 0 0 0 0 0 0 0 0 0 0 0 0 0 0 0 0 0 0 0 0 0 0 0 0 0 0 0 0 0 0 0 241 242 242 242 242 240 239 237 237 236 237 233 -193 -193 -209 232 -209 -209 -209 -209 0 -256 -1 31096 239 237 236 236 236 235 234 234 234 -193 -193 235 235 235 234 235 233 -209 -193 -193 -193 673 -193 -209 -193 -193 238 238 -193 242 241 -209 -193 236 238 238 237 235 235 235 234 234 235 234 234 234 236 235 235 236 234 233 232 231 230 -193 230 230 228 230 231 230 231 231 230 232 232 233 233 233 234 235 235 237 236 235 236 236 235 236 235 235 235 234 235 234 234 234 233 233 -193 -193 232 233 237 235 236 237 236 236 236 237 238 236 238 237 237 239 238 238 236 235 234 233 234 234 232 231 229 230 230 232 232 232 233 234 234 236 236 235 236 235 234 233 234 234 234 233 233 233 234 233 234 233 234 234 234 234 234 234 236 233 232 232 232 232 231 231 231 230 232 233 228 232 232 233 236 235 237 237 236 236 236 236 236 235 234 230 229 231 231 231 230 230 230 229 229 229 228 228 228 228 229 228 231 232 232 232 231 231 231 230 230 230 230 230 230 230 231 231 232 232 232 231 231 231 230 230 230 232 231 231 0 0 0 0 0
    0 0 0 0 0 0 0 0 0 0 0 0 0 0 0 0 0 0 0 0 0 0 0 0 0 0 0 0 0 0 0 0 0 0 0 0 0 0 0 0 0 0 0 0 0 0 0 0 0 0 0 0 0 0 0 0 0 0 0 0 0 0 0 0 0 0 0 0 0 242 242 242 242 242 241 240 238 237 236 238 -193 -209 -193 -209 -209 -209 -193 -209 -209 -193 241 242 239 239 238 237 236 236 235 233 234 -193 561 -193 -193 235 235 234 235 233 -209 -193 677 -193 673 675 -209 -209 -209 -209 -193 -209 245 -193 -209 -209 -193 239 238 237 235 234 235 234 234 235 234 234 234 236 235 234 235 233 232 231 -193 229 230 229 229 228 230 231 231 231 231 231 232 233 233 233 233 234 234 235 237 236 235 236 236 235 236 235 235 235 235 235 235 235 234 233 234 -193 -193 233 234 237 235 236 237 236 236 236 237 238 236 238 237 237 239 238 239 237 236 234 234 234 234 232 231 229 230 229 232 231 232 232 234 234 235 236 235 235 234 233 233 233 234 233 233 233 233 234 233 234 234 234 234 234 234 234 -193 236 233 232 232 232 232 232 232 232 232 233 234 233 233 234 235 237 237 238 238 237 237 237 237 237 236 235 231 230 233 234 -193 -209 -209 -193 229 229 228 228 228 228 229 229 228 230 231 231 231 231 230 230 230 230 230 230 230 229 230 231 232 232 233 232 232 233 233 233 233 232 234 233 233 0 0 0 0 0
    0 0 0 0 0 0 0 0 0 0 0 0 0 0 0 0 0 0 0 0 0 0 0 0 0 0 0 0 0 0 0 0 0 0 0 0 0 0 0 0 0 0 0 0 0 0 0 0 0 0 0 0 0 0 0 0 0 0 0 0 0 0 0 0 0 0 0 0 0 242 242 243 242 242 240 239 237 237 235 237 -209 -209 -209 -209 234 -209 -193 -209 -209 240 242 242 239 240 238 237 236 237 236 233 234 -193 560 560 -193 234 234 234 235 233 -209 -209 -193 -193 -193 -193 -177 -209 -209 -193 -209 -209 247 -209 -193 -209 -209 240 240 237 235 234 235 234 235 235 234 233 234 235 234 233 232 229 228 229 227 225 227 227 228 227 230 231 231 231 231 231 232 233 233 233 233 234 235 235 237 -193 235 236 235 235 235 235 235 235 235 236 235 235 235 234 235 -193 -209 234 235 237 236 236 237 236 236 236 238 238 236 238 237 237 239 238 239 236 236 234 234 234 234 232 231 228 229 229 231 231 232 232 233 234 235 235 235 234 233 233 232 233 233 233 233 233 233 234 233 234 234 234 233 234 234 234 -193 -193 232 232 232 232 232 232 232 232 232 233 234 231 233 234 234 236 238 239 239 238 238 239 238 239 237 236 233 -193 -209 -209 -209 -209 -193 -209 -193 228 228 228 227 228 228 229 228 230 231 231 231 230 230 230 230 230 229 230 230 229 229 230 231 232 233 233 233 233 234 235 234 235 236 235 235 0 0 0 0 0
    0 0 0 0 0 0 0 0 0 0 0 0 0 0 0 0 0 0 0 0 0 0 0 0 0 0 0 0 0 0 0 0 0 0 0 0 0 0 0 0 0 0 0 0 0 0 0 0 0 0 0 0 0 0 0 0 0 0 0 0 0 0 0 0 0 0 0 0 0 243 243 243 242 242 240 238 236 236 236 -209 -177 -209 -209 -209 236 -209 -193 -225 -209 240 242 242 240 240 239 238 237 238 237 234 234 -193 -177 -177 -193 234 234 234 235 234 -209 -193 -193 771 -193 772 772 -193 -193 -209 -209 -209 -209 -209 -209 -209 -209 -209 241 -193 235 234 234 234 235 235 234 233 234 234 232 230 229 226 226 227 224 222 223 -193 226 227 230 -193 231 231 231 231 231 232 232 233 232 233 234 235 237 -193 234 236 236 236 236 235 236 235 235 235 235 235 235 234 236 235 -209 235 237 238 236 237 238 237 237 236 238 238 237 238 238 237 239 238 238 236 236 234 233 234 233 231 230 228 229 228 231 231 232 232 233 233 234 235 235 234 233 232 232 233 234 234 233 233 233 234 232 234 234 234 233 234 233 -193 -193 -193 -209 232 232 233 232 233 233 233 233 234 235 233 234 235 235 237 237 236 236 236 236 236 236 237 -193 235 233 231 234 235 -193 -209 -209 -209 -193 228 227 227 227 228 228 228 228 230 230 230 230 230 230 229 229 229 229 229 229 228 228 229 230 232 233 233 233 233 234 235 235 236 237 236 236 0 0 0 0 0
    0 0 0 0 0 0 0 0 0 0 0 0 0 0 0 0 0 0 0 0 0 0 0 0 0 0 0 0 0 0 0 0 0 0 0 0 0 0 0 0 0 0 0 0 0 0 0 0 0 0 0 0 0 0 0 0 0 0 0 0 0 0 0 0 0 0 0 0 0 244 244 243 242 242 240 237 236 237 236 -177 -177 -209 -225 -225 -225 -225 -225 -225 -225 -193 242 242 240 241 240 239 238 238 237 233 233 -193 -177 -177 -193 -193 234 235 236 234 -209 -193 769 770 -193 773 773 773 -209 -209 -209 -209 -209 -193 -209 -209 -209 -209 -209 -209 -209 -193 -193 235 236 235 235 234 234 235 232 230 228 224 224 226 222 220 220 -193 224 227 231 -193 231 231 231 231 231 232 231 232 231 232 233 234 -193 -193 -193 235 235 -193 236 235 236 235 235 235 235 235 235 235 236 236 -193 236 238 238 237 237 -193 -193 -193 237 239 238 239 239 239 238 239 239 238 236 236 234 -193 -193 -193 -209 231 229 229 228 231 231 232 233 234 234 235 235 236 236 234 233 234 234 235 235 235 235 232 235 232 234 233 234 233 234 233 -209 -193 -193 -209 232 233 234 233 234 234 235 234 236 238 235 234 235 235 236 234 234 235 235 235 236 237 239 236 239 235 231 234 235 -209 -193 -209 -209 -193 226 225 226 -193 -193 -193 -193 228 230 -209 230 230 230 229 229 228 -193 -193 228 229 227 227 228 229 231 233 233 232 233 233 235 235 236 238 238 239 0 0 0 0 0
    0 0 0 0 0 0 0 0 0 0 0 0 0 0 0 0 0 0 0 0 0 0 0 0 0 0 0 0 0 0 0 0 0 0 0 0 0 0 0 0 0 0 0 0 0 0 0 0 0 0 0 0 0 0 0 0 0 0 0 0 0 0 0 0 0 0 0 0 0 245 244 244 242 244 241 237 237 -225 -225 -225 -225 -225 -225 -225 -225 -225 -225 -225 -225 -225 240 240 238 240 239 238 238 238 237 232 233 -193 558 558 557 -193 -209 -193 -193 -209 -209 764 768 -225 -225 -225 -225 -209 -209 -209 481 -193 -193 -193 -225 -209 -225 -193 -193 -209 -209 -177 -193 237 239 237 236 235 235 236 234 -209 -193 -193 224 227 -193 -193 -209 -209 221 226 231 -209 231 231 231 230 231 231 230 230 228 229 230 231 -209 -193 -209 -209 -209 -193 235 235 235 234 235 236 237 236 235 236 236 237 -209 -193 -193 237 236 -193 776 775 -193 237 241 239 -193 -193 -193 -193 -193 -193 239 237 -193 -209 -193 128 129 -209 -209 -209 -193 -193 -209 230 232 233 233 234 236 236 236 237 235 234 235 235 236 235 237 237 -193 236 233 235 234 234 234 235 -209 -193 -193 -193 -209 233 235 236 235 236 236 237 237 240 243 239 237 238 236 236 233 233 234 235 235 236 239 242 240 244 246 238 -209 -193 -209 -209 -209 -209 -209 -209 -209 -193 -193 -209 -209 -209 -209 -209 -209 -209 -209 -193 -193 -193 -193 -193 -193 228 228 226 227 229 230 232 234 234 234 234 234 236 235 237 239 240 240 0 0 0 0 0
    0 0 0 0 0 0 0 0 0 0 0 0 0 0 0 0 0 0 0 0 0 0 0 0 0 0 0 0 0 0 0 0 0 0 0 0 0 0 0 0 0 0 0 0 0 0 0 0 0 0 0 0 0 0 0 0 0 0 0 0 0 0 0 0 0 0 0 0 0 245 244 244 243 244 -225 -225 -225 -225 -225 -225 -225 -225 -225 -225 -225 -225 -225 -225 -225 -225 -225 -225 -225 -225 -225 -225 -225 -225 -225 -225 -225 -225 -225 -225 -225 -225 -225 -225 -225 -225 -225 -225 -225 -225 -225 -225 -225 -225 -225 -225 -225 -225 -225 -225 -225 -225 -225 -225 -225 -209 -209 859 -193 238 240 239 238 236 239 -177 -209 -209 -209 -209 -193 -225 940 -193 -209 449 -209 -209 -209 -209 -209 -193 -193 -177 230 230 228 227 222 224 225 228 673 673 670 675 -209 -209 -209 -209 -209 -193 -193 -193 -193 -193 -193 237 238 -193 -209 -209 -193 -209 -209 -209 772 773 -209 -193 -193 -193 28 29 31 -193 32 -193 241 -193 -193 -209 -177 125 126 -177 -177 -177 -177 -177 -177 -193 232 233 234 235 237 237 237 238 237 235 238 237 238 236 238 237 -209 235 232 -193 -193 235 -209 -209 -209 -209 -193 -209 -193 234 236 238 237 238 239 241 242 244 246 245 244 246 245 244 239 235 235 237 239 241 245 247 247 249 252 -209 -209 -209 -209 -209 -209 -193 -209 -209 -193 -209 -209 -209 -209 -209 -209 -209 -209 -177 -177 -209 -209 -209 -193 -177 -177 -193 227 225 227 229 231 233 235 236 235 235 236 237 236 237 239 240 241 0 0 0 0 0
    0 0 0 0 0 0 0 0 0 0 0 0 0 0 0 0 0 0 0 0 0 0 0 0 0 0 0 0 0 0 0 0 0 0 0 0 0 0 0 0 0 0 0 0 0 0 0 0 0 0 0 0 0 0 0 0 0 0 0 0 0 0 0 0 0 0 0 0 0 -225 -225 -225 -225 -225 -225 -225 -225 -225 -225 -225 -225 -225 -225 -225 -225 -225 -225 -225 -225 -225 -225 -225 -225 -225 -225 -225 -225 -225 -225 -225 -225 -225 -225 -225 -225 -225 -225 -225 -225 -225 -225 -225 -225 -225 -225 -225 -225 -225 -225 -225 -225 -225 -225 -225 -225 -225 -225 -225 -225 -225 -225 -225 333 -193 -193 238 237 235 -193 -209 574 -209 -209 -225 -225 -225 -225 -225 -209 -193 -209 -209 -209 -209 -209 -193 -209 -193 -225 -225 -225 -225 -225 -225 -225 -225 -225 -225 -225 -225 -225 -225 -225 -225 -225 -225 -225 -225 -225 -225 -225 -225 -225 -225 -225 -225 -225 -225 -225 -225 -225 -225 -225 -225 -225 -225 -225 -225 -225 -225 33 -193 -209 -209 -209 -193 -209 122 -193 106 106 105 -177 -177 -177 -209 -193 234 234 234 236 237 237 237 237 234 237 235 235 233 235 -193 -209 -193 233 -193 -209 237 -193 -209 -209 -209 -209 -209 -209 -209 -209 240 238 239 241 242 244 245 247 246 245 246 245 246 246 240 237 242 246 247 252 258 255 253 260 -209 -209 -209 -209 -209 0 -193 -193 -193 0 -193 -193 -209 -193 -209 15 24 -209 -177 -177 -193 -209 -209 -209 -177 -177 -193 -193 -193 226 230 232 234 236 236 236 236 237 239 238 240 241 245 245 0 0 0 0 0
    0 0 0 0 0 0 0 0 0 0 0 0 0 0 0 0 0 0 0 0 0 0 0 0 0 0 0 0 0 0 0 0 0 0 0 0 0 0 0 0 0 0 0 0 0 0 0 0 0 0 0 0 0 0 0 0 0 0 0 0 0 0 0 0 0 0 0 0 0 -225 -225 -225 -225 -225 -225 -225 -225 -225 -225 -225 -225 -225 -225 -225 -225 -225 -225 -225 -225 -225 -225 -225 -225 -225 -225 -225 -225 -225 -225 -225 -225 -225 -225 -225 -225 -225 -225 -225 -225 -225 -225 -225 -225 -225 -225 -225 -225 -225 -225 -225 -225 -225 -225 -225 -225 -225 -225 -225 -225 -225 -225 -225 -225 -225 -225 -225 -225 -225 -225 -225 -225 -225 -225 -225 -225 -225 -225 -225 -225 -225 -225 -225 -225 -225 -225 -225 -225 -225 -225 -225 -225 -225 -225 -225 -225 -225 -225 -225 -225 -225 -225 -225 -225 -225 -225 -225 -225 -225 -225 -225 -225 -225 -225 -225 -225 -225 -225 -225 -225 -225 -225 -225 -225 -225 -225 -225 -225 -225 -225 -225 -225 -225 -225 -225 -209 -209 -209 124 -193 110 110 106 -177 -177 -177 -209 -193 232 233 232 234 235 235 234 -225 -225 -225 -209 -209 -225 -225 -209 -209 -209 -209 -193 -209 -209 -193 -209 -209 -193 -193 -209 -193 -193 -193 -209 240 240 243 243 245 246 247 246 245 247 246 247 248 242 238 244 248 249 255 262 261 258 264 -193 -209 -209 -209 -209 -193 -193 -193 0 0 0 0 -193 -193 -209 -209 -209 -209 -177 -177 -209 -177 -193 -209 -209 -177 -177 -209 -209 -193 230 233 234 236 237 237 236 239 241 -193 -193 -193 -193 -209 0 0 0 0 0
    0 0 0 0 0 0 0 0 0 0 0 0 0 0 0 0 0 0 0 0 0 0 0 0 0 0 0 0 0 0 0 0 0 0 0 0 0 0 0 0 0 0 0 0 0 0 0 0 0 0 0 0 0 0 0 0 0 0 0 0 0 0 0 0 0 0 0 0 0 -225 -225 -225 -225 -225 -225 -225 -225 -225 -225 -225 -225 -225 -225 -225 -225 -225 -225 -225 -225 -225 -225 -225 -225 -225 -225 -225 -225 -225 -225 -225 -225 -225 -225 -225 -225 -225 -225 -225 -225 -225 -225 -225 -225 -225 -225 -225 -225 -225 -225 -225 -225 -225 -225 -225 -225 -225 -225 -225 -225 -225 -225 -225 -225 -225 -225 -225 -225 -225 -225 -225 -225 -225 -225 -225 -225 -225 -225 -225 -225 -225 -225 -225 -225 -225 -225 -225 -225 -225 -225 -225 -225 -225 -225 -225 -225 -225 -225 -225 -225 -225 -225 -225 -225 -225 -225 -225 -225 -225 -225 -225 -225 -225 -225 -225 -225 -225 -225 -225 -225 -225 -225 -225 -225 -225 -225 -225 -225 -225 -225 -225 -225 -225 -225 -225 -225 -225 -225 -225 -225 -225 -225 -225 -225 -225 -225 -225 -225 -225 -225 -225 -225 -225 -225 -225 -225 -225 -225 -225 -225 -225 -225 -225 -225 -225 -225 -225 -225 -225 -225 -225 -225 -225 -225 -225 -225 -225 -225 -225 240 240 243 244 246 247 248 247 247 249 249 250 -193 248 239 246 251 253 260 264 264 261 265 -209 -209 -209 -209 -209 -209 -209 -193 -209 0 -209 -193 -193 -209 -193 -193 -209 -209 -177 -177 -209 -209 -209 29 -209 -209 -209 -209 -209 -209 -209 233 235 236 237 237 -193 240 -193 -193 -209 -209 -209 -209 0 0 0 0 0
    0 0 0 0 0 0 0 0 0 0 0 0 0 0 0 0 0 0 0 0 0 0 0 0 0 0 0 0 0 0 0 0 0 0 0 0 0 0 0 0 0 0 0 0 0 0 0 0 0 0 0 0 0 0 0 0 0 0 0 0 0 0 0 0 0 0 0 0 0 -225 -225 -225 -225 -225 -225 -225 -225 -225 -225 -225 -225 -225 -225 -225 -225 -225 -225 -225 -225 -225 -225 -225 -225 -225 -225 -225 -225 -225 -225 -225 -225 -225 -225 -225 -225 -225 -225 -225 -225 -225 -225 -225 -225 -225 -225 -225 -225 -225 -225 -225 -225 -225 -225 -225 -225 -225 -225 -225 -225 -225 -225 -225 -225 -225 -225 -225 -225 -225 -225 -225 -225 -225 -225 -225 -225 -225 -225 -225 -225 -225 -225 -225 -225 -225 -225 -225 -225 -225 -225 -225 -225 -225 -225 -225 -225 -225 -225 -225 -225 -225 -225 -225 -225 -225 -225 -225 -225 -225 -225 -225 -225 -225 -225 -225 -225 -225 -225 -225 -225 -225 -225 -225 -225 -225 -225 -225 -225 -225 -225 -225 -225 -225 -225 -225 -225 -225 -225 -225 -225 -225 -225 -225 -225 -225 -225 -225 -225 -225 -225 -225 -225 -225 -225 -225 -225 -225 -225 -225 -225 -225 -225 -225 -225 -225 -225 -225 -225 -225 -225 -225 -225 -225 -225 -225 -225 -225 -225 -225 -225 240 243 246 248 250 250 250 250 251 252 253 253 -193 241 247 253 256 261 264 265 262 265 266 -209 -209 -209 -209 -209 -209 -209 -209 -209 -209 -209 -193 -209 -193 -193 -209 -209 -209 -209 -209 -209 -209 -209 -209 -193 -209 -209 -209 -193 -193 -209 -209 235 236 -193 -193 242 -209 -209 -209 -209 -209 -209 0 0 0 0 0
    0 0 0 0 0 0 0 0 0 0 0 0 0 0 0 0 0 0 0 0 0 0 0 0 0 0 0 0 0 0 0 0 0 0 0 0 0 0 0 0 0 0 0 0 0 0 0 0 0 0 0 0 0 0 0 0 0 0 0 0 0 0 0 0 0 0 0 0 0 -225 -225 -225 -225 -225 -225 -225 -225 -225 -225 -225 -225 -225 -225 -225 -225 -225 -225 -225 -225 -225 -225 -225 -225 -225 -225 -225 -225 -225 -225 -225 -225 -225 -225 -225 -225 -225 -225 -225 -225 -225 -225 -225 -225 -225 -225 -225 -225 -225 -225 -225 -225 -225 -225 -225 -225 -225 -225 -225 -225 -225 -225 -225 -225 -225 -225 -225 -225 -225 -225 -225 -225 -225 -225 -225 -225 -225 -225 -225 -225 -225 -225 -225 -225 -225 -225 -225 -225 -225 -225 -225 -225 -225 -225 -225 -225 -225 -225 -225 -225 -225 -225 -225 -225 -225 -225 -225 -225 -225 -225 -225 -225 -225 -225 -225 -225 -225 -225 -225 -225 -225 -225 -225 -225 -225 -225 -225 -225 -225 -225 -225 -225 -225 -225 -225 -225 -225 -225 -225 -225 -225 -225 -225 -225 -225 -225 -225 -225 -225 -225 -225 -225 -225 -225 -225 -225 -225 -225 -225 -225 -225 -225 -225 -225 -225 -225 -225 -225 -225 -225 -225 -225 -225 -225 -225 -225 -225 -225 -225 -225 242 245 247 249 252 252 252 252 253 253 254 254 -193 246 249 254 256 261 264 265 262 265 266 -209 -209 -209 -209 -209 -209 -209 -209 -209 -209 -209 -209 -193 0 0 -193 -193 -193 -193 -193 -193 -209 -209 -209 -209 -209 -209 -209 0 0 0 0 -209 -193 -193 -193 -209 -209 -209 -209 -209 -209 -209 0 0 0 0 0
    0 0 0 0 0 0 0 0 0 0 0 0 0 0 0 0 0 0 0 0 0 0 0 0 0 0 0 0 0 0 0 0 0 0 0 0 0 0 0 0 0 0 0 0 0 0 0 0 0 0 0 0 0 0 0 0 0 0 0 0 0 0 0 0 0 0 0 0 0 -225 -225 -225 -225 -225 -225 -225 -225 -225 -225 -225 -225 -225 -225 -225 -225 -225 -225 -225 -225 -225 -225 -225 -225 -225 -225 -225 -225 -225 -225 -225 -225 -225 -225 -225 -225 -225 -225 -225 -225 -225 -225 -225 -225 -225 -225 -225 -225 -225 -225 -225 -225 -225 -225 -225 -225 -225 -225 -225 -225 -225 -225 -225 -225 -225 -225 -225 -225 -225 -225 -225 -225 -225 -225 -225 -225 -225 -225 -225 -225 -225 -225 -225 -225 -225 -225 -225 -225 -225 -225 -225 -225 -225 -225 -225 -225 -225 -225 -225 -225 -225 -225 -225 -225 -225 -225 -225 -225 -225 -225 -225 -225 -225 -225 -225 -225 -225 -225 -225 -225 -225 -225 -225 -225 -225 -225 -225 -225 -225 -225 -225 -225 -225 -225 -225 -225 -225 -225 -225 -225 -225 -225 -225 -225 -225 -225 -225 -225 -225 -225 -225 -225 -225 -225 -225 -225 -225 -225 -225 -225 -225 -225 -225 -225 -225 -225 -225 -225 -225 -225 -225 -225 -225 -225 -225 -225 -225 -225 -225 -225 -225 245 248 252 255 253 254 253 253 254 255 254 252 251 255 259 260 263 265 266 265 268 268 -209 -209 -209 -209 -209 -209 -209 -209 -209 -209 -209 -209 -209 0 0 -193 -193 -193 -193 -209 29 35 34 -193 -209 -209 -209 -209 -193 0 8 0 -209 -193 0 0 -193 -193 0 -209 -209 -209 -209 0 0 0 0 0
    0 0 0 0 0 0 0 0 0 0 0 0 0 0 0 0 0 0 0 0 0 0 0 0 0 0 0 0 0 0 0 0 0 0 0 0 0 0 0 0 0 0 0 0 0 0 0 0 0 0 0 0 0 0 0 0 0 0 0 0 0 0 0 0 0 0 0 0 0 -225 -225 -225 -225 -225 -225 -225 -225 -225 -225 -225 -225 -225 -225 -225 -225 -225 -225 -225 -225 -225 -225 -225 -225 -225 -225 -225 -225 -225 -225 -225 -225 -225 -225 -225 -225 -225 -225 -225 -225 -225 -225 -225 -225 -225 -225 -225 -225 -225 -225 -225 -225 -225 -225 -225 -225 -225 -225 -225 -225 -225 -225 -225 -225 -225 -225 -225 -225 -225 -225 -225 -225 -225 -225 -225 -225 -225 -225 -225 -225 -225 -225 -225 -225 -225 -225 -225 -225 -225 -225 -225 -225 -225 -225 -225 -225 -225 -225 -225 -225 -225 -225 -225 -225 -225 -225 -225 -225 -225 -225 -225 -225 -225 -225 -225 -225 -225 -225 -225 -225 -225 -225 -225 -225 -225 -225 -225 -225 -225 -225 -225 -225 -225 -225 -225 -225 -225 -225 -225 -225 -225 -225 -225 -225 -225 -225 -225 -225 -225 -225 -225 -225 -225 -225 -225 -225 -225 -225 -225 -225 -225 -225 -225 -225 -225 -225 -225 -225 -225 -225 -225 -225 -225 -225 -225 -225 -225 -225 -225 -225 -225 -225 251 252 257 253 253 253 253 254 256 256 255 253 260 263 264 266 267 268 267 272 -209 -209 -209 -209 -209 -209 -209 -209 -209 -209 -209 -209 -209 -209 -209 -193 -193 -193 -209 -209 -209 -209 -209 -209 -193 -209 -209 -209 -209 0 0 0 0 0 0 0 0 -193 -193 -193 -193 -193 -193 -193 0 0 0 0 0
    0 0 0 0 0 0 0 0 0 0 0 0 0 0 0 0 0 0 0 0 0 0 0 0 0 0 0 0 0 0 0 0 0 0 0 0 0 0 0 0 0 0 0 0 0 0 0 0 0 0 0 0 0 0 0 0 0 0 0 0 0 0 0 0 0 0 0 0 0 -225 -225 -225 -225 -225 -225 -225 -225 -225 -225 -225 -225 -225 -225 -225 -225 -225 -225 -225 -225 -225 -225 -225 -225 -225 -225 -225 -225 -225 -225 -225 -225 -225 -225 -225 -225 -225 -225 -225 -225 -225 -225 -225 -225 -225 -225 -225 -225 -225 -225 -225 -225 -225 -225 -225 -225 -225 -225 -225 -225 -225 -225 -225 -225 -225 -225 -225 -225 -225 -225 -225 -225 -225 -225 -225 -225 -225 -225 -225 -225 -225 -225 -225 -225 -225 -225 -225 -225 -225 -225 -225 -225 -225 -225 -225 -225 -225 -225 -225 -225 -225 -225 -225 -225 -225 -225 -225 -225 -225 -225 -225 -225 -225 -225 -225 -225 -225 -225 -225 -225 -225 -225 -225 -225 -225 -225 -225 -225 -225 -225 -225 -225 -225 -225 -225 -225 -225 -225 -225 -225 -225 -225 -225 -225 -225 -225 -225 -225 -225 -225 -225 -225 -225 -225 -225 -225 -225 -225 -225 -225 -225 -225 -225 -225 -225 -225 -225 -225 -225 -225 -225 -225 -225 -225 -225 -225 -225 -225 -225 -225 -225 -225 -225 -225 -225 252 253 256 256 260 262 263 262 263 266 267 270 270 269 269 -209 -209 -209 -209 -209 -209 -209 -209 -209 -209 -209 -209 -209 -209 -209 -209 -209 -209 -209 -193 -209 -209 -209 -209 -209 -209 -209 -209 -209 -209 -209 -193 0 -209 0 0 0 -177 0 -209 -193 -193 -193 -193 283 284 0 0 0 0 0
    0 0 0 0 0 0 0 0 0 0 0 0 0 0 0 0 0 0 0 0 0 0 0 0 0 0 0 0 0 0 0 0 0 0 0 0 0 0 0 0 0 0 0 0 0 0 0 0 0 0 0 0 0 0 0 0 0 0 0 0 0 0 0 0 0 0 0 0 0 -225 -225 -225 -225 -225 -225 -225 -225 -225 -225 -225 -225 -225 -225 -225 -225 -225 -225 -225 -225 -225 -225 -225 -225 -225 -225 -225 -225 -225 -225 -225 -225 -225 -225 -225 -225 -225 -225 -225 -225 -225 -225 -225 -225 -225 -225 -225 -225 -225 -225 -225 -225 -225 -225 -225 -225 -225 -225 -225 -225 -225 -225 -225 -225 -225 -225 -225 -225 -225 -225 -225 -225 -225 -225 -225 -225 -225 -225 -225 -225 -225 -225 -225 -225 -225 -225 -225 -225 -225 -225 -225 -225 -225 -225 -225 -225 -225 -225 -225 -225 -225 -225 -225 -225 -225 -225 -225 -225 -225 -225 -225 -225 -225 -225 -225 -225 -225 -225 -225 -225 -225 -225 -225 -225 -225 -225 -225 -225 -225 -225 -225 -225 -225 -225 -225 -225 -225 -225 -225 -225 -225 -225 -225 -225 -225 -225 -225 -225 -225 -225 -225 -225 -225 -225 -225 -225 -225 -225 -225 -225 -225 -225 -225 -225 -225 -225 -225 -225 -225 -225 -225 -225 -225 -225 -225 -225 -225 -225 -225 -225 -225 -225 -225 -225 -225 -225 -225 -225 -225 -193 254 265 260 262 264 265 265 -209 -209 -209 -209 -209 -209 -209 -209 -209 -209 -209 -209 -209 -209 -209 -209 -209 -209 -209 -209 -209 -209 -209 -209 -209 -209 -209 33 -209 27 -209 -209 -209 -209 -209 -193 -209 -209 -193 0 0 -193 -209 -193 -193 -193 -193 -193 -193 0 0 0 0 0
    0 0 0 0 0 0 0 0 0 0 0 0 0 0 0 0 0 0 0 0 0 0 0 0 0 0 0 0 0 0 0 0 0 0 0 0 0 0 0 0 0 0 0 0 0 0 0 0 0 0 0 0 0 0 0 0 0 0 0 0 0 0 0 0 0 0 0 0 0 -225 -225 -225 -225 -225 -225 -225 -225 -225 -225 -225 -225 -225 -225 -225 -225 -225 -225 -225 -225 -225 -225 -225 -225 -225 -225 -225 -225 -225 -225 -225 -225 -225 -225 -225 -225 -225 -225 -225 -225 -225 -225 -225 -225 -225 -225 -225 -225 -225 -225 -225 -225 -225 -225 -225 -225 -225 -225 -225 -225 -225 -225 -225 -225 -225 -225 -225 -225 -225 -225 -225 -225 -225 -225 -225 -225 -225 -225 -225 -225 -225 -225 -225 -225 -225 -225 -225 -225 -225 -225 -225 -225 -225 -225 -225 -225 -225 -225 -225 -225 -225 -225 -225 -225 -225 -225 -225 -225 -225 -225 -225 -225 -225 -225 -225 -225 -225 -225 -225 -225 -225 -225 -225 -225 -225 -225 -225 -225 -225 -225 -225 -225 -225 -225 -225 -225 -225 -225 -225 -225 -225 -225 -225 -225 -225 -225 -225 -225 -225 -225 -225 -225 -225 -225 -225 -225 -225 -225 -225 -225 -225 -225 -225 -225 -225 -225 -225 -225 -225 -225 -225 -225 -225 -225 -225 -225 -225 -225 -225 -225 -225 -225 -225 -225 -225 -225 -225 -225 -225 -225 -225 -225 -225 -225 -225 -225 -209 -209 -209 -209 -209 -209 -209 -209 -209 -209 -209 -209 -209 -209 -209 -209 -209 -209 -209 -209 -209 -209 -209 -209 -209 -209 -209 -177 -177 38 29 29 -177 -209 -209 -193 -193 -193 -209 -193 0 0 -209 284 289 -193 292 -193 291 -193 0 0 0 0 0
    0 0 0 0 0 0 0 0 0 0 0 0 0 0 0 0 0 0 0 0 0 0 0 0 0 0 0 0 0 0 0 0 0 0 0 0 0 0 0 0 0 0 0 0 0 0 0 0 0 0 0 0 0 0 0 0 0 0 0 0 0 0 0 0 0 0 0 0 0 -225 -225 -225 -225 -225 -225 -225 -225 -225 -225 -225 -225 -225 -225 -225 -225 -225 -225 -225 -225 -225 -225 -225 -225 -225 -225 -225 -225 -225 -225 -225 -225 -225 -225 -225 -225 -225 -225 -225 -225 -225 -225 -225 -225 -225 -225 -225 -225 -225 -225 -225 -225 -225 -225 -225 -225 -225 -225 -225 -225 -225 -225 -225 -225 -225 -225 -225 -225 -225 -225 -225 -225 -225 -225 -225 -225 -225 -225 -225 -225 -225 -225 -225 -225 -225 -225 -225 -225 -225 -225 -225 -225 -225 -225 -225 -225 -225 -225 -225 -225 -225 -225 -225 -225 -225 -225 -225 -225 -225 -225 -225 -225 -225 -225 -225 -225 -225 -225 -225 -225 -225 -225 -225 -225 -225 -225 -225 -225 -225 -225 -225 -225 -225 -225 -225 -225 -225 -225 -225 -225 -225 -225 -225 -225 -225 -225 -225 -225 -225 -225 -225 -225 -225 -225 -225 -225 -225 -225 -225 -225 -225 -225 -225 -225 -225 -225 -225 -225 -225 -225 -225 -225 -225 -225 -225 -225 -225 -225 -225 -225 -225 -225 -225 -225 -225 -225 -225 -225 -225 -225 -225 -225 -225 -225 -225 -225 -225 -209 -209 -209 -209 -209 -209 -209 -209 -209 -209 -209 -209 -209 -209 -209 -209 -209 -209 -209 -209 -209 -209 -209 -209 -209 -209 -209 -177 -177 -177 38 -209 -177 -209 -209 -209 -209 -209 -209 -193 -209 -193 286 291 292 294 297 294 -193 0 0 0 0 0
    0 0 0 0 0 0 0 0 0 0 0 0 0 0 0 0 0 0 0 0 0 0 0 0 0 0 0 0 0 0 0 0 0 0 0 0 0 0 0 0 0 0 0 0 0 0 0 0 0 0 0 0 0 0 0 0 0 0 0 0 0 0 0 0 0 0 0 0 0 -225 -225 -225 -225 -225 -225 -225 -225 -225 -225 -225 -225 -225 -225 -225 -225 -225 -225 -225 -225 -225 -225 -225 -225 -225 -225 -225 -225 -225 -225 -225 -225 -225 -225 -225 -225 -225 -225 -225 -225 -225 -225 -225 -225 -225 -225 -225 -225 -225 -225 -225 -225 -225 -225 -225 -225 -225 -225 -225 -225 -225 -225 -225 -225 -225 -225 -225 -225 -225 -225 -225 -225 -225 -225 -225 -225 -225 -225 -225 -225 -225 -225 -225 -225 -225 -225 -225 -225 -225 -225 -225 -225 -225 -225 -225 -225 -225 -225 -225 -225 -225 -225 -225 -225 -225 -225 -225 -225 -225 -225 -225 -225 -225 -225 -225 -225 -225 -225 -225 -225 -225 -225 -225 -225 -225 -225 -225 -225 -225 -225 -225 -225 -225 -225 -225 -225 -225 -225 -225 -225 -225 -225 -225 -225 -225 -225 -225 -225 -225 -225 -225 -225 -225 -225 -225 -225 -225 -225 -225 -225 -225 -225 -225 -225 -225 -225 -225 -225 -225 -225 -225 -225 -225 -225 -225 -225 -225 -225 -225 -225 -225 -225 -225 -225 -225 -225 -225 -225 -225 -225 -225 -225 -225 -225 -225 -225 -225 -225 -209 -209 -209 -209 -209 -209 -209 -209 -209 -209 -209 -209 -209 -209 -209 -209 -209 -209 -209 -209 -209 -209 -209 -209 -209 -209 -193 -177 -209 -177 52 61 72 -209 -193 -209 -209 -209 -209 290 290 290 294 295 296 299 298 -209 0 0 0 0 0
    0 0 0 0 0 0 0 0 0 0 0 0 0 0 0 0 0 0 0 0 0 0 0 0 0 0 0 0 0 0 0 0 0 0 0 0 0 0 0 0 0 0 0 0 0 0 0 0 0 0 0 0 0 0 0 0 0 0 0 0 0 0 0 0 0 0 0 0 0 -225 -225 -225 -225 -225 -225 -225 -225 -225 -225 -225 -225 -225 -225 -225 -225 -225 -225 -225 -225 -225 -225 -225 -225 -225 -225 -225 -225 -225 -225 -225 -225 -225 -225 -225 -225 -225 -225 -225 -225 -225 -225 -225 -225 -225 -225 -225 -225 -225 -225 -225 -225 -225 -225 -225 -225 -225 -225 -225 -225 -225 -225 -225 -225 -225 -225 -225 -225 -225 -225 -225 -225 -225 -225 -225 -225 -225 -225 -225 -225 -225 -225 -225 -225 -225 -225 -225 -225 -225 -225 -225 -225 -225 -225 -225 -225 -225 -225 -225 -225 -225 -225 -225 -225 -225 -225 -225 -225 -225 -225 -225 -225 -225 -225 -225 -225 -225 -225 -225 -225 -225 -225 -225 -225 -225 -225 -225 -225 -225 -225 -225 -225 -225 -225 -225 -225 -225 -225 -225 -225 -225 -225 -225 -225 -225 -225 -225 -225 -225 -225 -225 -225 -225 -225 -225 -225 -225 -225 -225 -225 -225 -225 -225 -225 -225 -225 -225 -225 -225 -225 -225 -225 -225 -225 -225 -225 -225 -225 -225 -225 -225 -225 -225 -225 -225 -225 -225 -225 -225 -225 -225 -225 -225 -225 -225 -225 -225 -225 -209 -209 -209 -209 -209 -209 -209 -209 -209 -209 -209 -209 -209 -209 -209 -209 -209 -209 -209 -209 -209 -209 -209 -209 -209 -209 -193 -209 -193 -209 48 60 -209 -209 -209 -209 -209 -209 -209 295 295 295 296 296 296 299 -193 -209 0 0 0 0 0
    0 0 0 0 0 0 0 0 0 0 0 0 0 0 0 0 0 0 0 0 0 0 0 0 0 0 0 0 0 0 0 0 0 0 0 0 0 0 0 0 0 0 0 0 0 0 0 0 0 0 0 0 0 0 0 0 0 0 0 0 0 0 0 0 0 0 0 0 0 -225 -225 -225 -225 -193 -193 461 460 -193 -193 343 347 347 -193 347 -193 0 0 0 0 717 -193 -193 -193 -193 -209 -193 -193 350 351 -193 852 853 -193 855 -193 -209 -193 -193 -225 -209 -193 -225 -193 -209 -209 -225 -225 -225 -193 -209 -193 343 343 -193 -193 -193 -193 -193 -209 -225 -225 -225 -225 -225 -225 -225 -225 -225 -225 -225 -225 -225 -225 -225 -225 -225 -225 -225 -225 -225 -225 -225 -225 -225 -225 -225 -225 -225 -225 -225 -225 -225 -225 -225 -225 -225 -225 -225 -225 -225 -225 -225 -225 -225 -225 -225 -225 -225 -225 -225 -225 -225 -225 -225 -225 -225 -225 -225 -225 -225 -225 -225 -225 -225 -225 -225 -225 -225 -225 -225 -225 -225 -225 -225 -225 -225 -225 -225 -225 -225 -225 -225 -225 -225 -225 -225 -225 -225 -225 -225 -225 -225 -225 -225 -225 -225 -225 -225 -225 -225 -225 -225 -225 -225 -225 -225 -225 -225 -225 -225 -225 -225 -225 -225 -225 -225 -225 -225 -225 -225 -225 -225 -225 -225 -225 -225 -225 -225 -225 -225 -225 -225 -225 -225 -225 -209 -209 -209 -209 -209 -209 -209 -209 -209 -209 -209 -209 -209 -209 -209 -209 -209 -209 -209 -209 -209 -209 -209 -209 -209 -209 -209 -209 -209 -209 -209 -209 -209 -209 -209 -209 -209 -209 -209 -193 -209 302 -193 297 296 296 295 298 -193 -209 0 0 0 0 0
    0 0 0 0 0 0 0 0 0 0 0 0 0 0 0 0 0 0 0 0 0 0 0 0 0 0 0 0 0 0 0 0 0 0 0 0 0 0 0 0 0 0 0 0 0 0 0 0 0 0 0 0 0 0 0 0 0 0 0 0 0 0 0 0 0 0 0 0 0 -225 -225 -225 353 -193 -193 461 -193 -193 -193 343 347 347 -193 347 -193 0 0 0 0 -193 -193 -193 -193 615 -209 -193 -193 349 350 -193 -193 853 855 854 -209 -209 -209 -193 -209 -209 -209 -209 -193 214 -209 848 849 -209 338 -193 -193 343 342 342 -193 340 341 -193 -193 -193 486 -209 -209 -225 -225 353 349 348 -225 -225 -225 -225 -225 -225 -225 -225 -225 -225 -225 -225 -225 -225 -225 -225 -225 -225 -225 -225 -225 -225 -225 -225 -225 -225 -225 -225 -225 -225 -225 -225 -225 -225 -225 -225 -225 -225 -225 -225 -225 -225 324 325 325 324 324 322 323 323 325 -225 320 323 -225 -225 -225 -225 -225 -225 -225 -225 -225 -225 -225 -225 -225 -225 -225 -225 -225 343 340 340 340 341 340 -193 -193 -225 -225 -225 -225 -225 -225 -225 -225 -225 -225 -225 -225 -225 -225 -225 -225 -225 -225 -225 -225 -225 -225 -225 -225 -225 -225 -225 -225 -225 -225 738 -209 31 -225 338 341 340 -225 -225 -225 -225 -225 -225 -225 -225 -177 492 -193 -193 -209 -209 -209 -209 -209 -209 -209 -209 -209 -209 -209 -209 -209 -209 -209 -209 -209 -209 -209 -209 -209 -209 -209 -209 -209 -209 -209 -209 -209 -209 -209 -209 -209 -209 -209 -209 -209 -209 94 -209 311 306 307 300 -209 295 298 -209 -209 0 0 0 0 0
    0 0 0 0 0 0 0 0 0 0 0 0 0 0 0 0 0 0 0 0 0 0 0 0 0 0 0 0 0 0 0 0 0 0 0 0 0 0 0 0 0 0 0 0 0 0 0 0 0 0 0 0 0 0 0 0 0 0 0 0 0 0 0 0 0 0 0 0 0 352 353 355 352 -193 -193 -193 -193 -193 -193 343 347 -193 -209 347 -193 0 0 0 0 -193 -209 -193 -193 -209 -209 -209 -209 349 349 -193 -193 -193 854 854 854 -209 -209 -209 -209 -177 -193 349 -209 -193 -193 -193 -193 338 337 343 340 343 342 343 342 341 342 -193 -193 -209 -177 345 -193 345 349 350 347 347 342 339 340 -193 -193 -209 -209 -225 -225 -225 -225 -225 -225 -225 -225 -225 -225 -225 -225 -209 -209 -177 -193 -193 -193 -209 -193 339 339 -193 -225 -225 -193 -193 -177 -193 -193 -177 -209 -193 -209 325 326 327 326 325 325 323 324 325 326 326 325 327 -209 -193 -193 -193 -193 339 340 341 339 340 340 341 -225 340 -225 340 341 343 341 341 341 341 340 339 340 -193 -225 344 -193 -177 342 343 342 343 339 340 338 338 339 340 -193 -209 333 -193 -209 -177 -209 -209 -193 -193 -177 -193 -177 740 739 737 -209 -209 337 338 341 339 339 338 341 -193 -193 -193 492 -177 -177 -177 -193 -209 -193 331 330 -193 -209 -209 -209 -209 -209 -209 -209 -209 -209 -209 -209 -209 -209 -209 -209 -209 -209 -209 -209 -209 -209 -209 -209 -209 -209 -209 -209 -209 -209 -209 -209 -209 -209 -209 92 -209 318 318 -209 317 -209 -209 -209 -209 -209 0 0 0 0 0
    0 0 0 0 0 0 0 0 0 0 0 0 0 0 0 0 0 0 0 0 0 0 0 0 0 0 0 0 0 0 0 0 0 0 0 0 0 0 0 0 0 0 0 0 0 0 0 0 0 0 0 0 0 0 0 0 0 0 0 0 0 0 0 0 0 0 0 0 0 352 352 353 350 -209 -193 -193 -193 340 -193 342 346 -193 -193 346 -193 -193 0 0 -193 -193 -193 -209 -193 -209 -209 -209 -209 348 -193 -209 -209 -193 -209 853 852 -209 -209 -209 -177 349 351 349 -209 -209 -209 -193 -193 339 338 343 340 343 342 343 342 341 342 -193 341 -193 -193 345 343 345 347 348 346 345 343 341 343 -193 -209 -209 -209 795 -209 -209 -209 -225 -225 -225 -225 -225 -225 -225 -193 -209 -209 -193 -193 -193 -193 -193 -193 340 339 -193 -193 -209 -209 -209 -177 -209 -193 -193 -209 239 -209 325 326 327 326 325 324 323 325 325 327 327 327 329 330 331 334 -193 338 339 340 340 339 339 339 340 340 339 339 339 341 343 341 341 341 340 341 339 340 338 339 343 342 341 342 342 342 342 339 340 338 338 339 340 339 334 334 339 -209 -177 -209 -209 -209 -209 -209 -209 -209 -177 -177 -193 -209 -193 336 337 340 339 338 338 340 341 342 -193 -177 -177 -177 -177 -193 -209 330 332 330 330 -193 -209 -209 -193 333 -209 -209 -209 -209 -209 -209 -209 -193 -209 -209 -209 -209 -209 -209 -209 -209 -209 -209 -209 -209 -209 -209 -209 -209 -209 -209 -209 -209 -209 -209 -209 328 329 329 328 -193 -209 -209 -209 -209 0 0 0 0 0
    0 0 0 0 0 0 0 0 0 0 0 0 0 0 0 0 0 0 0 0 0 0 0 0 0 0 0 0 0 0 0 0 0 0 0 0 0 0 0 0 0 0 0 0 0 0 0 0 0 0 0 0 0 0 0 0 0 0 0 0 0 0 0 0 0 0 0 0 0 350 351 351 350 -193 -193 -193 -193 342 -193 343 346 346 -193 347 348 -193 -193 -193 -193 719 -193 -193 721 -193 -209 349 -193 349 349 -209 -209 -209 -209 -209 -209 -193 346 -209 348 349 352 350 -209 -209 -209 -193 -209 -177 339 343 341 343 343 342 342 341 342 342 341 344 343 344 -193 345 347 347 346 344 342 341 342 -193 343 -209 -193 -193 -209 -209 -209 872 873 877 -209 -209 -209 -209 -193 -209 -209 343 342 342 343 342 -193 340 339 338 -193 -209 -209 -209 -209 -209 334 334 -193 -209 330 328 330 328 327 325 325 324 326 326 327 328 328 330 331 332 335 338 339 340 340 340 339 340 340 341 340 339 339 340 342 343 341 341 341 340 340 339 339 336 337 340 340 340 341 341 341 342 339 341 340 339 340 341 340 336 336 339 -209 -177 -209 -209 -209 -209 -209 -209 -209 -193 -177 -209 -209 -193 336 337 340 338 338 338 340 340 341 -193 -193 -177 -193 -177 -193 331 331 333 331 331 331 331 334 333 334 -209 -209 -209 -209 -193 -193 -209 -193 -209 -209 -209 -193 -209 -209 -209 -209 -209 -209 -209 -209 -209 -209 -209 -209 -209 -209 -209 -209 -209 -209 329 329 330 330 329 329 330 -209 -209 -193 0 0 0 0 0
    0 0 0 0 0 0 0 0 0 0 0 0 0 0 0 0 0 0 0 0 0 0 0 0 0 0 0 0 0 0 0 0 0 0 0 0 0 0 0 0 0 0 0 0 0 0 0 0 0 0 0 0 0 0 0 0 0 0 0 0 0 0 0 0 0 0 0 0 0 349 350 350 350 347 346 -193 -193 -193 345 344 346 346 347 347 348 348 -193 -193 -193 719 720 -193 721 721 -209 348 348 349 349 347 347 -209 346 -193 -193 347 347 347 349 350 352 350 347 -209 -209 -193 -209 342 341 344 341 344 343 343 342 342 342 342 341 343 343 344 343 345 346 346 346 346 344 343 344 -193 345 345 -193 -193 -209 -209 -209 -209 -209 -209 -193 -193 -209 -209 -193 344 343 342 342 342 343 342 341 340 340 338 339 -193 -193 -193 -209 334 335 335 338 333 332 330 334 333 329 327 327 326 327 328 329 329 330 332 334 334 336 340 340 340 340 340 339 340 340 341 340 339 339 340 342 342 341 340 340 339 340 339 338 335 337 338 339 339 340 341 341 342 339 341 340 340 341 341 341 338 337 341 -209 -193 -209 -193 -209 -209 -209 -193 -193 -209 -193 -209 -209 -193 337 337 341 340 339 339 341 341 341 -193 -209 -193 -193 -193 335 332 332 333 332 331 332 332 335 334 334 335 -209 -209 -209 -193 -193 -193 -193 -209 -193 336 334 -193 -209 -209 -209 -209 -193 -193 -193 331 330 -209 -209 -209 -209 -209 -209 -209 -209 -193 330 330 331 330 330 330 330 330 330 0 0 0 0 0
    0 0 0 0 0 0 0 0 0 0 0 0 0 0 0 0 0 0 0 0 0 0 0 0 0 0 0 0 0 0 0 0 0 0 0 0 0 0 0 0 0 0 0 0 0 0 0 0 0 0 0 0 0 0 0 0 0 0 0 0 0 0 0 0 0 0 0 0 0 349 350 350 350 348 348 -193 -193 -193 346 345 347 346 347 347 348 348 -193 -193 -193 719 -193 -193 -193 -193 -209 348 348 348 349 347 347 345 346 347 346 347 347 347 349 349 351 350 347 -193 -209 -209 -209 -193 343 345 342 344 343 343 342 342 342 342 341 343 343 343 342 343 344 345 345 346 345 343 345 345 345 346 -193 -193 -209 -209 -209 -209 -209 -209 -193 -193 -193 -193 -193 344 343 342 342 342 343 342 341 341 340 338 339 339 339 336 337 336 336 336 339 334 333 331 334 334 330 327 327 327 327 328 330 330 332 334 336 336 337 340 340 340 340 340 339 340 340 341 339 339 339 340 341 341 341 340 340 340 340 339 338 335 337 337 338 338 339 340 340 342 339 340 340 339 341 341 340 338 337 340 336 336 336 335 334 334 333 332 -209 -209 -193 -209 -209 336 338 338 341 339 339 339 340 340 339 340 340 335 336 336 335 332 332 333 332 332 332 333 336 335 336 336 -193 -209 -193 -193 337 333 -193 -193 336 336 334 334 -209 330 -193 -193 332 332 331 331 330 330 330 328 -209 -209 -209 -209 -209 330 330 331 331 331 331 331 331 331 332 0 0 0 0 0
    0 0 0 0 0 0 0 0 0 0 0 0 0 0 0 0 0 0 0 0 0 0 0 0 0 0 0 0 0 0 0 0 0 0 0 0 0 0 0 0 0 0 0 0 0 0 0 0 0 0 0 0 0 0 0 0 0 0 0 0 0 0 0 0 0 0 0 0 0 349 349 350 350 349 348 347 346 -193 347 345 347 346 347 346 348 348 -193 349 -193 -193 -193 -193 -193 -193 -193 347 347 347 347 345 345 344 345 346 346 347 347 347 349 350 352 350 348 -193 -209 -193 -193 -193 344 345 343 344 344 344 343 342 343 342 342 344 343 343 342 344 344 345 346 347 346 344 346 346 346 346 -193 -193 -193 -209 -209 -193 -193 342 342 342 342 342 344 343 343 343 342 342 343 342 342 341 340 339 339 340 339 337 338 337 337 336 340 336 335 332 336 334 332 329 329 328 328 329 331 331 333 335 337 337 338 341 340 340 340 340 339 340 340 341 340 340 340 340 342 342 341 341 340 340 340 339 339 336 336 337 339 337 339 340 340 341 339 340 340 340 342 341 340 339 338 340 337 336 335 334 334 334 332 332 332 -193 -193 334 -193 335 337 337 339 338 338 338 339 338 338 338 338 335 336 336 335 333 333 333 332 332 332 333 336 335 336 336 335 340 340 340 337 333 -193 -193 336 336 333 334 331 330 338 333 332 332 332 332 330 331 331 329 331 -209 -209 -209 330 331 331 332 332 332 332 332 333 332 333 0 0 0 0 0
    0 0 0 0 0 0 0 0 0 0 0 0 0 0 0 0 0 0 0 0 0 0 0 0 0 0 0 0 0 0 0 0 0 0 0 0 0 0 0 0 0 0 0 0 0 0 0 0 0 0 0 0 0 0 0 0 0 0 0 0 0 0 0 0 0 0 0 0 0 348 349 350 350 349 349 348 347 346 347 346 347 346 347 346 348 348 351 349 -193 -193 350 349 350 349 348 347 346 346 346 344 344 343 344 346 346 347 348 349 351 351 353 351 348 -193 -193 -193 -193 -193 345 346 344 345 344 344 343 343 343 343 342 344 344 344 344 345 345 346 347 347 347 346 347 346 346 346 -193 -209 -193 342 -209 341 342 342 342 342 342 343 344 343 343 342 342 342 343 342 342 341 341 339 339 340 339 337 338 337 337 336 340 337 336 333 336 335 333 331 331 330 329 329 332 332 334 335 337 338 338 341 340 339 340 340 339 339 339 340 339 340 340 340 341 341 341 340 340 340 339 339 339 335 336 335 338 337 339 340 340 341 339 340 340 340 342 341 340 340 338 340 339 336 336 334 334 334 332 332 332 -193 -193 333 333 335 336 336 338 338 338 338 339 339 338 337 336 334 335 335 334 332 332 333 332 332 332 333 335 335 336 336 336 341 340 341 338 334 335 335 336 336 333 333 331 330 336 332 332 332 331 331 330 331 332 330 332 332 -193 332 333 333 333 333 333 333 334 333 334 333 333 0 0 0 0 0
    0 0 0 0 0 0 0 0 0 0 0 0 0 0 0 0 0 0 0 0 0 0 0 0 0 0 0 0 0 0 0 0 0 0 0 0 0 0 0 0 0 0 0 0 0 0 0 0 0 0 0 0 0 0 0 0 0 0 0 0 0 0 0 0 0 0 0 0 0 348 348 349 350 349 349 349 348 347 348 347 347 347 348 346 348 348 352 349 350 349 350 349 350 349 348 347 346 346 345 344 344 344 345 346 346 347 348 349 351 350 351 349 348 347 347 -193 -193 -193 346 346 344 345 345 345 344 344 344 343 343 344 344 344 344 345 346 346 346 347 347 346 347 347 346 346 345 -193 -193 343 343 341 341 342 342 342 342 343 343 343 343 342 342 342 343 342 342 341 341 340 340 340 340 338 339 338 337 337 340 338 337 335 337 336 335 333 333 332 331 330 334 332 335 336 337 339 338 340 340 339 340 339 339 339 339 340 338 340 339 339 341 340 341 340 340 339 338 339 339 335 337 334 338 337 340 340 340 341 339 340 340 340 341 341 340 340 339 340 340 338 338 336 335 335 333 332 -193 -193 -193 331 332 333 335 335 337 336 337 338 339 339 337 337 335 334 334 334 333 332 332 333 332 332 333 333 335 336 336 337 337 341 340 340 338 335 335 336 336 335 332 332 330 329 333 331 331 331 331 331 331 333 333 332 335 335 335 334 335 334 334 333 334 333 334 332 333 332 333 0 0 0 0 0
    0 0 0 0 0 0 0 0 0 0 0 0 0 0 0 0 0 0 0 0 0 0 0 0 0 0 0 0 0 0 0 0 0 0 0 0 0 0 0 0 0 0 0 0 0 0 0 0 0 0 0 0 0 0 0 0 0 0 0 0 0 0 0 0 0 0 0 0 0 348 348 350 350 350 349 349 349 348 348 347 347 347 348 347 348 348 351 349 350 349 349 349 350 349 349 347 346 346 345 344 344 344 345 346 346 347 348 348 350 349 350 349 347 347 347 347 -193 346 346 346 345 346 346 346 344 345 345 344 344 345 345 344 344 346 346 346 347 348 347 347 347 348 347 347 346 346 -193 344 344 343 342 343 342 343 343 343 343 343 343 342 343 343 343 342 342 342 342 341 341 341 341 340 340 339 339 338 341 340 338 337 339 337 338 336 336 335 333 333 337 335 337 337 338 339 338 340 340 339 340 339 339 339 339 339 338 340 339 339 341 340 340 339 339 339 338 338 338 335 336 333 337 337 340 340 339 339 338 339 340 340 341 340 339 340 339 341 340 338 338 337 336 336 333 333 -193 -193 332 331 331 333 334 334 335 335 336 337 339 339 336 336 335 334 334 334 333 333 332 333 332 333 334 334 337 338 338 339 338 341 340 340 338 335 335 336 335 335 332 332 329 329 331 331 330 330 330 331 331 333 334 333 337 336 336 334 335 334 333 333 333 333 333 332 333 332 332 0 0 0 0 0
    0 0 0 0 0 0 0 0 0 0 0 0 0 0 0 0 0 0 0 0 0 0 0 0 0 0 0 0 0 0 0 0 0 0 0 0 0 0 0 0 0 0 0 0 0 0 0 0 0 0 0 0 0 0 0 0 0 0 0 0 0 0 0 0 0 0 0 0 0 348 349 350 350 350 349 350 349 348 348 347 347 348 348 347 348 348 351 349 350 349 349 349 350 350 349 347 346 346 346 345 345 345 346 346 347 348 348 349 351 349 351 349 348 348 347 348 348 347 347 346 346 346 347 346 345 345 345 344 344 344 345 343 344 345 346 346 347 348 347 347 347 347 347 347 346 346 344 344 344 343 343 343 343 343 342 343 343 343 343 343 343 343 342 342 342 342 342 340 341 341 341 340 341 340 339 339 342 341 339 338 339 337 338 337 337 336 334 336 339 336 339 339 339 340 339 340 340 338 340 339 339 339 340 339 339 340 340 339 341 340 340 339 339 339 337 338 338 335 335 333 335 336 339 340 338 338 338 339 341 340 342 341 339 340 339 340 341 337 338 336 336 336 333 333 -193 331 332 331 331 332 334 334 335 335 336 338 338 339 336 336 335 334 334 335 333 334 333 334 333 336 337 337 338 340 340 341 340 342 340 340 337 335 334 335 334 334 331 331 329 329 330 330 328 328 328 329 330 332 333 334 336 336 336 334 335 334 333 333 333 332 333 332 333 332 332 0 0 0 0 0
    0 0 0 0 0 0 0 0 0 0 0 0 0 0 0 0 0 0 0 0 0 0 0 0 0 0 0 0 0 0 0 0 0 0 0 0 0 0 0 0 0 0 0 0 0 0 0 0 0 0 0 0 0 0 0 0 0 0 0 0 0 0 0 0 0 0 0 0 0 348 349 350 351 350 350 350 349 348 348 347 348 348 348 347 347 348 351 349 349 348 348 348 349 349 348 347 347 347 347 345 346 345 346 347 347 348 349 348 350 348 350 349 348 348 348 348 348 347 347 347 346 346 347 346 345 345 345 344 344 345 345 343 345 346 346 346 347 348 347 347 347 347 346 346 345 345 343 343 343 343 343 343 343 343 343 343 344 343 343 343 343 343 342 342 342 342 341 340 340 341 341 341 342 340 340 340 342 341 340 339 339 337 338 336 337 336 334 336 339 337 340 339 340 341 339 340 340 338 340 339 340 340 340 340 339 340 340 340 340 340 340 339 339 339 337 337 337 334 334 332 334 335 339 340 338 338 337 338 341 340 341 340 339 340 339 340 341 338 338 337 337 336 334 334 -193 331 332 331 -193 332 334 334 335 335 336 337 337 339 336 336 335 334 334 335 333 334 333 334 333 336 337 338 338 341 341 343 341 342 340 339 336 334 333 334 333 333 330 330 329 330 330 330 328 328 328 329 330 332 333 335 335 334 336 334 335 334 333 333 333 333 333 332 332 332 332 0 0 0 0 0
    0 0 0 0 0 0 0 0 0 0 0 0 0 0 0 0 0 0 0 0 0 0 0 0 0 0 0 0 0 0 0 0 0 0 0 0 0 0 0 0 0 0 0 0 0 0 0 0 0 0 0 0 0 0 0 0 0 0 0 0 0 0 0 0 0 0 0 0 0 349 350 351 351 351 350 350 349 348 348 347 348 348 348 347 347 348 350 348 348 -193 -193 347 348 348 347 346 345 345 346 345 345 345 345 346 347 348 349 348 349 348 349 348 347 348 348 348 348 348 347 347 346 346 348 347 345 345 345 344 344 345 345 343 345 346 346 346 347 348 348 347 348 347 347 347 346 346 343 344 344 343 343 343 343 343 343 344 344 344 343 343 343 343 342 341 341 342 341 340 340 341 341 341 342 341 340 340 342 342 340 339 340 337 338 337 337 336 334 336 340 338 340 340 340 341 339 340 340 338 340 339 340 339 340 340 339 340 340 339 340 339 340 339 339 338 336 337 338 334 334 332 335 335 339 340 337 338 337 337 340 339 341 340 338 340 339 341 341 338 338 337 337 337 335 334 -193 331 332 332 -193 -193 334 335 335 336 336 337 338 339 336 337 335 335 334 335 334 334 333 333 333 336 336 337 337 341 340 343 342 342 339 338 334 334 332 334 332 332 330 330 330 331 330 330 329 329 329 330 331 334 334 336 337 336 338 336 337 335 334 334 334 333 334 332 332 332 332 0 0 0 0 0
    0 0 0 0 0 0 0 0 0 0 0 0 0 0 0 0 0 0 0 0 0 0 0 0 0 0 0 0 0 0 0 0 0 0 0 0 0 0 0 0 0 0 0 0 0 0 0 0 0 0 0 0 0 0 0 0 0 0 0 0 0 0 0 0 0 0 0 0 0 350 351 352 352 352 351 351 349 348 348 347 347 348 347 347 346 347 349 348 348 347 -193 347 347 348 347 346 345 344 345 344 344 344 344 345 345 347 348 347 348 347 348 347 347 348 348 348 348 348 348 348 347 347 349 346 345 345 345 344 345 345 345 343 345 346 346 346 347 348 348 348 348 347 347 346 345 345 343 343 343 343 343 343 343 343 343 344 344 344 344 343 343 343 342 341 341 341 341 340 340 341 341 341 342 341 340 340 342 342 340 339 340 337 338 337 337 336 335 336 340 338 340 340 340 341 340 340 340 338 340 339 341 339 340 339 339 340 340 339 340 339 340 339 339 339 336 336 338 335 334 333 335 336 339 340 337 337 336 337 339 339 340 339 338 339 339 341 341 338 338 337 337 337 336 335 333 332 333 332 333 333 334 335 335 336 337 338 338 339 337 337 335 334 334 335 333 334 332 333 332 335 334 336 336 341 339 342 340 341 338 336 333 334 331 333 332 331 329 329 329 331 330 330 329 329 330 330 331 336 337 340 339 340 340 338 338 337 335 335 334 333 333 332 331 332 332 0 0 0 0 0
    0 0 0 0 0 0 0 0 0 0 0 0 0 0 0 0 0 0 0 0 0 0 0 0 0 0 0 0 0 0 0 0 0 0 0 0 0 0 0 0 0 0 0 0 0 0 0 0 0 0 0 0 0 0 0 0 0 0 0 0 0 0 0 0 0 0 0 0 0 350 351 352 352 352 351 350 349 348 348 347 347 348 347 347 346 347 -193 347 347 -193 347 347 347 348 347 346 346 345 345 344 344 344 344 345 345 346 348 347 348 347 348 347 347 347 348 348 348 348 347 348 348 347 349 346 345 345 345 345 345 345 345 343 345 346 347 347 347 347 348 348 348 347 346 345 344 344 343 342 342 343 343 343 342 343 343 344 344 343 343 343 343 343 341 341 340 341 341 340 340 341 341 341 342 341 341 341 342 342 341 339 340 337 338 337 337 336 335 336 340 337 340 340 341 341 340 341 340 339 341 340 341 340 340 339 339 340 340 339 340 339 340 338 340 338 335 336 337 334 334 333 335 335 339 340 337 337 336 337 339 340 340 340 339 340 340 341 341 339 338 338 336 338 337 335 333 332 334 332 333 333 335 336 336 337 337 338 338 339 337 336 334 334 333 334 332 333 332 332 332 334 333 335 334 339 337 340 338 339 336 336 334 334 332 333 331 331 329 329 329 330 330 330 329 329 329 330 331 337 339 342 341 341 340 339 339 338 336 335 332 331 332 331 330 331 331 0 0 0 0 0
    0 0 0 0 0 0 0 0 0 0 0 0 0 0 0 0 0 0 0 0 0 0 0 0 0 0 0 0 0 0 0 0 0 0 0 0 0 0 0 0 0 0 0 0 0 0 0 0 0 0 0 0 0 0 0 0 0 0 0 0 0 0 0 0 0 0 0 0 0 350 350 351 351 350 350 350 349 349 348 348 348 349 348 348 347 347 347 347 347 347 346 347 347 348 347 346 346 345 346 345 345 345 345 346 346 346 347 346 -193 346 347 346 346 346 347 347 348 347 347 347 347 346 349 346 345 345 345 345 345 345 345 343 345 346 347 347 347 347 347 347 347 346 345 344 344 344 343 343 343 344 344 343 343 344 343 344 344 343 343 343 342 343 341 340 340 340 340 340 340 341 341 341 342 341 -193 341 342 342 341 340 340 338 339 337 338 336 335 336 339 337 340 339 340 341 341 341 341 340 341 341 342 340 341 338 338 339 339 338 339 338 339 337 339 338 335 335 336 334 334 333 335 335 338 340 337 338 337 338 340 340 340 340 339 340 340 341 341 338 338 338 336 338 338 337 335 334 336 334 334 334 336 338 337 338 337 338 338 339 337 336 334 333 333 334 332 333 331 332 332 335 333 335 334 339 336 339 338 339 335 335 333 333 331 333 331 331 330 330 329 330 330 330 329 328 329 330 330 336 339 342 340 341 340 339 339 337 334 332 330 330 330 329 329 330 330 0 0 0 0 0
    0 0 0 0 0 0 0 0 0 0 0 0 0 0 0 0 0 0 0 0 0 0 0 0 0 0 0 0 0 0 0 0 0 0 0 0 0 0 0 0 0 0 0 0 0 0 0 0 0 0 0 0 0 0 0 0 0 0 0 0 0 0 0 0 0 0 0 0 0 350 350 351 350 349 349 349 349 349 348 348 348 349 348 348 347 347 347 347 347 346 346 346 -193 -193 346 346 346 345 346 345 346 346 346 346 346 345 345 344 -193 -193 -193 346 -193 -209 347 347 348 347 346 346 346 346 348 345 345 344 344 344 344 344 345 342 345 346 347 347 347 347 347 347 346 345 345 344 344 344 344 344 343 344 344 343 343 344 344 344 343 343 343 343 342 342 341 340 340 340 340 340 339 341 341 342 343 342 -193 342 343 342 341 341 341 339 339 338 338 337 336 336 339 337 340 339 341 341 341 342 342 341 342 342 343 341 342 339 339 339 340 339 339 338 339 338 339 338 336 335 336 334 334 333 335 335 337 339 336 337 336 337 340 340 339 340 339 339 340 341 340 338 337 337 336 338 338 337 337 336 339 337 337 336 338 339 338 337 336 336 336 338 336 335 333 333 333 334 333 334 332 333 332 334 333 335 333 338 335 338 336 337 334 334 332 332 331 333 331 331 330 330 330 331 330 330 329 329 329 330 330 335 338 341 340 341 340 339 339 336 334 332 329 329 329 329 328 330 330 0 0 0 0 0
    0 0 0 0 0 0 0 0 0 0 0 0 0 0 0 0 0 0 0 0 0 0 0 0 0 0 0 0 0 0 0 0 0 0 0 0 0 0 0 0 0 0 0 0 0 0 0 0 0 0 0 0 0 0 0 0 0 0 0 0 0 0 0 0 0 0 0 0 0 351 351 351 350 349 349 349 349 348 348 348 348 349 347 348 347 347 347 346 -193 346 -193 346 -209 -209 346 346 346 345 346 345 346 345 345 345 345 344 344 344 345 345 -193 -193 -209 -209 347 -209 -193 -209 346 346 346 345 348 344 344 343 343 343 344 344 344 341 345 345 346 346 347 346 346 347 346 345 345 344 344 344 344 344 343 344 345 343 343 343 343 343 343 343 343 342 342 342 340 339 340 340 340 340 339 341 342 342 343 342 343 342 343 342 342 341 341 339 339 338 338 337 336 336 339 337 340 339 341 342 342 343 343 343 344 344 344 343 343 341 341 340 340 340 339 339 339 338 339 338 336 335 335 334 333 332 333 334 335 337 335 335 335 336 339 339 339 340 339 339 340 340 340 338 338 337 336 337 338 337 338 337 339 338 339 339 340 341 339 337 336 336 336 337 336 336 333 334 333 335 334 335 333 333 333 334 332 335 334 338 335 338 335 336 334 334 332 332 331 333 332 332 331 332 331 331 331 331 329 329 330 330 330 333 335 338 338 339 339 338 338 335 333 331 329 328 329 329 329 330 330 0 0 0 0 0
    0 0 0 0 0 0 0 0 0 0 0 0 0 0 0 0 0 0 0 0 0 0 0 0 0 0 0 0 0 0 0 0 0 0 0 0 0 0 0 0 0 0 0 0 0 0 0 0 0 0 0 0 0 0 0 0 0 0 0 0 0 0 0 0 0 0 0 0 0 350 350 350 350 349 348 348 348 348 348 347 347 348 -193 347 -193 -193 -193 -193 -193 -193 -193 346 -193 -193 346 345 -193 345 344 343 343 344 343 344 344 343 344 343 -193 -193 345 -193 -209 -209 -193 -193 -193 -209 346 346 346 345 348 343 343 343 343 343 343 343 343 340 344 344 345 345 345 344 345 345 345 343 344 344 344 343 343 343 343 344 344 343 343 343 343 343 342 342 342 342 341 341 340 339 339 340 340 339 338 340 341 341 342 342 342 342 342 342 342 341 341 339 339 337 338 337 336 336 339 338 339 339 341 342 342 343 344 344 344 344 345 343 344 342 341 341 341 340 340 339 339 338 338 338 336 334 334 333 333 332 333 334 334 336 335 336 336 337 339 339 340 340 340 340 340 341 340 339 338 337 336 336 338 337 337 337 338 337 339 338 340 341 339 337 336 336 336 337 336 335 334 335 334 336 334 335 333 334 333 334 331 334 332 336 334 336 334 335 334 334 332 333 331 334 332 332 332 333 332 332 332 332 330 331 331 330 330 332 334 336 337 338 338 337 337 334 333 331 329 329 329 329 329 330 331 0 0 0 0 0
    0 0 0 0 0 0 0 0 0 0 0 0 0 0 0 0 0 0 0 0 0 0 0 0 0 0 0 0 0 0 0 0 0 0 0 0 0 0 0 0 0 0 0 0 0 0 0 0 0 0 0 0 0 0 0 0 0 0 0 0 0 0 0 0 0 0 0 0 0 349 349 349 350 349 348 348 348 348 348 348 348 348 -193 348 -193 -193 -209 -209 -193 -193 -193 346 -209 -193 345 344 343 343 342 340 339 341 341 343 343 343 343 343 -209 -193 346 -193 -209 -193 -193 -209 -193 -209 346 347 346 345 348 343 343 343 343 342 342 343 343 340 344 345 345 344 345 344 345 345 344 343 343 343 343 343 343 343 342 343 343 343 342 342 342 342 341 341 341 341 341 340 340 338 339 339 339 339 338 340 340 341 342 342 342 341 342 341 342 341 341 339 340 338 339 338 337 337 339 339 340 339 342 343 343 343 344 344 343 344 344 343 343 342 341 341 341 341 340 339 339 337 338 338 336 334 334 333 334 332 334 334 335 336 336 337 337 337 339 340 340 341 340 340 340 341 340 339 338 337 337 336 338 337 337 337 338 337 339 338 339 339 338 336 335 335 335 336 335 334 333 334 333 335 333 333 332 333 332 333 331 333 332 334 333 334 333 335 333 334 333 333 332 334 332 332 332 333 332 332 332 332 331 332 332 331 331 333 334 336 336 338 337 336 336 333 332 330 329 329 329 329 329 330 331 0 0 0 0 0
    0 0 0 0 0 0 0 0 0 0 0 0 0 0 0 0 0 0 0 0 0 0 0 0 0 0 0 0 0 0 0 0 0 0 0 0 0 0 0 0 0 0 0 0 0 0 0 0 0 0 0 0 0 0 0 0 0 0 0 0 0 0 0 0 0 0 0 0 0 348 348 349 349 348 348 348 348 348 349 349 348 349 348 349 347 -193 -193 -193 -193 347 -193 346 -209 346 346 345 343 342 341 340 338 341 341 343 343 343 343 343 -209 345 346 347 -209 -193 -193 -193 -209 -209 347 347 346 345 347 343 342 343 342 342 342 342 342 340 344 344 344 344 345 344 345 345 343 342 342 343 343 343 343 342 342 343 343 342 342 342 342 341 341 341 340 341 340 340 339 338 339 340 340 340 339 341 340 341 342 342 342 341 342 341 342 341 341 340 341 339 340 339 338 338 340 340 340 340 342 343 343 343 -193 343 343 343 343 342 342 341 341 341 341 341 340 339 339 338 338 338 336 335 333 333 334 333 335 335 335 336 337 338 338 338 339 340 340 341 341 340 340 340 340 339 338 337 337 336 338 337 338 337 338 337 338 338 339 338 337 335 335 335 335 335 334 333 332 333 332 333 332 331 331 332 331 333 331 333 333 334 334 334 334 335 334 334 333 333 332 334 332 332 332 333 333 333 332 333 331 332 333 331 331 332 334 334 336 338 337 335 334 331 330 329 329 328 328 329 329 330 330 0 0 0 0 0
    0 0 0 0 0 0 0 0 0 0 0 0 0 0 0 0 0 0 0 0 0 0 0 0 0 0 0 0 0 0 0 0 0 0 0 0 0 0 0 0 0 0 0 0 0 0 0 0 0 0 0 0 0 0 0 0 0 0 0 0 0 0 0 0 0 0 0 0 0 345 346 346 347 347 347 347 347 348 348 349 349 350 349 350 349 348 -209 350 -193 348 348 347 -193 348 347 346 345 344 343 342 340 342 341 343 343 343 343 344 -193 346 -193 -193 -193 -209 347 -193 -193 -209 347 346 345 344 347 343 342 343 343 342 342 342 342 339 344 344 343 342 343 343 343 344 342 341 341 342 342 342 342 342 341 342 343 342 342 342 342 341 341 341 341 341 340 340 340 338 340 340 340 340 340 342 341 342 343 343 343 342 342 342 342 341 341 340 341 340 340 339 338 337 339 339 339 338 341 342 342 343 -193 343 342 343 343 342 342 341 341 341 341 341 340 339 339 338 338 338 336 335 333 333 334 333 335 336 336 336 338 338 339 339 339 340 341 341 341 340 340 340 340 339 338 337 337 336 338 337 338 337 338 337 338 337 338 337 336 334 334 334 334 333 333 332 331 332 331 332 331 331 330 331 331 333 332 334 334 334 334 334 334 335 334 335 333 334 333 335 333 333 333 334 333 333 333 333 331 333 333 331 331 332 334 330 334 337 335 334 -193 -193 328 328 329 328 328 329 329 331 330 0 0 0 0 0
    0 0 0 0 0 0 0 0 0 0 0 0 0 0 0 0 0 0 0 0 0 0 0 0 0 0 0 0 0 0 0 0 0 0 0 0 0 0 0 0 0 0 0 0 0 0 0 0 0 0 0 0 0 0 0 0 0 0 0 0 0 0 0 0 0 0 0 0 0 343 344 345 345 345 345 345 346 347 347 348 348 349 349 349 -193 349 -193 351 -193 349 349 348 348 348 348 346 345 345 344 343 342 343 342 343 343 343 344 343 -193 345 -193 -193 -193 -209 346 -209 -193 -193 347 345 345 345 347 343 343 343 343 342 342 342 342 339 344 344 343 341 342 342 342 342 341 340 340 341 341 342 342 342 341 342 343 342 342 342 342 341 340 340 341 340 340 339 340 338 340 340 341 341 340 342 342 343 343 343 343 342 342 342 342 341 340 340 341 339 339 338 337 337 338 338 338 336 340 340 341 341 -193 342 341 342 342 342 342 341 341 341 341 342 340 339 339 338 338 338 336 335 333 333 334 333 335 337 337 337 339 339 340 340 340 341 341 341 341 340 340 340 340 340 338 337 337 336 338 337 338 338 338 337 338 337 338 335 334 333 333 333 333 332 332 331 331 332 332 332 331 331 331 331 331 333 332 333 333 333 334 334 334 335 333 335 333 334 334 336 334 334 334 335 334 334 333 333 331 333 333 331 331 330 329 327 -193 -193 332 332 -209 328 -193 -193 329 329 328 329 330 331 330 0 0 0 0 0
    0 0 0 0 0 0 0 0 0 0 0 0 0 0 0 0 0 0 0 0 0 0 0 0 0 0 0 0 0 0 0 0 0 0 0 0 0 0 0 0 0 0 0 0 0 0 0 0 0 0 0 0 0 0 0 0 0 0 0 0 0 0 0 0 0 0 0 0 0 343 342 344 345 345 345 345 346 347 347 348 348 349 -193 350 -193 -193 -193 352 -193 350 350 349 348 348 348 346 345 345 344 343 342 343 342 343 343 343 343 343 344 345 -209 -193 -209 -209 346 -209 -193 -193 347 345 345 345 347 343 343 343 343 342 342 343 342 339 344 343 342 341 341 341 341 341 340 339 339 341 341 342 342 342 342 342 343 342 342 342 342 341 340 340 340 340 340 338 339 338 340 341 341 341 341 342 342 343 343 343 342 342 342 342 342 340 340 339 341 340 339 338 336 337 337 338 337 335 338 338 340 340 -193 341 341 341 341 341 342 341 342 342 341 342 340 339 339 338 338 337 336 336 333 333 334 333 336 337 337 336 339 339 340 340 340 340 341 341 341 340 340 340 340 340 338 337 337 336 337 338 338 337 337 336 337 336 337 333 333 332 332 332 332 331 331 331 331 331 332 332 332 331 331 331 331 333 332 333 333 333 333 333 333 334 333 334 333 333 334 336 334 334 335 335 334 334 334 333 331 333 333 331 331 330 328 326 -193 -193 329 329 -193 328 328 329 330 330 329 330 331 331 330 0 0 0 0 0
    0 0 0 0 0 0 0 0 0 0 0 0 0 0 0 0 0 0 0 0 0 0 0 0 0 0 0 0 0 0 0 0 0 0 0 0 0 0 0 0 0 0 0 0 0 0 0 0 0 0 0 0 0 0 0 0 0 0 0 0 0 0 0 0 0 0 0 0 0 343 342 344 345 345 345 345 346 346 347 348 347 348 -209 -193 -193 -193 -193 353 351 351 351 350 349 349 348 346 345 345 344 343 342 344 342 343 343 343 344 -193 -193 -209 -209 -209 -209 -193 345 -209 347 348 347 346 345 345 347 343 343 343 343 342 342 342 342 338 343 342 340 339 340 340 340 340 340 339 339 341 341 341 341 342 341 341 342 342 342 342 341 341 340 340 340 340 339 338 339 338 340 340 342 341 341 342 343 343 344 343 342 342 341 342 341 340 339 338 340 339 339 337 336 337 336 338 336 335 338 337 339 339 -193 341 340 341 341 341 341 341 342 342 342 343 341 340 340 339 338 338 337 336 333 333 334 333 335 337 336 336 339 339 340 340 339 340 340 340 341 339 340 339 340 340 339 337 338 336 337 338 338 336 336 336 336 335 336 333 332 331 331 331 331 331 330 330 330 331 331 332 331 331 331 331 331 332 331 332 333 332 333 332 332 334 332 333 332 332 334 336 334 334 336 335 335 334 334 333 331 333 333 331 331 330 328 326 -193 329 328 328 -193 329 329 330 331 331 331 331 331 331 330 0 0 0 0 0
    0 0 0 0 0 0 0 0 0 0 0 0 0 0 0 0 0 0 0 0 0 0 0 0 0 0 0 0 0 0 0 0 0 0 0 0 0 0 0 0 0 0 0 0 0 0 0 0 0 0 0 0 0 0 0 0 0 0 0 0 0 0 0 0 0 0 0 0 0 343 342 344 344 345 345 345 346 346 347 347 347 -193 -209 -193 -193 554 -193 355 353 353 353 351 350 350 349 347 346 346 345 344 343 345 343 344 343 -193 -193 -193 -193 -193 -209 -209 -209 -193 345 -209 346 347 347 346 346 345 347 343 343 343 343 342 342 342 341 337 342 341 339 338 339 339 339 339 340 339 339 341 341 342 342 342 341 341 342 342 343 342 341 341 341 341 341 340 340 338 339 338 340 340 341 341 341 342 343 343 344 343 342 341 341 342 341 339 338 336 340 337 338 335 335 337 336 337 336 335 338 337 338 338 339 340 339 340 339 339 340 341 342 341 341 343 341 341 340 340 338 338 337 337 334 333 335 333 335 337 337 336 339 339 340 340 339 340 341 340 341 340 340 340 341 341 339 338 339 336 337 338 337 336 336 335 336 335 335 332 332 331 331 331 331 330 330 329 330 331 331 331 331 331 331 331 331 332 331 332 333 332 333 332 332 333 332 332 332 332 333 335 334 334 336 335 335 334 333 333 331 332 332 330 331 330 329 -193 331 330 329 328 -193 330 329 330 331 330 330 331 331 331 329 0 0 0 0 0
    0 0 0 0 0 0 0 0 0 0 0 0 0 0 0 0 0 0 0 0 0 0 0 0 0 0 0 0 0 0 0 0 0 0 0 0 0 0 0 0 0 0 0 0 0 0 0 0 0 0 0 0 0 0 0 0 0 0 0 0 0 0 0 0 0 0 0 0 0 343 342 343 344 345 345 345 346 347 347 347 347 -193 -193 -193 -193 -193 -193 356 354 354 354 352 351 350 349 347 346 346 345 345 344 346 344 345 344 -193 -193 -193 -193 -193 -209 -193 345 346 345 346 346 347 346 345 346 345 347 343 343 343 343 343 342 342 341 336 342 341 339 338 338 338 339 339 339 338 339 340 340 341 341 341 341 341 342 342 -193 -193 342 342 342 341 342 341 340 338 340 338 340 340 341 341 341 342 342 343 343 342 341 341 341 342 342 341 340 338 340 339 339 336 336 337 336 337 336 335 338 337 338 338 338 339 338 339 338 338 338 339 340 340 340 342 342 341 340 340 338 338 337 338 334 333 335 334 335 337 338 336 339 339 340 340 340 340 341 341 342 341 340 340 341 342 340 339 339 336 337 338 337 336 336 335 336 335 335 332 331 331 331 331 331 330 330 329 331 331 331 331 331 331 331 331 332 332 332 333 334 332 333 332 332 333 331 331 331 330 333 334 333 334 336 335 334 334 333 332 331 332 333 330 331 331 332 329 333 332 331 330 330 331 329 329 330 329 329 330 330 330 327 0 0 0 0 0
    0 0 0 0 0 0 0 0 0 0 0 0 0 0 0 0 0 0 0 0 0 0 0 0 0 0 0 0 0 0 0 0 0 0 0 0 0 0 0 0 0 0 0 0 0 0 0 0 0 0 0 0 0 0 0 0 0 0 0 0 0 0 0 0 0 0 0 0 0 343 342 344 345 345 346 346 346 347 347 348 348 348 348 -193 -209 -193 -193 356 355 354 354 353 351 351 349 347 346 346 346 345 345 346 345 346 -193 -193 -193 -193 -193 346 -209 346 346 347 346 -193 346 347 346 345 345 345 346 343 343 343 343 343 342 342 342 336 342 341 339 338 338 338 338 338 339 337 338 339 339 341 341 341 340 341 342 342 -193 -193 342 342 343 342 342 341 341 339 340 339 341 342 342 343 342 342 343 343 344 342 341 341 341 342 342 341 340 339 340 340 339 336 336 338 336 337 337 336 339 338 339 339 338 339 338 338 338 336 337 338 339 340 339 342 341 341 340 341 339 339 338 339 335 333 336 334 335 337 337 336 339 339 341 340 340 341 341 341 342 341 340 340 341 342 340 339 340 336 337 338 336 335 336 335 336 334 334 332 331 331 331 331 331 330 330 330 331 331 331 331 331 331 331 331 332 333 333 334 335 333 333 332 332 332 331 331 330 330 -193 334 333 333 336 335 334 333 333 332 331 332 332 330 331 332 334 331 334 334 332 331 331 331 328 328 329 328 328 329 328 328 324 0 0 0 0 0
    0 0 0 0 0 0 0 0 0 0 0 0 0 0 0 0 0 0 0 0 0 0 0 0 0 0 0 0 0 0 0 0 0 0 0 0 0 0 0 0 0 0 0 0 0 0 0 0 0 0 0 0 0 0 0 0 0 0 0 0 0 0 0 0 0 0 0 0 0 344 343 344 345 345 345 346 346 347 347 348 348 348 -193 -209 -209 -193 -193 356 355 355 355 354 352 351 349 348 347 347 346 346 345 346 345 -193 -193 915 913 -193 -193 -193 -209 -209 -193 -193 344 -193 345 346 345 345 345 345 346 343 343 343 343 343 343 342 342 336 342 341 339 338 338 338 338 338 338 337 338 339 339 340 340 340 339 340 341 342 -193 -193 342 -193 -193 343 343 342 341 340 341 340 341 342 343 343 343 343 343 343 344 342 340 341 340 342 341 339 340 338 339 339 338 336 335 337 336 336 336 336 339 338 339 339 338 339 338 339 338 336 336 338 339 340 339 342 341 341 341 341 339 339 338 339 334 332 335 333 334 336 336 335 339 340 341 340 340 341 341 340 341 341 340 340 341 342 340 340 340 336 335 337 336 334 335 334 335 334 334 332 332 331 331 331 331 330 330 330 331 331 332 332 332 332 332 332 333 333 333 334 335 333 333 332 332 332 330 330 330 330 -193 334 334 334 336 335 334 333 333 332 331 332 332 330 331 332 335 332 335 335 333 332 332 331 328 328 329 328 328 328 328 328 325 0 0 0 0 0
    0 0 0 0 0 0 0 0 0 0 0 0 0 0 0 0 0 0 0 0 0 0 0 0 0 0 0 0 0 0 0 0 0 0 0 0 0 0 0 0 0 0 0 0 0 0 0 0 0 0 0 0 0 0 0 0 0 0 0 0 0 0 0 0 0 0 0 0 0 345 344 345 345 345 345 -193 346 347 347 348 348 347 -193 -193 -209 -209 -193 356 355 355 355 354 353 351 349 348 347 347 346 345 344 345 344 -193 -193 916 914 -193 -193 -209 -209 -209 344 343 343 343 344 344 344 344 345 345 346 344 343 343 343 344 344 343 342 337 342 341 340 339 338 339 339 338 339 338 339 339 339 340 339 340 338 339 340 342 -193 -193 342 -193 -193 343 343 342 341 341 341 341 341 342 343 343 342 342 343 342 343 341 339 341 339 341 340 338 339 338 338 338 337 336 336 336 336 336 336 337 339 339 339 339 339 340 338 339 338 335 336 338 339 340 339 342 341 340 340 340 339 339 338 339 334 333 335 333 333 335 334 334 339 339 341 340 340 340 340 340 341 341 340 340 341 342 341 340 339 336 335 336 334 333 334 333 334 334 334 332 332 331 331 331 331 331 331 330 331 332 332 332 332 332 333 332 333 333 333 333 334 332 332 330 330 331 329 329 329 329 -193 335 334 335 337 335 334 333 333 332 330 331 332 330 331 333 336 333 336 336 334 333 333 332 329 328 329 327 327 328 328 327 325 0 0 0 0 0
    0 0 0 0 0 0 0 0 0 0 0 0 0 0 0 0 0 0 0 0 0 0 0 0 0 0 0 0 0 0 0 0 0 0 0 0 0 0 0 0 0 0 0 0 0 0 0 0 0 0 0 0 0 0 0 0 0 0 0 0 0 0 0 0 0 0 0 0 0 346 345 346 346 346 346 346 346 347 347 348 347 347 -193 -193 -193 -193 356 355 354 355 355 354 352 351 349 347 347 346 345 344 343 344 343 -193 -193 916 -193 -209 -209 -209 -209 343 343 342 342 341 343 343 343 343 344 344 345 343 343 343 343 344 344 342 342 338 342 341 340 339 339 339 339 339 339 338 339 339 338 339 339 339 338 339 339 342 -193 -193 342 -193 343 343 343 342 341 341 341 340 341 341 342 342 341 341 342 341 343 340 338 340 338 340 340 337 339 338 338 338 338 337 337 337 337 337 337 338 340 339 340 -193 -193 -193 339 339 339 -193 336 338 340 340 339 342 341 340 340 340 339 339 338 338 334 332 334 333 333 334 333 333 337 339 341 340 340 340 341 340 341 341 340 340 340 341 340 339 339 336 336 336 334 334 334 333 334 334 333 332 332 332 331 331 331 331 331 331 332 332 332 333 333 332 333 333 334 333 333 331 333 332 331 329 329 329 328 328 328 327 -193 335 334 334 337 335 334 333 333 332 330 332 332 330 331 334 336 333 336 336 334 333 334 332 329 328 328 326 327 328 327 327 325 0 0 0 0 0
    0 0 0 0 0 0 0 0 0 0 0 0 0 0 0 0 0 0 0 0 0 0 0 0 0 0 0 0 0 0 0 0 0 0 0 0 0 0 0 0 0 0 0 0 0 0 0 0 0 0 0 0 0 0 0 0 0 0 0 0 0 0 0 0 0 0 0 0 0 346 345 346 346 346 346 -193 346 347 347 348 348 348 -193 -193 -193 -193 356 356 355 355 355 354 352 350 348 347 346 346 344 343 342 343 343 -193 -193 -193 -209 -209 -193 -209 -209 -193 -193 341 341 340 341 342 342 342 343 343 344 343 342 342 342 344 344 342 342 339 342 341 341 340 340 340 340 339 340 338 339 339 339 337 338 337 336 338 338 341 342 342 342 342 344 343 343 342 341 342 341 340 340 340 341 342 341 341 341 341 343 339 337 340 337 340 340 338 339 338 339 338 338 338 337 336 337 337 338 339 341 341 -193 -193 -193 -193 -193 341 -193 -193 337 340 341 341 340 342 341 340 340 340 338 338 337 337 332 331 332 -193 331 332 331 332 336 339 341 341 341 341 341 341 342 341 340 340 340 340 340 339 339 337 337 337 335 334 335 333 334 334 332 332 331 331 331 331 331 331 331 331 331 332 332 333 333 333 332 332 333 332 333 332 335 332 332 329 329 -193 -193 327 327 326 -193 335 333 334 337 335 334 333 333 332 330 332 332 330 332 334 336 334 335 335 333 333 333 331 329 327 327 326 326 327 326 325 325 0 0 0 0 0
    0 0 0 0 0 0 0 0 0 0 0 0 0 0 0 0 0 0 0 0 0 0 0 0 0 0 0 0 0 0 0 0 0 0 0 0 0 0 0 0 0 0 0 0 0 0 0 0 0 0 0 0 0 0 0 0 0 0 0 0 0 0 0 0 0 0 0 0 0 346 345 345 345 346 345 -193 345 346 346 347 348 348 -193 -193 349 354 355 356 354 354 355 354 351 350 348 347 346 346 345 343 342 -193 343 -193 -193 -193 -193 -193 346 -209 -209 -193 342 340 340 339 340 341 340 341 342 343 343 342 341 341 341 343 343 342 342 340 343 342 342 341 341 341 341 340 340 339 340 340 340 338 338 336 336 338 339 341 342 343 342 343 345 344 344 343 342 343 341 341 340 340 340 342 341 341 340 342 343 339 336 340 335 339 340 338 339 339 339 338 338 338 337 336 338 337 339 340 341 342 -193 -193 -193 -193 -193 341 -193 -193 337 341 340 340 340 342 340 340 340 339 338 338 337 337 331 330 -193 -193 330 331 330 332 335 338 340 340 340 340 341 340 341 341 339 340 340 340 341 340 340 339 338 338 337 335 336 333 335 -193 -193 332 332 332 332 331 331 331 331 331 332 333 333 333 333 333 333 333 335 333 334 333 337 334 333 330 330 -209 -209 -193 328 326 -193 336 334 334 338 334 333 333 333 332 330 331 332 329 331 334 336 333 335 335 333 333 334 331 328 326 327 326 326 326 325 322 324 0 0 0 0 0
    0 0 0 0 0 0 0 0 0 0 0 0 0 0 0 0 0 0 0 0 0 0 0 0 0 0 0 0 0 0 0 0 0 0 0 0 0 0 0 0 0 0 0 0 0 0 0 0 0 0 0 0 0 0 0 0 0 0 0 0 0 0 0 0 0 0 0 0 0 344 344 344 344 344 343 -209 -193 -193 -193 -193 347 -193 -193 349 349 353 354 354 353 353 353 353 351 349 347 347 345 345 343 343 341 343 343 -193 -193 345 345 -193 346 -193 -209 -193 341 -193 339 337 339 340 339 340 341 342 343 342 341 340 341 343 343 343 343 341 343 343 343 341 341 341 341 340 341 339 341 340 341 339 339 338 338 339 339 341 341 342 342 343 344 344 344 343 342 343 342 341 340 341 340 342 341 341 340 341 342 337 336 340 335 339 340 339 340 339 340 339 339 339 338 337 338 337 339 341 341 342 341 -193 -193 -193 -193 -193 -193 -193 338 342 340 340 340 342 340 340 339 339 338 338 337 336 329 328 -193 -193 -193 330 330 332 336 338 339 339 339 340 340 340 340 341 339 340 340 340 341 340 340 340 338 339 337 337 336 332 -193 -193 -193 332 332 332 332 332 332 333 333 333 333 334 334 334 334 334 333 333 334 335 335 -193 337 335 334 331 332 -193 -209 330 330 329 -193 338 335 335 338 335 333 333 333 333 330 331 331 329 331 335 336 333 334 334 333 333 334 330 327 326 326 326 326 325 325 322 324 0 0 0 0 0
    0 0 0 0 0 0 0 0 0 0 0 0 0 0 0 0 0 0 0 0 0 0 0 0 0 0 0 0 0 0 0 0 0 0 0 0 0 0 0 0 0 0 0 0 0 0 0 0 0 0 0 0 0 0 0 0 0 0 0 0 0 0 0 0 0 0 0 0 0 344 344 344 344 345 344 344 343 -193 -209 -193 -193 347 347 349 349 352 352 352 351 352 352 351 349 347 346 346 344 343 342 342 341 342 343 343 -193 344 -193 -193 346 -193 -193 -193 341 -193 339 336 338 339 339 340 341 342 343 341 341 340 341 343 344 343 343 342 344 343 343 342 342 341 341 341 341 340 341 341 341 339 339 337 338 339 338 339 340 340 341 342 344 344 344 344 343 344 343 342 341 342 341 343 342 342 341 342 342 337 335 340 335 339 340 339 340 340 340 340 339 340 339 337 339 338 340 341 342 342 341 -193 -193 -193 -193 -193 -193 -209 -193 342 340 340 341 342 339 339 338 338 337 338 337 334 326 327 -193 -209 -209 329 330 333 335 337 338 338 338 339 339 339 339 339 337 337 338 339 339 339 339 340 337 338 337 337 -193 -193 -193 -193 -193 -193 332 331 332 332 332 333 334 334 334 335 335 334 334 334 333 333 334 336 336 -193 336 335 334 332 333 -193 -193 331 332 331 332 340 336 336 339 335 334 333 333 333 330 331 331 327 331 335 335 332 332 333 333 333 333 329 327 326 325 326 325 325 324 321 324 0 0 0 0 0
    0 0 0 0 0 0 0 0 0 0 0 0 0 0 0 0 0 0 0 0 0 0 0 0 0 0 0 0 0 0 0 0 0 0 0 0 0 0 0 0 0 0 0 0 0 0 0 0 0 0 0 0 0 0 0 0 0 0 0 0 0 0 0 0 0 0 0 0 0 344 344 344 345 346 345 346 -193 -193 -193 -193 -193 -193 346 347 347 349 349 350 349 350 350 349 347 346 -193 -193 343 342 341 341 340 341 342 342 343 344 -193 -193 -193 -209 -193 -193 340 -193 338 337 338 339 339 340 341 342 343 342 341 340 341 343 344 343 343 342 344 344 344 343 343 342 342 341 341 340 342 341 341 340 339 337 338 338 338 338 338 339 340 342 344 344 344 344 344 345 343 343 341 342 341 343 341 342 341 341 342 339 337 340 336 338 340 338 340 340 340 340 339 340 339 338 340 339 341 342 342 342 342 343 343 343 -193 -193 -193 -209 -193 342 340 340 341 341 339 338 338 337 337 337 337 334 328 -193 330 -193 -193 331 331 334 336 338 339 338 337 338 337 338 337 336 335 334 335 336 337 338 337 339 336 336 337 336 -193 -193 -193 -193 -193 -193 332 332 333 333 332 333 333 333 333 334 334 333 334 334 333 333 334 336 335 333 335 334 335 333 335 -193 -193 333 334 333 334 341 337 336 339 335 334 334 334 334 330 331 331 327 331 335 335 331 331 332 332 333 333 328 327 326 325 326 325 324 324 320 324 0 0 0 0 0
    0 0 0 0 0 0 0 0 0 0 0 0 0 0 0 0 0 0 0 0 0 0 0 0 0 0 0 0 0 0 0 0 0 0 0 0 0 0 0 0 0 0 0 0 0 0 0 0 0 0 0 0 0 0 0 0 0 0 0 0 0 0 0 0 0 0 0 0 0 343 344 344 345 346 345 346 -193 -193 -193 -209 346 346 346 346 346 348 348 348 349 350 349 349 -193 -193 -193 -193 343 342 340 341 340 341 342 343 343 -193 -193 346 -193 -209 -209 -209 340 -209 338 337 338 339 339 340 342 342 343 342 341 341 341 343 344 343 343 342 344 343 344 343 342 341 342 341 341 340 342 341 341 340 340 337 339 339 338 338 338 339 340 342 344 344 344 344 344 345 343 342 340 341 341 342 341 342 341 342 343 341 339 340 336 338 339 337 339 339 340 340 340 340 339 339 341 340 341 342 342 342 342 343 343 343 343 342 -193 -209 -193 341 340 340 340 341 338 338 337 337 336 336 335 333 328 328 329 -193 330 331 330 334 336 339 339 338 336 337 336 337 335 335 333 333 334 335 336 337 336 338 336 336 337 337 -193 -193 -193 -193 -193 -193 332 331 332 332 331 332 332 332 331 332 332 331 332 332 331 331 332 334 333 333 335 334 335 -193 -193 -193 -193 335 335 336 336 341 338 337 340 337 335 335 335 334 331 332 332 329 332 335 334 331 331 332 332 332 331 327 326 325 325 325 324 323 322 318 322 0 0 0 0 0
    0 0 0 0 0 0 0 0 0 0 0 0 0 0 0 0 0 0 0 0 0 0 0 0 0 0 0 0 0 0 0 0 0 0 0 0 0 0 0 0 0 0 0 0 0 0 0 0 0 0 0 0 0 0 0 0 0 0 0 0 0 0 0 0 0 0 0 0 0 342 343 343 343 345 346 346 345 346 -193 -193 347 347 346 346 346 346 346 347 348 349 349 348 -193 -193 -193 -193 342 342 340 341 339 341 342 343 343 -193 -193 347 -193 -193 -209 -193 -193 -193 339 338 339 339 339 340 342 342 343 342 341 341 341 343 344 342 342 341 343 343 343 342 342 341 342 341 341 341 343 342 342 341 341 338 341 340 339 338 338 339 340 341 342 342 342 343 343 344 342 341 339 340 340 342 342 342 341 342 343 341 341 341 338 338 340 338 340 339 340 340 340 340 339 338 340 340 341 342 341 341 342 343 343 -193 343 342 -193 -193 -193 341 340 339 339 340 337 337 337 337 335 335 335 333 328 328 329 -193 329 330 330 333 334 337 338 338 334 337 336 337 336 335 334 334 333 335 336 337 336 338 336 337 337 337 -193 -193 -193 -193 330 -193 -193 331 331 331 331 332 331 332 331 331 331 330 331 331 330 330 331 333 333 333 335 336 336 334 -193 -193 336 336 336 336 336 341 339 338 341 337 336 336 335 336 331 333 332 330 333 336 334 332 331 331 331 331 330 326 325 324 323 324 323 322 321 317 321 0 0 0 0 0
    0 0 0 0 0 0 0 0 0 0 0 0 0 0 0 0 0 0 0 0 0 0 0 0 0 0 0 0 0 0 0 0 0 0 0 0 0 0 0 0 0 0 0 0 0 0 0 0 0 0 0 0 0 0 0 0 0 0 0 0 0 0 0 0 0 0 0 0 0 341 342 341 342 345 346 346 346 346 -193 -193 347 347 346 346 345 -193 344 345 346 347 346 346 -193 -193 -193 -193 342 342 340 341 339 341 342 343 344 -209 -193 -193 -193 -193 -209 -193 -193 -193 340 339 340 340 341 342 343 343 344 342 342 341 341 343 343 342 342 340 343 342 343 342 342 341 342 342 342 341 344 -193 -193 343 343 341 342 341 339 338 337 338 339 340 341 341 340 341 342 342 341 340 338 339 340 342 342 343 342 343 343 341 340 341 338 338 340 339 340 339 341 341 341 341 339 338 339 340 340 341 340 341 341 343 344 344 343 -193 -209 -209 -193 342 341 339 339 341 338 338 338 337 336 336 336 333 329 329 330 -193 330 331 331 333 333 336 337 338 334 337 336 338 336 336 334 334 334 336 336 336 336 338 336 338 338 337 333 -193 332 -193 331 -193 -193 -193 331 332 331 331 330 331 331 330 330 330 330 330 329 329 331 332 333 334 337 339 338 337 341 -193 337 336 336 336 336 341 339 339 341 337 336 336 336 336 332 333 332 330 333 336 333 331 330 330 331 330 329 326 324 324 323 324 323 323 321 318 321 0 0 0 0 0
    0 0 0 0 0 0 0 0 0 0 0 0 0 0 0 0 0 0 0 0 0 0 0 0 0 0 0 0 0 0 0 0 0 0 0 0 0 0 0 0 0 0 0 0 0 0 0 0 0 0 0 0 0 0 0 0 0 0 0 0 0 0 0 0 0 0 0 0 0 342 342 341 343 346 347 347 347 347 347 348 348 348 346 346 345 344 342 342 344 -193 343 344 342 342 -193 -193 342 342 340 341 339 341 341 343 344 -209 -209 -209 -193 -209 -209 -193 -193 -193 342 342 342 342 343 344 345 345 345 343 343 342 341 343 343 342 341 340 343 342 343 343 343 342 342 342 343 342 345 -209 344 344 344 -193 343 342 340 338 336 336 337 339 339 340 339 341 341 342 341 340 339 341 341 343 342 343 343 343 343 341 341 342 340 340 341 340 342 341 343 342 343 341 339 338 339 339 340 340 339 340 340 343 344 345 343 -193 -193 -209 342 342 342 339 340 341 338 338 338 338 338 337 338 335 331 332 331 330 331 332 330 332 332 333 334 334 332 336 335 337 336 336 334 334 334 336 335 336 335 337 335 338 337 336 332 333 332 -193 -193 -193 -193 -193 331 332 331 331 330 331 331 330 330 330 330 330 330 330 331 333 333 335 337 339 339 338 341 339 339 338 337 337 337 341 340 339 341 337 336 336 336 336 332 332 332 330 332 333 331 330 329 330 330 330 328 325 325 325 324 324 324 323 322 320 321 0 0 0 0 0
    0 0 0 0 0 0 0 0 0 0 0 0 0 0 0 0 0 0 0 0 0 0 0 0 0 0 0 0 0 0 0 0 0 0 0 0 0 0 0 0 0 0 0 0 0 0 0 0 0 0 0 0 0 0 0 0 0 0 0 0 0 0 0 0 0 0 0 0 0 343 344 345 346 348 349 348 348 348 349 348 348 347 345 345 344 343 341 341 343 343 343 344 342 342 -193 -193 343 342 341 341 339 341 340 343 343 -209 -193 -209 -193 -193 -193 -209 -193 343 343 343 344 344 344 345 346 346 346 343 343 342 342 343 343 342 341 340 343 342 343 343 343 342 342 343 343 343 346 -209 -193 345 345 345 345 344 342 340 338 338 339 340 340 341 341 341 342 342 342 341 341 342 342 342 341 342 343 342 343 341 340 341 341 341 342 341 343 342 344 343 344 341 339 338 338 338 339 338 337 338 340 342 343 344 342 343 343 343 342 341 341 338 339 341 338 338 339 339 339 338 340 338 333 336 334 333 333 333 331 332 331 331 332 332 330 333 333 335 335 335 335 334 335 337 336 337 334 336 334 336 335 334 332 332 331 332 -193 -193 -193 -193 331 332 331 331 330 332 331 330 331 331 330 330 330 331 332 333 333 -193 334 337 337 337 341 338 339 338 338 338 338 341 340 339 341 337 336 336 336 335 332 332 331 330 331 331 330 330 329 330 330 329 327 325 325 325 324 324 324 323 323 321 322 0 0 0 0 0</data></disparity>
</opencv_storage>
