<?xml version="1.0"?>
<opencv_storage>
<gps_time_stamp>40323</gps_time_stamp>
<gps_x>-1.4084945678710938e+001</gps_x>
<gps_y>1.5150818824768066e+000</gps_y>
<gps_z>-4.2976903915405273e+000</gps_z>
<image_time_stamp>28268</image_time_stamp>
<disparity type_id="opencv-matrix">
  <rows>95</rows>
  <cols>320</cols>
  <dt>s</dt>
  <data>
    0 0 0 0 0 0 0 0 0 0 0 0 0 0 0 0 0 0 0 0 0 0 0 0 0 0 0 0 0 0 0 0 0 0 0 0 0 0 0 0 0 0 0 0 0 0 0 0 0 0 0 0 0 0 0 0 0 0 0 0 0 0 0 0 0 0 0 0 0 9 9 10 10 10 10 10 9 9 9 10 8 0 0 0 0 0 0 8 9 10 11 11 12 14 15 14 21 12 11 11 11 11 11 11 12 0 0 0 0 0 0 0 0 9 10 10 9 9 9 9 11 14 0 0 0 0 0 0 9 0 0 0 0 10 10 10 15 12 13 12 11 11 11 11 11 0 0 0 0 0 10 0 9 9 9 9 0 0 0 0 0 0 0 0 0 0 0 -193 -193 -225 -225 21 20 15 19 15 17 13 11 11 10 10 11 9 9 0 9 11 9 9 0 -209 12 13 0 0 0 0 -193 0 0 0 0 0 0 0 10 0 10 10 9 11 11 11 10 0 9 -209 10 11 12 12 10 10 11 11 9 12 10 0 0 10 0 0 0 9 13 12 12 13 12 13 14 14 14 13 15 18 18 18 18 19 18 19 19 19 18 18 19 20 18 20 20 20 21 21 21 20 20 20 22 21 21 21 21 21 23 24 23 21 25 28 27 27 25 27 25 25 27 27 26 27 27 27 26 27 27 27 26 28 27 27 26 28 28 30 29 31 29 32 31 31 30 31 29 0 0 0 0 0
    0 0 0 0 0 0 0 0 0 0 0 0 0 0 0 0 0 0 0 0 0 0 0 0 0 0 0 0 0 0 0 0 0 0 0 0 0 0 0 0 0 0 0 0 0 0 0 0 0 0 0 0 0 0 0 0 0 0 0 0 0 0 0 0 0 0 0 0 0 9 9 10 9 10 9 10 0 9 9 9 0 0 0 0 0 0 0 9 8 10 10 11 12 12 13 12 19 10 9 9 9 9 10 10 11 0 0 0 0 0 0 0 0 9 10 10 10 9 10 9 11 14 0 0 0 0 0 0 0 0 0 0 0 -193 9 9 14 12 13 12 11 11 10 11 11 0 0 0 0 8 11 0 10 10 10 10 9 9 0 0 0 0 0 0 0 0 -193 -209 -193 21 -225 21 19 14 18 15 17 13 11 -193 10 10 10 9 -193 0 9 10 9 10 9 -193 12 13 0 0 0 0 -193 0 0 0 0 0 0 0 9 0 10 10 10 11 12 12 11 0 9 -209 10 11 11 13 10 10 11 11 9 12 10 9 0 11 9 0 9 11 13 12 13 13 12 13 14 14 14 13 16 17 18 18 17 20 18 19 19 18 18 19 19 20 18 20 20 20 21 21 21 20 20 20 22 21 20 21 21 21 23 23 23 21 25 27 27 27 24 27 26 26 27 26 25 26 27 27 26 26 26 26 26 28 27 26 26 28 28 29 29 30 29 31 31 31 30 31 30 0 0 0 0 0
    0 0 0 0 0 0 0 0 0 0 0 0 0 0 0 0 0 0 0 0 0 0 0 0 0 0 0 0 0 0 0 0 0 0 0 0 0 0 0 0 0 0 0 0 0 0 0 0 0 0 0 0 0 0 0 0 0 0 0 0 0 0 0 0 0 0 0 0 0 9 10 11 10 9 9 9 9 9 9 10 9 9 0 0 0 0 0 0 0 0 9 10 11 11 11 10 15 0 0 0 0 0 0 0 9 0 0 0 0 0 0 0 0 0 9 9 9 9 9 9 11 14 0 0 0 0 0 0 0 0 0 0 0 -193 9 9 14 11 12 11 11 10 10 11 11 0 0 0 0 9 11 9 10 11 10 11 10 10 9 0 0 0 0 0 0 0 -193 -209 -193 -193 -225 19 16 12 16 13 15 12 9 10 9 9 10 0 0 0 9 10 9 10 10 22 13 13 0 0 9 0 -193 0 0 0 0 0 0 0 9 0 10 10 10 11 11 11 11 9 10 -193 10 11 11 13 11 11 11 11 9 13 11 10 0 11 9 9 9 13 14 13 14 14 13 14 15 15 14 14 16 17 18 18 17 20 18 19 19 18 19 19 19 20 18 21 20 20 21 21 21 20 20 20 22 21 20 20 21 21 23 23 23 20 24 26 26 26 24 27 26 26 27 26 25 26 27 26 25 26 26 26 26 28 27 26 25 27 27 29 29 30 28 31 31 32 31 32 30 0 0 0 0 0
    0 0 0 0 0 0 0 0 0 0 0 0 0 0 0 0 0 0 0 0 0 0 0 0 0 0 0 0 0 0 0 0 0 0 0 0 0 0 0 0 0 0 0 0 0 0 0 0 0 0 0 0 0 0 0 0 0 0 0 0 0 0 0 0 0 0 0 0 0 9 9 10 9 9 9 9 9 9 9 10 9 9 0 0 0 0 0 0 0 0 0 9 10 10 10 9 11 0 0 0 0 0 0 0 0 0 0 0 0 0 0 0 0 0 9 9 0 0 9 9 11 14 0 0 0 0 0 0 0 0 0 0 0 -193 9 9 13 11 12 11 10 10 10 11 11 0 0 0 0 9 11 9 10 10 10 10 10 10 10 0 0 0 0 0 0 0 0 -209 -209 -193 -209 14 13 11 13 12 14 11 0 0 0 0 9 0 0 0 0 10 9 10 11 21 12 13 9 9 9 0 -193 0 0 0 0 0 0 0 9 0 10 10 10 11 11 11 10 9 10 12 11 11 11 15 11 11 11 12 10 13 11 10 0 10 9 9 9 13 14 13 14 14 14 14 15 15 14 14 16 17 18 17 17 19 17 18 18 19 19 19 19 20 18 20 19 20 20 20 21 19 19 20 22 21 20 20 21 21 23 23 22 19 24 25 25 25 24 26 26 26 27 26 25 26 27 26 25 25 25 25 26 28 27 26 26 27 27 29 30 30 28 30 31 32 32 32 30 0 0 0 0 0
    0 0 0 0 0 0 0 0 0 0 0 0 0 0 0 0 0 0 0 0 0 0 0 0 0 0 0 0 0 0 0 0 0 0 0 0 0 0 0 0 0 0 0 0 0 0 0 0 0 0 0 0 0 0 0 0 0 0 0 0 0 0 0 0 0 0 0 0 0 8 9 9 0 0 0 0 9 9 9 10 9 9 9 0 0 0 0 0 0 0 0 0 9 10 10 0 10 0 0 0 0 0 0 0 0 0 0 0 0 0 0 0 0 0 0 0 0 0 0 9 10 13 0 0 0 0 0 0 0 0 0 0 0 -193 9 0 13 11 12 11 11 10 10 11 11 0 0 0 0 0 11 9 10 10 10 10 10 10 10 0 0 0 0 0 0 0 0 0 -209 -193 -193 -193 -193 -193 -193 12 12 -209 0 0 0 0 0 0 0 0 0 9 9 9 10 20 12 12 10 9 10 9 9 0 0 0 0 0 0 0 9 0 10 10 10 11 11 11 10 9 10 12 10 11 11 15 12 11 11 12 10 13 11 10 0 10 10 10 10 13 14 13 15 15 14 14 15 16 15 15 16 17 17 17 17 19 17 18 18 19 19 19 20 20 18 20 20 20 20 20 21 19 20 20 22 21 20 20 20 20 22 22 21 18 23 24 24 24 24 26 27 27 27 27 26 27 27 26 26 25 26 26 26 28 27 26 26 28 28 29 30 30 29 31 31 32 32 32 30 0 0 0 0 0
    0 0 0 0 0 0 0 0 0 0 0 0 0 0 0 0 0 0 0 0 0 0 0 0 0 0 0 0 0 0 0 0 0 0 0 0 0 0 0 0 0 0 0 0 0 0 0 0 0 0 0 0 0 0 0 0 0 0 0 0 0 0 0 0 0 0 0 0 0 0 9 9 0 0 0 0 9 0 9 10 9 9 9 0 0 0 0 0 0 0 0 0 9 9 9 0 0 0 0 0 0 0 0 0 0 0 0 0 0 0 0 0 0 0 0 0 0 0 0 0 10 12 0 0 0 0 0 0 9 0 0 0 0 -193 9 0 13 10 12 12 11 10 10 11 11 0 0 0 0 0 11 9 10 10 10 10 10 9 10 9 9 0 0 0 0 0 0 0 0 -193 -193 -193 -193 -193 -209 -193 -193 -209 -193 0 0 0 0 0 0 0 0 9 9 0 10 17 11 11 11 10 10 9 10 9 0 0 0 0 0 0 9 0 10 10 10 11 11 11 10 9 10 11 10 10 10 16 12 12 11 11 10 13 12 11 9 11 11 10 10 14 14 13 16 16 15 15 15 16 15 15 16 16 17 16 16 19 17 17 19 19 19 19 20 20 18 20 20 20 20 21 21 20 20 20 22 21 20 20 20 20 22 22 21 18 22 25 25 25 24 26 27 28 28 27 26 27 28 27 27 26 26 26 27 29 28 27 27 28 28 30 30 30 29 31 30 32 31 31 30 0 0 0 0 0
    0 0 0 0 0 0 0 0 0 0 0 0 0 0 0 0 0 0 0 0 0 0 0 0 0 0 0 0 0 0 0 0 0 0 0 0 0 0 0 0 0 0 0 0 0 0 0 0 0 0 0 0 0 0 0 0 0 0 0 0 0 0 0 0 0 0 0 0 0 9 9 9 0 0 0 0 9 0 9 10 9 9 9 0 0 0 0 0 0 0 0 0 0 9 0 0 0 0 0 0 0 0 0 0 0 0 0 0 0 0 0 0 0 0 0 0 0 0 0 0 9 10 0 0 0 0 9 9 10 0 0 0 0 -193 0 0 13 10 11 12 11 10 10 11 12 0 0 0 0 0 12 10 10 10 10 10 10 9 10 9 0 0 0 0 0 0 0 0 0 -193 -193 -193 -193 -193 -209 -209 -193 -193 0 0 0 0 0 0 0 0 0 0 9 0 9 15 10 10 12 10 10 10 10 9 0 9 0 0 0 0 9 0 10 11 10 11 12 11 10 9 11 12 10 10 10 16 12 11 11 11 9 12 13 11 9 11 11 11 11 15 13 13 16 16 15 15 16 16 15 15 16 16 16 16 16 18 16 17 19 19 18 19 19 20 18 20 20 19 19 20 21 20 20 20 22 21 19 19 19 20 21 21 21 18 22 24 24 25 24 26 28 28 29 27 26 27 27 26 27 26 26 26 27 29 28 28 27 28 28 30 30 29 29 30 30 31 31 31 30 0 0 0 0 0
    0 0 0 0 0 0 0 0 0 0 0 0 0 0 0 0 0 0 0 0 0 0 0 0 0 0 0 0 0 0 0 0 0 0 0 0 0 0 0 0 0 0 0 0 0 0 0 0 0 0 0 0 0 0 0 0 0 0 0 0 0 0 0 0 0 0 0 0 0 9 9 10 0 0 0 0 9 0 0 10 9 10 9 9 0 0 0 0 0 0 0 0 0 0 0 0 0 0 0 0 0 0 0 0 0 0 0 0 0 0 0 0 0 0 0 0 0 0 0 0 0 10 0 0 0 0 9 9 10 0 0 0 9 -193 0 0 12 10 11 12 11 10 10 11 11 0 0 0 0 9 12 12 12 12 11 11 10 9 10 9 0 0 0 0 9 0 9 0 0 -209 -209 -193 -209 -193 -209 -209 -193 -193 0 0 0 0 0 0 0 0 0 9 9 0 9 14 9 9 12 10 11 10 10 9 0 9 9 0 0 0 9 0 10 11 10 11 12 11 11 10 11 13 10 10 10 16 12 11 11 11 9 12 13 12 9 11 12 12 12 16 13 12 17 17 15 15 17 16 15 16 17 16 15 17 16 18 16 17 18 18 18 19 19 20 18 20 20 19 19 20 21 20 20 20 22 20 19 19 19 20 21 21 21 19 23 24 24 24 24 26 27 27 28 26 26 27 27 27 27 26 26 26 28 29 28 28 27 27 27 29 30 29 28 30 29 31 31 31 30 0 0 0 0 0
    0 0 0 0 0 0 0 0 0 0 0 0 0 0 0 0 0 0 0 0 0 0 0 0 0 0 0 0 0 0 0 0 0 0 0 0 0 0 0 0 0 0 0 0 0 0 0 0 0 0 0 0 0 0 0 0 0 0 0 0 0 0 0 0 0 0 0 0 0 9 9 9 0 0 0 0 0 0 0 10 9 9 9 9 0 0 9 9 0 0 0 0 0 0 0 0 0 0 0 0 0 0 0 0 0 0 0 0 0 0 0 0 0 0 0 0 0 0 0 0 0 9 0 8 0 0 9 9 10 0 0 0 9 10 0 0 12 10 11 12 11 10 10 11 11 0 0 0 0 8 11 12 11 12 11 11 10 10 10 9 9 9 9 9 10 9 10 0 9 -193 -209 -193 -209 -209 -209 -193 12 -209 0 0 0 0 9 0 0 0 0 9 9 0 9 -193 0 9 13 11 11 11 11 10 9 10 10 0 0 0 9 0 10 11 10 11 11 11 10 10 10 12 9 9 9 16 12 11 11 11 9 12 13 12 9 11 12 13 12 15 12 11 17 17 15 15 17 16 15 17 17 16 15 18 16 18 17 17 18 18 19 19 19 19 17 20 20 20 19 20 21 19 20 20 22 20 19 19 19 19 21 21 21 19 23 24 24 24 24 26 27 27 28 26 27 27 27 27 27 27 27 27 29 30 28 29 28 28 27 29 30 28 28 30 29 31 31 31 30 0 0 0 0 0
    0 0 0 0 0 0 0 0 0 0 0 0 0 0 0 0 0 0 0 0 0 0 0 0 0 0 0 0 0 0 0 0 0 0 0 0 0 0 0 0 0 0 0 0 0 0 0 0 0 0 0 0 0 0 0 0 0 0 0 0 0 0 0 0 0 0 0 0 0 9 9 9 0 0 0 0 0 0 0 10 9 9 9 9 9 0 9 0 0 0 0 0 0 0 0 0 0 0 0 0 0 0 0 0 0 0 0 0 0 0 0 0 0 0 0 0 0 0 0 0 0 9 0 9 0 0 9 10 10 0 0 0 9 10 9 0 12 10 11 12 11 10 10 11 11 0 0 9 0 0 10 11 11 11 10 11 10 10 9 9 9 9 9 10 9 8 -193 -193 0 -193 -209 -209 -209 -209 -209 -193 12 -209 0 0 0 9 9 9 0 0 0 10 9 0 10 -193 0 0 14 11 11 11 12 10 9 10 11 0 0 9 9 0 10 11 11 11 10 10 9 9 9 11 0 0 0 15 12 11 10 10 9 11 13 12 9 11 12 12 12 15 13 12 19 18 15 15 18 17 16 17 17 16 15 18 17 18 17 17 18 18 19 18 18 19 17 20 20 20 19 21 21 20 20 20 22 20 19 19 19 20 20 21 21 19 23 24 24 23 24 25 27 27 27 26 27 27 28 27 27 26 26 27 28 29 28 30 29 29 28 30 31 29 29 30 29 31 31 30 30 0 0 0 0 0
    0 0 0 0 0 0 0 0 0 0 0 0 0 0 0 0 0 0 0 0 0 0 0 0 0 0 0 0 0 0 0 0 0 0 0 0 0 0 0 0 0 0 0 0 0 0 0 0 0 0 0 0 0 0 0 0 0 0 0 0 0 0 0 0 0 0 0 0 0 9 9 9 0 0 0 0 9 0 9 10 9 9 9 9 0 0 0 0 0 0 0 0 0 0 0 0 0 0 0 0 0 0 0 0 0 0 0 0 0 0 0 0 0 0 0 0 0 0 0 0 0 9 0 9 9 9 9 10 10 0 0 0 9 10 9 9 12 10 11 12 11 10 10 11 11 0 9 9 0 0 9 10 10 11 10 10 10 10 9 9 0 0 0 0 0 0 0 0 0 -193 -209 -209 -193 -209 -209 -193 11 -193 0 0 0 9 9 9 9 0 0 11 9 0 10 14 0 0 14 12 12 12 12 11 10 11 12 9 9 9 9 0 10 11 11 10 10 10 9 9 9 11 0 0 0 14 11 10 10 10 9 11 13 11 9 10 11 12 12 13 12 11 18 18 15 15 18 17 16 17 16 15 16 17 17 18 16 17 18 18 19 18 18 19 16 20 20 19 19 21 21 19 19 20 22 19 18 19 19 19 20 21 21 19 23 24 24 23 24 25 27 27 27 27 27 29 29 27 28 27 27 27 27 29 27 29 29 29 28 30 30 29 29 29 28 30 30 30 29 0 0 0 0 0
    0 0 0 0 0 0 0 0 0 0 0 0 0 0 0 0 0 0 0 0 0 0 0 0 0 0 0 0 0 0 0 0 0 0 0 0 0 0 0 0 0 0 0 0 0 0 0 0 0 0 0 0 0 0 0 0 0 0 0 0 0 0 0 0 0 0 0 0 0 0 9 9 0 0 0 0 0 0 0 9 0 0 0 0 0 0 0 0 0 0 0 0 0 0 0 0 0 0 0 0 0 0 0 0 0 0 0 0 0 0 0 0 0 0 0 0 0 0 0 0 0 9 0 9 9 9 9 10 10 0 0 0 9 -193 9 9 12 10 11 12 11 10 10 11 11 0 9 9 0 0 9 10 11 11 11 11 10 10 9 9 0 0 0 0 0 0 0 0 0 0 -193 -193 -193 0 -193 10 11 10 0 0 9 9 10 9 9 9 9 11 9 0 11 -193 0 0 14 12 12 12 12 11 10 11 12 9 9 9 9 0 10 12 11 10 10 10 9 10 9 10 0 0 0 13 10 10 9 10 9 11 12 11 9 10 11 12 11 12 11 10 18 18 14 14 18 16 16 16 17 16 16 18 17 18 16 17 18 18 18 17 18 19 15 20 20 19 19 21 21 19 19 20 22 19 18 18 18 19 20 20 21 19 23 24 24 23 24 25 27 27 27 27 27 29 29 28 28 27 27 27 28 28 27 29 30 30 29 31 30 29 30 29 28 29 30 30 29 0 0 0 0 0
    0 0 0 0 0 0 0 0 0 0 0 0 0 0 0 0 0 0 0 0 0 0 0 0 0 0 0 0 0 0 0 0 0 0 0 0 0 0 0 0 0 0 0 0 0 0 0 0 0 0 0 0 0 0 0 0 0 0 0 0 0 0 0 0 0 0 0 0 0 0 9 9 0 0 0 0 0 0 0 9 0 0 9 9 0 0 9 0 0 0 9 9 9 9 9 9 0 0 0 0 0 0 0 0 0 0 0 0 0 0 0 0 0 0 0 0 0 0 0 0 0 9 0 9 9 9 9 9 9 0 0 0 0 -193 9 9 12 9 10 12 11 10 10 11 10 0 9 10 0 0 10 11 11 12 11 12 11 11 10 10 0 0 9 9 10 -193 0 -193 -193 -193 -193 -193 9 0 10 11 12 11 9 9 9 9 10 9 9 9 0 10 9 0 11 14 0 0 15 12 12 12 12 11 10 11 12 9 9 9 0 0 10 12 11 10 10 10 9 10 9 11 0 0 0 12 10 9 9 9 0 10 12 11 9 10 12 12 11 12 11 10 17 18 14 14 17 16 15 16 17 16 15 18 16 18 16 17 17 17 17 17 18 19 15 20 20 20 20 21 21 18 20 20 22 19 18 18 19 19 20 21 21 19 23 24 24 23 24 25 27 26 26 26 27 29 27 27 27 26 26 27 27 27 27 30 30 29 29 31 30 28 29 29 28 29 29 30 29 0 0 0 0 0
    0 0 0 0 0 0 0 0 0 0 0 0 0 0 0 0 0 0 0 0 0 0 0 0 0 0 0 0 0 0 0 0 0 0 0 0 0 0 0 0 0 0 0 0 0 0 0 0 0 0 0 0 0 0 0 0 0 0 0 0 0 0 0 0 0 0 0 0 0 0 9 9 0 0 0 0 0 0 0 9 9 8 9 9 9 0 9 0 0 0 0 0 0 0 0 0 0 0 0 0 0 0 0 0 0 0 0 0 0 0 0 0 0 0 0 0 0 0 0 0 0 9 0 9 9 0 0 9 0 0 0 0 0 -193 0 0 11 9 10 11 11 10 10 10 10 0 10 10 0 0 9 10 11 12 12 12 11 11 10 10 0 0 9 10 11 -193 -193 -209 -209 -193 16 -193 9 0 10 11 12 11 9 9 9 10 10 10 9 9 0 10 0 9 11 15 0 0 15 12 12 12 12 11 10 11 13 9 9 9 0 0 10 12 11 10 10 11 10 11 10 11 0 0 0 12 9 0 0 9 0 10 12 11 9 10 12 12 12 13 11 10 16 17 13 13 16 15 14 16 16 16 15 17 16 18 17 17 17 16 17 16 17 18 15 19 20 20 20 21 21 19 20 20 22 19 18 18 19 20 21 21 21 20 24 25 24 24 24 24 25 24 25 24 27 28 26 26 27 27 27 27 27 27 27 29 29 28 28 30 29 27 28 28 28 29 29 30 29 0 0 0 0 0
    0 0 0 0 0 0 0 0 0 0 0 0 0 0 0 0 0 0 0 0 0 0 0 0 0 0 0 0 0 0 0 0 0 0 0 0 0 0 0 0 0 0 0 0 0 0 0 0 0 0 0 0 0 0 0 0 0 0 0 0 0 0 0 0 0 0 0 0 0 0 0 0 0 0 0 0 0 0 0 9 9 9 9 9 9 0 0 0 0 0 0 0 0 0 0 0 0 0 0 0 0 0 0 0 0 0 0 0 8 0 0 0 0 0 0 0 0 0 0 0 0 10 0 9 9 0 0 0 0 0 0 0 0 -193 0 0 11 0 9 11 10 10 9 10 9 0 10 11 0 0 9 10 10 12 12 12 11 11 10 9 0 0 9 10 10 -193 -193 -209 -209 -209 -193 -193 9 0 10 10 12 11 10 10 10 10 10 10 10 9 9 10 0 9 11 16 0 0 15 12 12 12 12 11 10 11 13 9 9 9 0 9 10 12 12 10 11 11 11 11 10 11 0 0 0 10 0 0 0 0 0 10 12 11 9 10 13 13 13 13 12 11 15 17 14 13 16 14 15 16 17 16 15 18 16 18 18 17 17 16 17 16 17 18 15 19 20 20 20 20 21 18 20 20 21 19 19 19 20 20 21 22 22 21 24 25 24 24 25 25 25 24 24 23 28 28 27 26 27 27 27 27 27 26 26 29 29 28 28 30 29 27 28 28 28 28 29 29 29 0 0 0 0 0
    0 0 0 0 0 0 0 0 0 0 0 0 0 0 0 0 0 0 0 0 0 0 0 0 0 0 0 0 0 0 0 0 0 0 0 0 0 0 0 0 0 0 0 0 0 0 0 0 0 0 0 0 0 0 0 0 0 0 0 0 0 0 0 0 0 0 0 0 0 0 0 0 0 0 0 0 9 0 9 10 9 9 9 9 9 0 0 0 0 0 0 0 0 0 0 0 0 0 0 0 0 0 0 0 0 0 0 0 0 0 0 0 0 0 0 0 0 0 0 0 0 10 0 9 9 0 0 0 0 0 0 0 0 -193 0 0 10 0 0 10 10 9 9 9 9 0 10 11 0 0 9 10 10 11 12 12 11 11 10 9 9 0 10 10 10 -193 -193 -209 -209 -209 -209 -193 -193 0 9 10 11 10 9 10 10 10 10 11 10 10 9 10 0 0 9 16 0 0 15 12 12 12 12 11 10 11 13 9 9 9 9 9 10 12 12 10 10 11 10 10 9 10 0 0 0 9 0 0 0 0 0 10 13 11 0 10 14 12 13 13 12 11 14 17 14 13 15 14 15 16 17 16 15 18 17 18 18 17 17 16 17 16 18 19 16 17 21 21 21 21 21 17 19 19 21 19 19 20 20 20 22 22 22 22 25 25 25 24 25 24 24 24 24 24 29 28 27 27 28 27 27 27 28 26 27 28 29 28 29 30 29 27 28 28 28 28 28 29 28 0 0 0 0 0
    0 0 0 0 0 0 0 0 0 0 0 0 0 0 0 0 0 0 0 0 0 0 0 0 0 0 0 0 0 0 0 0 0 0 0 0 0 0 0 0 0 0 0 0 0 0 0 0 0 0 0 0 0 0 0 0 0 0 0 0 0 0 0 0 0 0 0 0 0 0 0 0 0 0 0 0 9 0 9 10 9 9 9 9 9 0 0 0 0 0 0 9 0 0 0 0 0 9 0 0 0 0 0 0 0 0 0 0 0 0 0 0 0 0 0 0 0 0 0 0 0 9 0 9 9 0 0 0 0 0 0 0 0 -193 9 9 10 0 0 10 10 9 0 9 0 0 10 12 0 0 9 10 10 11 11 12 12 11 11 9 9 0 10 10 9 -209 -209 -209 -225 -209 -209 -193 0 0 0 9 10 9 0 9 9 9 10 10 10 9 9 10 0 0 0 15 0 0 15 12 12 12 12 11 10 11 12 9 9 9 9 9 10 11 11 10 10 10 0 9 0 9 0 0 0 0 0 0 0 0 0 10 13 10 0 10 14 12 13 13 12 12 14 16 14 13 14 13 15 16 16 16 15 17 16 18 18 17 17 17 17 15 19 19 16 16 20 21 21 21 21 18 20 20 22 20 21 21 21 21 23 23 23 22 25 25 25 24 24 24 24 24 25 25 30 28 28 27 28 27 27 27 28 26 27 28 29 28 29 30 29 28 28 28 27 28 28 28 28 0 0 0 0 0
    0 0 0 0 0 0 0 0 0 0 0 0 0 0 0 0 0 0 0 0 0 0 0 0 0 0 0 0 0 0 0 0 0 0 0 0 0 0 0 0 0 0 0 0 0 0 0 0 0 0 0 0 0 0 0 0 0 0 0 0 0 0 0 0 0 0 0 0 0 0 0 0 0 0 0 0 9 0 9 11 9 9 10 10 10 9 9 0 0 0 0 9 0 0 0 0 0 9 0 0 0 0 0 0 0 0 0 0 0 0 0 0 0 0 0 0 0 0 0 0 0 9 0 9 10 0 0 0 0 0 0 0 0 -193 0 0 9 0 0 9 9 0 0 9 0 0 11 12 0 0 9 10 10 11 11 12 11 11 10 9 0 0 0 0 0 0 -193 -193 -225 -209 -209 -193 0 0 0 0 0 0 0 0 0 0 9 9 9 9 9 10 0 0 9 14 0 0 15 12 12 12 11 11 10 11 12 0 0 9 9 9 9 11 11 10 10 10 9 10 8 10 0 0 0 0 0 0 0 0 0 10 12 10 0 10 15 12 14 13 13 12 14 16 14 13 14 13 14 15 15 16 16 16 16 18 19 16 17 17 16 15 20 19 17 15 20 20 21 21 21 17 20 21 22 21 22 22 21 23 24 25 24 23 26 26 26 25 25 24 24 25 25 25 30 29 28 28 29 27 27 27 28 26 27 28 29 27 29 30 29 27 28 27 27 27 27 28 27 0 0 0 0 0
    0 0 0 0 0 0 0 0 0 0 0 0 0 0 0 0 0 0 0 0 0 0 0 0 0 0 0 0 0 0 0 0 0 0 0 0 0 0 0 0 0 0 0 0 0 0 0 0 0 0 0 0 0 0 0 0 0 0 0 0 0 0 0 0 0 0 0 0 0 0 0 0 0 0 0 0 9 9 9 11 10 9 10 10 10 0 9 9 0 0 0 0 0 0 0 0 0 0 0 0 0 0 0 0 0 0 0 0 0 0 0 0 0 0 0 0 0 0 0 0 0 10 0 10 11 0 0 0 0 0 0 0 9 -193 0 0 9 0 0 0 9 0 0 0 0 0 11 13 0 0 10 11 11 12 12 12 12 11 10 9 0 0 0 0 0 0 0 -193 -193 0 11 -193 9 0 0 0 0 0 0 0 0 0 0 0 0 0 0 9 0 0 0 13 0 0 15 12 12 12 11 11 10 11 12 0 0 9 9 9 10 11 11 11 12 12 11 11 10 12 0 0 0 9 0 0 0 0 0 10 13 10 0 10 16 13 15 13 13 12 14 17 15 13 14 13 14 15 15 16 15 16 16 18 19 17 17 17 16 15 19 18 17 14 20 20 20 21 20 17 21 22 23 22 22 22 22 24 25 25 25 24 26 27 26 26 25 24 24 25 26 26 31 28 28 28 29 27 27 28 28 26 27 28 28 27 29 30 29 27 28 27 27 27 27 28 27 0 0 0 0 0
    0 0 0 0 0 0 0 0 0 0 0 0 0 0 0 0 0 0 0 0 0 0 0 0 0 0 0 0 0 0 0 0 0 0 0 0 0 0 0 0 0 0 0 0 0 0 0 0 0 0 0 0 0 0 0 0 0 0 0 0 0 0 0 0 0 0 0 0 0 0 0 0 0 0 0 0 9 0 9 12 10 10 10 10 10 9 9 9 0 0 0 0 0 0 0 0 0 0 0 0 0 0 9 0 8 0 0 0 0 0 0 0 0 0 0 0 0 0 0 0 0 11 0 10 12 9 8 8 0 0 0 0 9 9 0 0 0 0 0 0 0 0 0 0 0 0 11 13 9 0 10 12 12 13 12 12 11 11 11 9 9 0 0 0 0 0 0 0 0 0 0 0 0 0 0 0 0 0 0 0 0 0 0 0 0 0 0 0 0 0 0 12 0 0 15 12 12 12 11 11 10 11 12 0 9 9 9 10 10 11 12 11 12 12 11 12 11 12 0 0 0 0 0 0 0 0 0 10 13 10 8 10 16 13 15 13 13 13 15 18 15 13 14 13 14 15 16 16 15 16 16 17 19 16 16 16 16 15 19 18 18 14 20 20 21 21 20 19 22 23 24 24 24 24 24 25 26 26 25 24 25 26 26 27 26 25 25 26 26 25 31 27 27 27 29 27 27 27 28 26 28 28 29 26 29 30 29 27 28 27 28 28 28 28 27 0 0 0 0 0
    0 0 0 0 0 0 0 0 0 0 0 0 0 0 0 0 0 0 0 0 0 0 0 0 0 0 0 0 0 0 0 0 0 0 0 0 0 0 0 0 0 0 0 0 0 0 0 0 0 0 0 0 0 0 0 0 0 0 0 0 0 0 0 0 0 0 0 0 0 0 0 0 0 0 0 0 9 0 0 12 10 10 11 11 11 9 10 10 0 9 0 0 0 0 0 0 0 9 9 9 9 11 11 10 10 9 0 0 0 0 0 0 0 0 0 0 0 0 0 0 0 10 0 10 11 9 8 0 0 0 0 0 9 9 0 0 0 0 0 0 0 0 0 0 0 0 11 13 9 0 10 12 11 13 12 12 11 11 11 9 9 0 0 0 0 0 0 0 0 0 0 9 8 0 0 0 0 0 0 9 0 0 0 0 0 0 0 0 0 0 0 12 0 0 15 12 12 12 11 11 10 11 12 0 9 9 10 12 11 12 12 12 12 12 11 12 10 12 0 0 0 9 0 0 0 0 0 10 12 10 0 10 16 13 15 13 14 13 15 18 16 13 14 13 14 15 15 15 15 15 16 17 20 16 16 17 17 15 18 18 18 15 20 20 20 21 22 21 24 25 26 26 26 25 25 25 26 26 25 24 25 26 27 27 26 26 25 26 26 26 30 27 26 26 29 27 27 28 28 26 28 29 29 26 30 30 29 27 28 27 27 27 27 28 27 0 0 0 0 0
    0 0 0 0 0 0 0 0 0 0 0 0 0 0 0 0 0 0 0 0 0 0 0 0 0 0 0 0 0 0 0 0 0 0 0 0 0 0 0 0 0 0 0 0 0 0 0 0 0 0 0 0 0 0 0 0 0 0 0 0 0 0 0 0 0 0 0 0 0 0 0 0 0 0 0 0 0 0 0 13 11 10 12 11 11 10 10 10 0 9 9 0 0 0 0 0 0 9 9 10 9 11 10 10 10 9 0 0 0 0 0 0 0 0 0 0 0 0 0 0 0 10 0 9 11 9 9 0 0 0 0 0 9 0 0 0 0 0 0 0 0 0 0 0 0 0 11 12 9 0 11 12 12 13 12 12 12 11 11 10 9 0 0 0 0 0 0 0 0 0 0 0 0 0 0 0 0 0 0 0 0 0 0 0 0 0 0 0 0 0 0 10 0 0 14 11 11 12 11 11 10 11 12 8 10 10 10 13 12 13 13 12 12 12 11 11 10 11 0 0 0 8 0 0 0 0 0 10 12 10 0 9 15 12 15 13 13 13 15 18 17 13 14 13 15 15 15 15 15 15 16 17 20 16 17 18 17 16 18 18 19 15 21 21 20 22 22 22 25 26 27 27 27 26 25 25 26 26 25 24 25 26 27 27 26 25 25 26 26 25 30 27 27 27 30 28 28 28 29 26 29 29 29 26 30 30 29 29 29 27 27 27 27 27 26 0 0 0 0 0
    0 0 0 0 0 0 0 0 0 0 0 0 0 0 0 0 0 0 0 0 0 0 0 0 0 0 0 0 0 0 0 0 0 0 0 0 0 0 0 0 0 0 0 0 0 0 0 0 0 0 0 0 0 0 0 0 0 0 0 0 0 0 0 0 0 0 0 0 0 0 0 0 0 0 0 0 0 0 0 15 12 11 13 12 12 11 11 11 0 9 9 0 0 0 0 8 9 10 9 10 10 10 10 10 9 9 0 0 0 0 0 0 0 0 0 0 0 0 0 0 0 10 0 9 11 9 9 9 9 9 0 0 9 0 0 0 0 0 0 0 0 0 0 0 0 0 10 11 9 9 11 12 12 13 12 12 12 12 11 10 9 0 0 0 0 0 0 0 0 0 0 0 9 0 0 0 0 0 0 0 0 0 0 0 0 0 0 0 0 0 0 9 0 0 13 11 11 11 11 11 10 11 12 9 10 11 11 14 12 14 14 12 12 12 11 11 9 10 0 0 0 9 0 0 0 0 0 10 11 10 0 9 15 12 14 13 14 13 14 18 17 14 15 13 16 15 15 16 16 15 16 16 20 16 17 17 17 16 18 19 19 15 21 20 21 22 23 23 26 28 28 28 27 26 25 25 26 26 24 23 24 26 27 27 27 26 26 26 26 26 30 27 27 27 30 28 28 28 29 27 29 29 29 26 30 29 29 29 29 28 28 27 27 27 26 0 0 0 0 0
    0 0 0 0 0 0 0 0 0 0 0 0 0 0 0 0 0 0 0 0 0 0 0 0 0 0 0 0 0 0 0 0 0 0 0 0 0 0 0 0 0 0 0 0 0 0 0 0 0 0 0 0 0 0 0 0 0 0 0 0 0 0 0 0 0 0 0 0 0 0 0 0 0 0 0 0 0 0 0 16 12 12 14 13 13 12 12 11 9 10 10 0 0 0 9 9 9 11 10 10 10 11 10 10 10 9 0 9 0 0 0 0 0 0 0 0 0 0 0 0 0 11 0 0 10 9 9 0 0 0 0 0 0 0 0 0 0 0 0 0 0 0 0 0 0 0 10 11 9 9 10 11 11 13 11 12 11 12 11 10 9 0 0 0 0 0 0 0 0 0 0 0 9 0 0 0 0 0 0 0 0 0 0 0 0 0 0 0 0 0 0 0 0 0 12 10 11 11 11 11 10 11 12 9 12 13 12 15 12 14 14 12 12 11 10 11 10 10 0 0 0 10 0 0 0 0 0 10 11 10 9 10 14 12 14 13 14 13 14 18 18 14 15 14 15 14 15 15 16 14 16 16 20 16 17 17 17 16 18 18 19 15 21 21 22 23 25 25 27 30 29 29 27 26 25 24 25 25 23 22 23 25 27 27 27 26 26 26 26 25 28 26 26 26 30 27 28 28 28 27 28 28 28 25 28 29 28 29 29 28 28 27 27 29 27 0 0 0 0 0
    0 0 0 0 0 0 0 0 0 0 0 0 0 0 0 0 0 0 0 0 0 0 0 0 0 0 0 0 0 0 0 0 0 0 0 0 0 0 0 0 0 0 0 0 0 0 0 0 0 0 0 0 0 0 0 0 0 0 0 0 0 0 0 0 0 0 0 0 0 0 0 0 0 0 0 0 0 0 0 16 12 11 14 13 12 12 12 11 9 10 10 0 0 0 0 9 9 11 10 11 11 11 11 10 10 9 0 9 0 0 0 0 0 0 0 0 0 0 0 0 9 12 0 0 9 0 0 0 0 0 0 0 0 0 0 0 0 0 0 0 0 0 0 0 0 0 10 10 9 9 10 11 11 12 11 11 11 11 10 10 9 0 0 0 0 0 0 0 0 0 9 0 9 0 0 0 0 0 0 0 0 0 0 0 0 0 0 0 0 0 0 9 0 0 12 10 11 11 11 11 11 11 13 10 13 14 13 16 13 15 14 12 12 11 10 11 10 10 0 0 0 10 0 0 0 0 0 10 12 11 9 10 14 12 14 13 14 13 14 17 18 14 15 14 15 14 15 15 17 13 16 16 20 16 17 18 17 16 18 18 19 16 21 21 22 24 25 26 28 29 27 27 25 24 23 22 23 23 23 20 21 26 28 28 28 26 26 26 26 25 27 26 26 25 29 27 27 27 28 26 28 28 28 25 27 28 28 31 30 29 29 28 28 30 28 0 0 0 0 0
    0 0 0 0 0 0 0 0 0 0 0 0 0 0 0 0 0 0 0 0 0 0 0 0 0 0 0 0 0 0 0 0 0 0 0 0 0 0 0 0 0 0 0 0 0 0 0 0 0 0 0 0 0 0 0 0 0 0 0 0 0 0 0 0 0 0 0 0 0 0 0 0 0 0 0 0 0 0 9 16 12 12 14 13 12 12 12 11 9 9 9 0 0 0 0 9 9 10 10 10 10 11 10 10 10 9 0 9 0 0 0 0 0 0 0 0 0 0 0 0 9 13 9 9 9 0 9 0 0 0 0 0 0 0 0 0 0 0 0 0 0 0 0 0 0 0 9 10 9 9 10 11 11 12 10 11 11 11 10 10 9 0 0 0 0 0 0 0 0 0 0 0 9 0 9 0 9 0 0 0 0 0 0 0 0 0 0 0 0 9 9 10 10 0 13 10 11 11 11 11 11 11 13 10 14 15 14 17 14 15 14 13 12 11 11 11 10 10 0 0 0 10 0 0 0 0 9 10 12 11 9 11 14 13 14 13 14 13 13 17 19 14 15 14 15 14 15 16 17 13 16 16 20 16 18 18 17 17 18 19 19 16 21 20 22 23 25 26 29 27 26 26 24 24 24 23 23 22 23 22 20 26 30 30 30 28 28 27 26 25 27 25 25 25 29 26 27 27 27 26 28 28 29 25 28 29 29 32 31 30 30 29 29 31 29 0 0 0 0 0
    0 0 0 0 0 0 0 0 0 0 0 0 0 0 0 0 0 0 0 0 0 0 0 0 0 0 0 0 0 0 0 0 0 0 0 0 0 0 0 0 0 0 0 0 0 0 0 0 0 0 0 0 0 0 0 0 0 0 0 0 0 0 0 0 0 0 0 0 0 0 0 0 0 0 0 0 0 0 0 15 12 11 13 12 12 12 11 11 9 9 9 0 0 0 0 9 9 10 10 10 10 11 10 10 10 9 0 9 0 0 0 0 0 0 0 0 0 0 0 0 9 12 9 0 9 0 9 0 0 0 0 0 0 0 0 0 0 0 0 0 0 0 0 0 0 0 9 9 9 9 10 10 10 12 10 11 10 11 9 10 9 0 0 0 0 0 0 0 0 0 0 0 9 0 9 9 11 10 9 0 0 0 0 0 0 0 0 0 0 0 0 9 11 9 14 10 10 11 11 11 11 11 13 10 14 16 14 17 14 15 13 12 11 11 10 10 9 9 0 0 0 10 0 0 0 0 9 10 12 12 10 11 15 13 14 13 14 13 13 16 19 14 14 14 15 14 15 16 16 12 15 16 20 16 18 18 18 18 18 19 19 16 21 20 21 22 24 27 29 27 26 27 25 24 24 23 23 21 23 21 16 26 30 30 30 28 29 27 26 25 26 24 24 24 27 25 26 26 26 25 27 28 28 25 28 30 30 33 32 31 31 30 30 32 30 0 0 0 0 0
    0 0 0 0 0 0 0 0 0 0 0 0 0 0 0 0 0 0 0 0 0 0 0 0 0 0 0 0 0 0 0 0 0 0 0 0 0 0 0 0 0 0 0 0 0 0 0 0 0 0 0 0 0 0 0 0 0 0 0 0 0 0 0 0 0 0 0 0 0 0 0 0 0 0 0 0 0 0 0 14 11 11 13 12 12 11 11 11 9 9 10 0 0 0 9 9 0 10 9 10 10 10 9 9 9 9 0 9 9 0 0 0 0 0 0 0 0 0 0 0 9 12 9 0 9 0 0 0 0 0 0 0 0 0 0 0 0 0 0 0 0 0 0 0 0 0 0 9 0 9 9 10 10 11 10 10 10 10 9 10 9 0 0 0 0 0 0 0 0 -193 -193 0 9 9 9 9 11 11 10 9 0 0 0 0 0 0 0 0 0 0 0 9 10 0 12 9 9 10 10 10 10 10 12 10 14 17 13 16 13 14 12 11 10 10 9 9 0 0 0 0 0 9 0 0 0 0 9 10 11 11 10 11 15 13 14 13 14 13 13 15 18 14 14 14 15 14 15 15 16 12 16 16 20 16 18 18 18 18 18 19 20 17 21 20 22 23 26 27 27 25 25 26 23 23 23 22 21 20 23 22 16 26 31 31 31 29 30 27 26 26 26 23 23 23 26 24 25 25 25 24 26 27 28 25 28 30 30 35 33 32 32 31 31 34 31 0 0 0 0 0
    0 0 0 0 0 0 0 0 0 0 0 0 0 0 0 0 0 0 0 0 0 0 0 0 0 0 0 0 0 0 0 0 0 0 0 0 0 0 0 0 0 0 0 0 0 0 0 0 0 0 0 0 0 0 0 0 0 0 0 0 0 0 0 0 0 0 0 0 0 0 0 0 0 0 0 0 0 0 0 14 11 11 13 12 11 11 11 12 9 10 10 0 0 0 9 9 0 9 9 9 9 9 9 0 9 9 0 9 9 0 9 0 0 0 0 0 0 0 0 0 10 12 10 0 9 0 0 0 0 0 0 0 0 0 0 0 0 0 0 0 0 0 0 0 0 0 0 9 0 10 10 10 10 10 9 9 9 9 0 0 0 0 0 0 0 0 0 0 -193 -193 -193 -193 -193 9 10 10 11 11 10 10 0 0 0 0 0 0 0 0 0 0 0 0 -193 0 10 0 0 9 9 9 10 10 11 9 13 16 12 14 12 12 11 10 9 0 0 0 0 0 0 0 0 9 0 0 0 0 0 9 11 11 10 11 16 13 15 14 14 13 13 15 18 13 14 14 16 14 15 16 16 12 16 17 19 16 19 19 19 18 19 19 20 18 20 19 21 22 25 26 25 23 23 24 22 22 21 21 20 20 22 22 16 26 31 31 31 29 31 28 27 27 26 23 23 23 26 24 24 24 25 24 26 27 27 24 27 30 30 35 33 33 32 32 32 34 32 0 0 0 0 0
    0 0 0 0 0 0 0 0 0 0 0 0 0 0 0 0 0 0 0 0 0 0 0 0 0 0 0 0 0 0 0 0 0 0 0 0 0 0 0 0 0 0 0 0 0 0 0 0 0 0 0 0 0 0 0 0 0 0 0 0 0 0 0 0 0 0 0 0 0 0 0 0 0 0 0 0 0 0 0 14 11 11 13 12 11 11 11 12 9 10 10 0 0 9 9 9 0 0 0 0 0 0 0 0 9 9 0 9 9 0 9 0 0 0 0 0 0 0 0 0 10 13 11 0 9 0 0 0 0 0 0 0 0 0 0 0 0 0 0 0 0 0 0 0 9 9 9 10 9 10 10 10 10 10 0 0 0 0 0 0 0 0 0 0 0 0 0 0 -193 -193 -193 -193 -193 -193 9 9 10 10 9 9 0 0 0 0 0 0 0 0 0 0 0 0 -193 0 9 0 0 9 9 9 9 9 10 9 12 14 11 11 10 10 10 0 0 0 0 0 0 0 0 0 0 9 0 0 0 9 9 9 11 11 10 11 16 13 15 14 14 13 13 14 18 13 14 14 16 15 15 16 16 12 16 16 18 16 19 18 19 19 19 19 20 18 20 19 21 21 22 24 23 21 22 23 21 21 20 20 19 20 22 21 15 26 30 31 31 29 31 28 28 28 28 23 23 23 26 24 24 24 24 23 25 26 27 23 27 31 31 35 33 34 33 33 33 35 33 0 0 0 0 0
    0 0 0 0 0 0 0 0 0 0 0 0 0 0 0 0 0 0 0 0 0 0 0 0 0 0 0 0 0 0 0 0 0 0 0 0 0 0 0 0 0 0 0 0 0 0 0 0 0 0 0 0 0 0 0 0 0 0 0 0 0 0 0 0 0 0 0 0 0 9 0 0 0 0 0 0 0 0 0 13 11 11 12 11 11 10 11 11 9 10 10 0 0 9 9 0 0 0 0 0 9 0 0 0 9 9 9 9 0 0 9 0 0 0 0 0 0 0 0 0 10 13 11 9 9 0 0 0 0 0 0 0 0 0 0 0 0 0 0 9 9 9 9 9 9 10 10 10 9 9 9 9 9 9 0 0 0 0 0 0 0 0 0 0 -193 -193 0 0 0 -193 0 -193 -193 -193 0 0 9 10 0 9 0 0 0 0 0 0 0 0 0 -193 0 0 -193 0 9 0 0 0 9 9 9 9 9 0 12 13 10 10 10 10 9 0 0 0 0 0 0 0 0 0 0 9 0 0 9 9 9 10 11 12 11 11 17 14 16 14 15 14 13 14 18 13 14 14 16 15 16 16 16 12 16 16 17 17 19 18 18 19 18 19 19 18 19 18 20 20 21 23 22 21 21 23 20 20 19 19 19 19 21 21 14 26 30 31 31 29 31 30 28 28 28 24 23 23 26 24 24 24 24 23 25 26 26 22 27 31 31 36 33 34 33 33 34 34 33 0 0 0 0 0
    0 0 0 0 0 0 0 0 0 0 0 0 0 0 0 0 0 0 0 0 0 0 0 0 0 0 0 0 0 0 0 0 0 0 0 0 0 0 0 0 0 0 0 0 0 0 0 0 0 0 0 0 0 0 0 0 0 0 0 0 0 0 0 0 0 0 0 0 0 11 10 9 0 0 0 0 0 0 0 13 10 10 11 11 10 9 10 10 0 9 9 0 9 10 10 10 0 0 0 0 0 0 0 0 0 0 0 0 0 0 9 0 0 0 0 0 0 0 0 0 10 13 12 8 0 0 0 0 0 0 0 0 0 0 0 0 0 0 0 9 9 9 9 9 10 10 10 11 9 9 9 9 0 9 0 0 0 0 0 0 0 0 0 -193 -193 -193 0 0 0 -193 0 -193 0 -193 0 0 0 10 0 9 0 0 0 0 0 -193 0 0 0 -209 -209 -209 -209 -193 9 0 0 0 0 9 9 9 9 0 12 13 10 10 10 9 0 0 0 0 0 0 0 0 0 0 0 9 0 0 9 10 10 10 11 12 11 11 17 14 16 14 14 14 13 14 18 13 14 13 15 14 15 16 16 12 15 16 16 16 18 18 18 18 18 18 19 17 19 19 20 20 21 23 21 20 21 22 20 19 19 19 18 19 21 20 13 26 31 32 32 30 32 31 30 29 29 24 24 24 26 23 23 23 23 22 24 25 26 20 27 33 33 37 33 35 33 33 34 34 33 0 0 0 0 0
    0 0 0 0 0 0 0 0 0 0 0 0 0 0 0 0 0 0 0 0 0 0 0 0 0 0 0 0 0 0 0 0 0 0 0 0 0 0 0 0 0 0 0 0 0 0 0 0 0 0 0 0 0 0 0 0 0 0 0 0 0 0 0 0 0 0 0 0 0 11 10 0 0 0 0 0 0 0 0 12 10 10 11 10 9 9 9 10 0 9 9 0 0 9 10 10 0 0 0 0 0 0 0 0 0 0 0 0 0 0 9 0 0 0 0 0 0 0 0 0 10 13 12 9 10 9 9 9 9 9 9 9 9 9 9 0 0 0 0 9 10 9 10 10 10 10 10 11 9 9 0 9 0 9 0 0 0 0 0 0 0 0 0 -193 -209 -209 -193 -193 -193 -193 -193 -193 -193 -193 -193 -193 -193 10 0 9 0 -193 0 -209 -193 -193 0 0 -209 -209 -193 -193 -209 0 9 0 0 0 0 0 -193 9 9 -193 11 13 10 10 10 9 0 0 0 0 0 0 0 0 0 0 0 9 9 9 9 10 10 10 11 11 11 11 17 14 16 14 14 13 13 14 17 12 14 12 15 14 15 16 16 12 16 16 16 16 18 17 17 18 17 18 18 16 18 18 19 19 20 22 20 19 20 22 19 19 19 19 18 19 20 20 12 26 30 31 31 30 32 32 31 30 30 26 24 24 26 24 23 24 24 23 24 25 25 20 26 32 33 36 33 35 33 34 35 35 35 0 0 0 0 0
    0 0 0 0 0 0 0 0 0 0 0 0 0 0 0 0 0 0 0 0 0 0 0 0 0 0 0 0 0 0 0 0 0 0 0 0 0 0 0 0 0 0 0 0 0 0 0 0 0 0 0 0 0 0 0 0 0 0 0 0 0 0 0 0 0 0 0 0 0 12 10 9 0 0 0 0 0 0 0 12 10 10 10 10 9 9 9 10 0 9 9 0 0 9 9 9 0 0 0 0 0 0 0 0 0 0 0 0 0 0 0 0 0 0 0 0 0 0 0 0 10 12 12 9 11 10 10 10 10 10 10 10 11 9 9 0 0 0 0 10 10 9 10 10 10 11 11 12 9 0 0 0 0 9 0 0 -193 -193 -193 0 0 0 0 -193 -193 -193 -193 -209 -209 -193 -193 -193 -193 -193 -209 -209 -209 -193 -193 9 0 -193 -193 -209 -209 -193 0 -193 -209 -209 -193 -193 -209 0 0 0 0 0 0 0 0 0 9 0 11 13 10 10 10 9 0 0 0 0 0 0 0 0 0 0 9 10 10 9 10 10 10 10 11 11 11 10 16 14 16 14 14 13 13 14 17 12 13 12 14 14 15 16 15 13 15 15 16 16 17 16 16 17 16 17 18 16 18 18 18 18 19 21 19 18 19 22 19 18 18 18 18 19 20 20 12 25 28 30 30 29 32 33 31 30 31 35 25 25 26 24 24 24 24 23 24 25 25 21 26 30 33 35 33 35 33 34 36 35 35 0 0 0 0 0
    0 0 0 0 0 0 0 0 0 0 0 0 0 0 0 0 0 0 0 0 0 0 0 0 0 0 0 0 0 0 0 0 0 0 0 0 0 0 0 0 0 0 0 0 0 0 0 0 0 0 0 0 0 0 0 0 0 0 0 0 0 0 0 0 0 0 0 0 0 11 10 9 0 0 0 0 0 0 0 10 10 10 10 10 9 9 9 10 9 9 9 0 0 9 9 9 0 0 0 0 0 0 0 0 0 0 0 0 0 0 0 0 0 0 0 0 0 0 0 0 10 11 12 9 11 10 10 10 10 10 10 10 11 0 0 0 0 0 0 10 10 9 10 10 10 11 11 12 9 9 9 9 9 9 0 0 -193 -193 -193 0 0 0 0 -193 -193 -193 -193 -209 -193 -193 -193 -193 -193 -193 -209 -193 -193 -193 0 -193 0 -193 -193 -209 -209 -209 -193 -193 -209 -209 -193 0 0 0 0 0 0 0 0 0 0 0 9 -193 11 13 10 10 10 9 9 0 0 0 0 0 0 0 0 8 10 10 12 10 10 11 10 10 11 11 11 10 16 13 15 13 14 13 13 14 16 12 13 12 15 15 15 16 15 13 15 14 15 15 15 15 15 16 15 16 18 15 19 19 19 20 20 20 17 17 18 21 18 17 17 17 17 18 19 19 12 25 26 28 28 27 31 33 32 30 -193 -193 26 26 27 25 24 24 24 23 23 23 23 21 25 28 32 36 33 35 -193 -193 -193 35 35 0 0 0 0 0
    0 0 0 0 0 0 0 0 0 0 0 0 0 0 0 0 0 0 0 0 0 0 0 0 0 0 0 0 0 0 0 0 0 0 0 0 0 0 0 0 0 0 0 0 0 0 0 0 0 0 0 0 0 0 0 0 0 0 0 0 0 0 0 0 0 0 0 0 0 11 10 10 0 0 0 0 0 0 0 9 9 9 10 10 9 9 9 10 9 9 9 0 0 9 9 10 9 9 0 0 0 0 0 0 0 0 0 0 0 0 0 0 0 0 0 0 0 0 0 0 9 11 11 8 12 11 10 10 10 10 9 9 10 0 0 0 0 0 0 10 10 10 10 10 10 11 11 12 9 9 9 9 9 10 0 0 129 -193 -193 -193 0 0 0 -193 -193 -193 -193 -209 -193 -209 -193 -193 0 -209 -193 -193 -193 -209 0 -193 0 -209 -193 -209 -209 -209 -193 -209 -209 -209 -209 0 -193 -193 0 0 0 0 -193 0 -193 0 0 -193 11 13 10 10 10 10 10 9 0 0 0 0 0 0 0 8 9 10 13 10 10 11 11 10 12 11 11 10 15 13 15 13 13 13 13 13 16 12 13 13 15 15 15 16 15 14 15 14 15 14 14 15 14 15 15 15 18 14 19 20 19 21 21 20 16 16 16 21 17 17 16 16 17 18 18 18 11 23 25 27 27 26 31 34 32 30 -193 -177 27 27 29 27 25 25 25 25 23 23 23 20 22 27 31 35 32 34 -193 -193 35 34 35 0 0 0 0 0
    0 0 0 0 0 0 0 0 0 0 0 0 0 0 0 0 0 0 0 0 0 0 0 0 0 0 0 0 0 0 0 0 0 0 0 0 0 0 0 0 0 0 0 0 0 0 0 0 0 0 0 0 0 0 0 0 0 0 0 0 0 0 0 0 0 0 0 0 0 10 10 10 0 0 0 0 0 0 0 9 9 9 10 10 9 0 9 9 9 9 9 0 0 9 9 10 9 9 0 0 0 0 0 0 0 0 0 0 0 0 0 0 0 0 0 0 0 0 0 0 9 10 10 0 12 11 11 10 10 10 10 9 10 0 0 0 0 0 0 10 10 10 10 10 11 11 11 12 9 -177 9 9 9 10 0 0 129 132 -193 -193 -193 0 0 -193 -193 -209 -193 -209 -193 -209 0 -193 0 -209 0 -193 -193 -209 0 0 0 -193 0 -209 -209 -209 -193 -193 -209 -209 -193 0 -193 -193 0 0 0 0 0 0 0 0 0 -193 11 13 11 11 11 10 11 9 9 0 0 0 0 0 9 9 9 10 14 11 11 12 11 11 12 12 12 10 15 13 14 13 13 13 12 13 15 12 13 13 14 15 15 16 15 14 15 13 15 14 14 14 14 14 14 15 17 13 18 19 19 21 20 19 16 16 16 21 17 16 16 15 17 17 17 17 11 20 23 25 25 -193 -177 -177 31 30 99 99 29 29 30 28 26 26 26 25 23 23 23 21 23 26 31 33 31 31 -193 30 34 33 33 0 0 0 0 0
    0 0 0 0 0 0 0 0 0 0 0 0 0 0 0 0 0 0 0 0 0 0 0 0 0 0 0 0 0 0 0 0 0 0 0 0 0 0 0 0 0 0 0 0 0 0 0 0 0 0 0 0 0 0 0 0 0 0 0 0 0 0 0 0 0 0 0 0 0 10 10 10 0 0 0 0 0 0 0 9 9 9 10 9 9 0 0 9 0 9 0 0 0 9 9 10 9 10 0 0 0 0 0 0 0 0 0 0 0 0 0 0 0 0 0 0 0 0 0 0 0 9 10 0 12 11 11 10 10 9 9 9 10 0 0 0 0 0 0 10 10 10 10 10 10 11 11 12 9 -177 9 9 9 10 0 0 129 132 -193 -193 -193 -193 0 -193 -209 -209 -193 -209 -193 -209 0 -193 0 0 0 -193 0 -193 0 0 0 0 0 -209 -193 -193 -193 -193 -209 -209 -209 0 -209 0 0 0 0 0 0 0 0 0 9 -193 11 13 11 11 11 11 11 10 10 9 0 0 0 9 10 10 10 10 15 12 12 12 12 11 13 12 12 11 14 13 13 13 13 12 12 12 14 11 12 13 14 15 15 17 16 16 15 13 16 14 14 14 14 14 13 14 17 11 18 19 19 21 20 18 16 16 15 21 16 16 15 15 17 17 17 17 11 17 21 23 23 17 -177 31 31 29 98 99 29 30 30 29 27 26 26 26 23 23 23 22 23 26 31 33 30 29 -193 -193 -193 31 32 0 0 0 0 0
    0 0 0 0 0 0 0 0 0 0 0 0 0 0 0 0 0 0 0 0 0 0 0 0 0 0 0 0 0 0 0 0 0 0 0 0 0 0 0 0 0 0 0 0 0 0 0 0 0 0 0 0 0 0 0 0 0 0 0 0 0 0 0 0 0 0 0 0 0 10 9 9 0 0 0 0 0 0 0 0 9 9 9 9 9 0 0 9 0 0 0 0 0 9 9 10 9 10 0 0 0 0 0 0 0 0 0 0 0 0 0 0 0 0 0 0 0 0 0 0 0 9 9 0 11 11 10 10 9 9 9 8 9 0 0 0 0 0 0 9 9 9 10 10 10 10 11 11 9 0 0 0 0 9 -177 0 128 -193 -193 -193 -193 -209 -193 138 -193 -209 -209 -209 -193 -209 0 -193 0 -193 0 -193 -193 -193 0 0 0 0 0 -193 -193 -193 -193 -193 -209 -209 -193 -193 -209 0 0 0 0 0 0 0 0 0 9 9 11 14 11 12 12 11 12 12 11 10 9 9 9 11 11 10 10 9 16 12 12 13 12 12 14 13 13 11 14 13 13 13 13 12 12 12 13 12 13 14 15 16 15 17 16 18 16 13 17 14 14 14 14 14 13 14 16 10 19 20 20 21 21 19 16 16 15 20 16 16 15 14 16 16 16 16 11 14 20 21 22 -177 -177 29 29 27 96 97 30 30 30 30 28 27 27 26 22 23 23 22 21 26 30 31 30 29 28 -193 -193 31 32 0 0 0 0 0
    0 0 0 0 0 0 0 0 0 0 0 0 0 0 0 0 0 0 0 0 0 0 0 0 0 0 0 0 0 0 0 0 0 0 0 0 0 0 0 0 0 0 0 0 0 0 0 0 0 0 0 0 0 0 0 0 0 0 0 0 0 0 0 0 0 0 0 0 0 9 9 9 0 0 0 0 0 0 0 0 9 9 9 9 9 0 9 9 0 0 0 0 0 9 9 10 9 10 0 0 0 0 0 0 0 0 0 0 0 0 0 0 0 0 0 0 0 0 0 0 0 0 9 0 11 10 10 9 9 0 0 0 0 0 0 0 0 0 0 0 9 9 9 10 10 10 11 12 9 8 9 0 0 9 0 9 -193 -193 -193 -193 -193 -193 -193 -193 -209 -209 -209 -209 -193 0 0 -193 0 0 -193 -193 0 10 0 9 0 0 0 9 0 9 0 0 0 0 9 0 -193 0 0 0 0 0 0 0 9 0 9 9 11 14 11 12 12 11 11 11 10 10 9 9 8 11 11 10 9 9 16 12 12 12 12 12 15 13 13 10 13 13 12 12 12 12 12 12 12 12 13 14 15 16 15 17 17 19 15 13 18 14 14 14 14 14 13 14 17 10 20 20 20 21 21 19 16 16 15 21 17 16 15 15 16 16 16 16 11 13 18 20 20 -177 -177 26 26 24 93 95 30 30 30 30 28 27 27 27 22 23 23 23 20 25 28 30 29 29 28 -193 -193 31 33 0 0 0 0 0
    0 0 0 0 0 0 0 0 0 0 0 0 0 0 0 0 0 0 0 0 0 0 0 0 0 0 0 0 0 0 0 0 0 0 0 0 0 0 0 0 0 0 0 0 0 0 0 0 0 0 0 0 0 0 0 0 0 0 0 0 0 0 0 0 0 0 0 0 0 0 0 0 0 0 0 0 0 0 0 0 0 0 9 9 9 0 9 9 9 9 0 0 0 9 9 10 9 10 0 0 0 0 0 0 0 0 0 0 0 0 0 0 0 0 0 0 0 0 0 0 0 0 0 0 11 10 9 9 8 0 0 0 0 0 0 0 0 0 0 0 0 0 9 10 10 10 11 12 9 10 11 10 10 11 9 9 9 0 0 0 0 0 0 0 0 0 0 0 0 0 0 0 0 0 -193 9 9 11 10 10 9 9 10 10 9 9 0 0 0 0 0 0 0 0 0 0 0 9 9 9 9 9 10 10 11 14 11 12 12 11 11 11 11 10 9 9 0 11 10 9 0 0 16 12 12 12 11 12 16 13 13 10 12 13 11 12 12 11 12 12 12 14 14 17 17 17 16 19 19 20 15 13 18 14 14 14 14 14 13 15 17 10 19 19 19 20 20 19 16 16 16 20 17 16 15 15 15 15 15 16 11 13 17 19 19 -177 -177 22 21 23 91 92 30 30 30 31 29 27 28 27 23 23 23 24 21 25 29 29 28 29 28 -193 -193 32 34 0 0 0 0 0
    0 0 0 0 0 0 0 0 0 0 0 0 0 0 0 0 0 0 0 0 0 0 0 0 0 0 0 0 0 0 0 0 0 0 0 0 0 0 0 0 0 0 0 0 0 0 0 0 0 0 0 0 0 0 0 0 0 0 0 0 0 0 0 0 0 0 0 0 0 0 0 0 0 0 0 0 0 0 0 0 0 0 0 0 0 0 9 9 0 9 9 0 9 9 10 10 10 10 0 0 0 0 0 0 0 0 0 0 0 0 0 0 0 0 0 0 0 0 0 0 0 0 0 0 10 9 0 0 0 0 0 0 0 0 0 0 0 0 0 0 0 0 9 9 10 10 10 13 9 11 16 13 13 14 12 11 11 10 9 9 9 0 0 0 0 0 0 0 0 0 0 0 0 0 -193 10 10 13 11 11 11 11 11 10 10 10 0 0 0 0 -193 0 -209 0 0 0 0 10 9 9 10 9 10 11 11 14 11 12 12 11 11 12 11 10 9 9 0 9 0 0 0 0 16 12 11 12 11 12 16 13 13 10 11 12 11 12 12 12 12 12 12 16 14 17 17 17 16 18 19 20 14 14 19 15 14 14 15 14 13 15 17 11 17 20 19 20 20 20 17 17 17 21 18 16 15 15 15 15 15 15 11 12 17 19 19 14 20 21 20 22 91 -177 29 29 29 30 28 27 28 27 24 24 24 25 -193 25 29 28 27 28 28 -193 -193 31 32 0 0 0 0 0
    0 0 0 0 0 0 0 0 0 0 0 0 0 0 0 0 0 0 0 0 0 0 0 0 0 0 0 0 0 0 0 0 0 0 0 0 0 0 0 0 0 0 0 0 0 0 0 0 0 0 0 0 0 0 0 0 0 0 0 0 0 0 0 0 0 0 0 0 0 0 0 0 0 0 0 0 0 0 0 0 0 0 0 0 0 0 0 9 0 9 9 0 9 9 10 10 10 11 0 0 0 0 0 0 0 0 0 0 0 0 0 0 0 0 0 0 0 0 0 0 0 0 0 0 9 0 0 0 0 0 0 0 0 0 0 0 0 0 0 0 0 0 0 9 10 10 10 13 9 19 21 -193 14 16 14 11 11 9 9 9 9 9 0 0 0 0 0 0 0 0 0 0 0 0 12 12 11 15 12 11 11 12 12 10 10 10 0 0 -193 -193 -193 -193 -209 0 0 -209 0 10 10 9 10 10 11 11 11 13 11 12 12 11 11 11 10 9 9 9 0 0 0 0 0 0 16 12 11 12 11 12 16 13 12 9 10 12 11 12 12 12 13 13 13 18 15 17 17 17 16 18 19 20 14 14 19 15 15 15 15 15 13 16 17 11 15 20 22 22 23 23 21 20 20 22 19 16 16 15 14 14 14 15 11 12 18 20 19 -177 21 22 20 22 91 -193 29 29 29 30 28 27 28 27 24 25 25 25 -209 26 30 28 -193 28 27 -193 29 29 31 0 0 0 0 0
    0 0 0 0 0 0 0 0 0 0 0 0 0 0 0 0 0 0 0 0 0 0 0 0 0 0 0 0 0 0 0 0 0 0 0 0 0 0 0 0 0 0 0 0 0 0 0 0 0 0 0 0 0 0 0 0 0 0 0 0 0 0 0 0 0 0 0 0 0 0 0 0 0 0 0 0 0 0 0 0 0 0 0 0 9 0 9 9 0 9 9 9 9 10 10 10 10 11 9 9 0 9 0 0 0 0 0 0 0 0 0 0 0 0 0 0 0 0 0 0 0 0 0 0 0 0 0 0 0 0 0 0 0 0 0 0 0 0 0 0 0 0 0 9 10 9 11 14 9 10 -193 -209 9 12 11 9 9 9 9 0 9 9 0 0 9 0 9 -193 0 -193 0 0 0 0 -193 13 12 15 12 11 11 12 11 10 9 9 0 0 0 0 0 -193 -209 0 0 -193 9 11 10 10 -193 10 11 11 11 13 10 12 12 10 10 10 9 9 0 0 0 0 0 0 0 9 17 12 11 12 11 12 15 12 12 9 10 12 11 12 12 12 14 14 14 19 15 17 17 17 16 18 19 20 14 15 19 16 15 15 15 15 13 16 17 11 13 21 24 23 30 28 24 22 22 23 21 17 16 15 14 13 14 15 12 12 19 20 20 18 21 22 20 22 -193 -193 28 28 28 29 28 27 28 28 25 26 26 26 -209 27 30 27 -193 28 27 27 29 29 29 0 0 0 0 0
    0 0 0 0 0 0 0 0 0 0 0 0 0 0 0 0 0 0 0 0 0 0 0 0 0 0 0 0 0 0 0 0 0 0 0 0 0 0 0 0 0 0 0 0 0 0 0 0 0 0 0 0 0 0 0 0 0 0 0 0 0 0 0 0 0 0 0 0 0 0 9 9 0 0 0 0 0 0 0 11 0 0 0 9 9 9 9 9 0 9 10 9 9 10 11 10 10 10 9 10 0 9 0 0 0 0 0 0 0 0 0 0 0 0 0 0 0 0 0 0 0 0 0 0 0 0 0 0 0 0 0 0 0 0 0 0 0 0 0 0 0 0 0 9 9 9 11 14 9 -177 18 10 9 11 11 9 9 9 9 0 9 9 0 0 9 9 10 10 -209 -209 -193 -193 0 0 -209 13 12 15 12 11 11 12 11 9 9 9 0 0 0 0 0 -193 -209 0 0 -177 9 10 10 -193 -193 9 11 11 10 12 10 11 11 10 10 10 9 9 -209 9 0 0 0 0 0 10 17 12 11 11 11 11 14 11 11 0 9 12 11 12 12 13 15 14 14 19 15 17 16 17 16 17 19 20 14 16 19 17 16 16 16 15 14 17 18 13 15 23 29 27 34 31 28 24 24 24 22 18 17 15 14 12 14 14 12 12 20 21 21 19 22 23 21 22 -193 -193 27 27 27 29 28 27 28 28 25 27 28 28 -209 28 32 29 27 29 28 28 29 29 30 0 0 0 0 0
    0 0 0 0 0 0 0 0 0 0 0 0 0 0 0 0 0 0 0 0 0 0 0 0 0 0 0 0 0 0 0 0 0 0 0 0 0 0 0 0 0 0 0 0 0 0 0 0 0 0 0 0 0 0 0 0 0 0 0 0 0 0 0 0 0 0 0 0 0 0 0 0 0 0 0 0 0 0 0 12 0 0 0 9 9 9 9 9 0 10 10 10 9 10 11 11 11 12 11 13 10 10 0 0 0 0 0 0 0 0 0 0 0 0 0 0 0 0 0 0 0 0 0 0 0 0 0 0 0 0 0 0 0 0 0 0 0 0 0 0 8 -177 0 9 9 9 11 15 9 8 19 10 10 12 11 9 9 9 9 0 9 9 0 0 0 9 10 -225 -193 -209 -193 -209 0 0 -209 14 12 15 12 11 11 11 11 9 9 9 0 0 0 -193 0 -193 -209 -193 -193 -177 -193 11 -193 -193 941 10 11 12 10 11 9 11 11 10 10 10 9 9 -209 9 0 0 0 0 0 10 16 11 11 11 10 11 14 11 10 0 9 12 11 13 12 12 14 14 14 19 15 17 16 17 16 18 19 20 13 16 19 18 16 16 16 16 14 19 19 16 20 26 31 29 34 33 31 25 25 25 23 19 18 15 14 12 14 14 12 12 20 21 21 20 22 23 21 22 -193 -193 26 26 26 28 27 27 28 28 25 28 29 30 -193 29 32 30 28 31 29 30 30 30 30 0 0 0 0 0
    0 0 0 0 0 0 0 0 0 0 0 0 0 0 0 0 0 0 0 0 0 0 0 0 0 0 0 0 0 0 0 0 0 0 0 0 0 0 0 0 0 0 0 0 0 0 0 0 0 0 0 0 0 0 0 0 0 0 0 0 0 0 0 0 0 0 0 0 0 0 0 0 0 0 0 0 0 0 0 12 0 0 0 -193 9 9 9 9 0 10 10 10 10 10 12 11 12 13 12 15 12 11 9 9 9 9 0 0 0 0 0 0 0 0 0 0 0 0 0 0 0 0 0 0 0 0 0 0 0 0 0 0 0 0 0 0 0 0 0 0 -177 -177 0 9 10 10 11 16 9 11 19 11 10 12 11 9 9 0 0 0 0 0 0 0 0 8 9 -225 -225 -225 -193 -193 -193 0 -209 14 13 15 12 10 -193 11 11 -193 -193 -193 0 0 -193 -193 -193 -209 -209 -193 -193 -177 -193 11 -193 941 941 -193 11 12 10 11 9 11 11 10 10 10 9 9 -209 9 0 0 0 0 0 10 15 11 11 11 10 11 13 10 10 0 0 11 10 13 12 12 14 14 14 19 15 16 15 16 16 17 18 20 13 16 19 18 16 16 17 16 15 20 20 19 22 27 31 29 34 34 33 27 25 26 24 19 18 16 15 12 13 14 13 12 20 21 20 20 22 23 21 21 23 31 25 25 25 28 27 27 28 28 25 28 30 30 -193 29 31 29 28 31 29 30 30 30 31 0 0 0 0 0
    0 0 0 0 0 0 0 0 0 0 0 0 0 0 0 0 0 0 0 0 0 0 0 0 0 0 0 0 0 0 0 0 0 0 0 0 0 0 0 0 0 0 0 0 0 0 0 0 0 0 0 0 0 0 0 0 0 0 0 0 0 0 0 0 0 0 0 0 0 0 0 0 0 0 0 0 0 0 0 11 0 0 0 -193 9 9 9 9 0 10 11 11 10 11 12 11 11 12 12 13 10 9 8 0 9 9 0 0 0 0 0 0 0 0 0 0 0 0 0 0 0 0 0 0 0 0 0 0 0 0 0 0 0 0 0 0 0 0 0 0 9 -177 9 9 10 10 12 16 9 11 18 11 10 12 10 9 0 0 0 0 0 0 0 0 0 0 9 -225 -225 -225 -193 -193 -193 0 -209 12 12 14 -193 -193 -193 11 10 -193 -193 -193 0 0 -193 -193 -193 -209 -209 -193 303 307 -193 -193 -193 942 942 -193 12 13 10 10 -209 11 11 10 10 10 0 0 -193 0 0 0 0 0 0 9 14 11 11 11 10 11 13 10 10 0 0 12 10 13 12 12 14 14 14 19 14 16 14 16 16 17 18 19 12 16 19 19 16 16 17 16 16 20 21 21 23 27 31 30 34 35 34 29 26 26 24 20 -193 -193 15 12 13 14 13 11 19 21 20 19 22 23 20 21 22 31 24 24 24 27 26 26 27 27 25 28 30 31 -193 30 32 29 28 31 29 30 30 30 31 0 0 0 0 0
    0 0 0 0 0 0 0 0 0 0 0 0 0 0 0 0 0 0 0 0 0 0 0 0 0 0 0 0 0 0 0 0 0 0 0 0 0 0 0 0 0 0 0 0 0 0 0 0 0 0 0 0 0 0 0 0 0 0 0 0 0 0 0 0 0 0 0 0 0 9 0 0 0 0 0 0 0 0 0 11 0 0 0 -193 9 0 9 9 0 11 12 12 10 11 12 12 11 12 11 12 10 9 0 0 0 0 0 0 0 0 0 0 0 0 0 0 0 0 0 0 0 0 0 0 0 0 0 0 0 0 0 0 0 0 0 0 0 0 0 9 9 -177 9 10 11 11 12 16 10 10 17 11 10 12 10 0 0 0 0 0 0 0 0 0 0 0 0 -225 -225 -225 -225 -193 -193 0 -209 10 10 13 -193 -193 -193 10 -193 -193 -193 -193 0 0 -193 -193 -193 -193 -193 -193 -193 309 -193 12 -193 942 944 -193 12 13 10 10 -193 12 12 10 11 10 -193 0 0 0 0 0 0 0 0 9 14 11 10 10 10 11 13 10 9 0 0 12 10 14 12 12 14 14 14 19 14 16 14 16 16 17 18 19 12 16 19 19 16 16 17 16 16 20 21 22 24 28 32 31 35 36 35 30 27 26 -193 20 -193 -193 16 12 14 14 13 11 19 20 20 19 22 24 22 22 23 32 23 23 24 27 26 26 26 27 25 28 30 31 -193 31 32 30 29 31 29 31 30 30 30 0 0 0 0 0
    0 0 0 0 0 0 0 0 0 0 0 0 0 0 0 0 0 0 0 0 0 0 0 0 0 0 0 0 0 0 0 0 0 0 0 0 0 0 0 0 0 0 0 0 0 0 0 0 0 0 0 0 0 0 0 0 0 0 0 0 0 0 0 0 0 0 0 0 0 9 0 0 0 0 0 9 0 0 0 11 0 0 0 -193 -193 9 9 9 -193 11 12 13 10 12 13 13 11 12 11 11 10 0 0 0 0 0 0 0 0 0 0 0 0 0 0 0 0 0 0 0 0 0 0 0 0 0 0 0 0 0 0 0 0 0 0 0 0 0 0 10 9 -177 -177 10 11 11 11 15 9 10 13 10 9 11 9 0 0 0 0 0 0 0 0 0 0 0 0 0 -225 -225 -225 -193 0 0 -193 0 -177 11 -193 -193 -193 -193 -193 -193 -193 -193 0 0 0 -193 -193 -193 12 -193 -193 311 11 12 -193 943 944 944 12 13 9 10 -193 12 12 10 11 10 -193 9 9 9 0 0 0 0 0 9 13 10 10 10 10 11 13 9 9 0 0 13 11 14 12 12 14 14 14 18 14 16 13 16 16 17 18 19 12 17 19 20 16 16 18 16 16 20 21 22 -193 28 32 31 35 35 35 30 27 26 -193 20 -193 -193 16 12 14 14 14 11 19 21 20 20 22 25 23 23 23 32 22 23 23 26 25 25 26 26 24 28 30 31 -193 31 32 30 29 32 29 31 30 30 30 0 0 0 0 0
    0 0 0 0 0 0 0 0 0 0 0 0 0 0 0 0 0 0 0 0 0 0 0 0 0 0 0 0 0 0 0 0 0 0 0 0 0 0 0 0 0 0 0 0 0 0 0 0 0 0 0 0 0 0 0 0 0 0 0 0 0 0 0 0 0 0 0 0 0 0 0 0 0 0 0 9 0 0 0 11 0 0 0 -193 -193 9 9 9 -193 11 14 14 11 12 13 13 12 12 11 11 10 0 9 0 0 9 0 0 0 0 0 0 0 0 0 0 0 0 0 0 0 0 0 0 0 0 0 0 0 0 0 0 9 0 0 0 0 0 0 10 10 -177 -177 11 11 11 11 14 9 10 11 9 9 10 0 0 0 0 0 0 0 0 0 0 0 9 0 0 0 0 0 0 0 0 -193 -177 0 10 -193 -193 -193 -193 -193 -193 -193 -193 0 9 9 9 -193 -193 13 0 -193 312 11 12 -193 943 944 944 12 13 9 9 -209 11 12 9 10 9 -209 0 9 9 0 0 9 0 9 9 14 11 10 10 10 10 12 9 9 0 0 13 11 14 12 12 14 14 14 18 13 15 13 16 16 17 18 20 13 18 19 20 17 16 18 16 16 20 21 22 -193 28 32 31 35 35 35 31 27 26 25 20 19 17 16 12 14 15 14 10 20 21 20 20 23 26 24 24 24 31 22 22 23 25 24 25 25 25 23 28 30 31 -193 31 31 30 30 32 29 31 30 30 30 0 0 0 0 0
    0 0 0 0 0 0 0 0 0 0 0 0 0 0 0 0 0 0 0 0 0 0 0 0 0 0 0 0 0 0 0 0 0 0 0 0 0 0 0 0 0 0 0 0 0 0 0 0 0 0 0 0 0 0 0 0 0 0 0 0 0 0 0 0 0 0 0 0 0 0 0 0 0 0 0 0 0 0 0 10 0 0 0 -193 10 10 10 10 -193 12 15 16 11 12 13 13 12 12 11 10 10 9 9 9 0 9 9 0 0 0 0 0 0 0 0 0 0 0 0 0 0 0 0 0 0 0 0 0 0 0 0 0 10 9 9 0 9 9 9 11 10 -177 10 11 12 12 11 14 9 10 11 0 9 10 0 0 0 0 0 0 0 0 0 0 8 9 0 0 0 0 0 0 0 0 0 0 0 9 0 -193 -193 9 9 0 9 0 0 9 9 9 9 10 13 -193 -193 -177 12 12 -193 942 943 -177 12 13 9 9 -193 10 11 9 9 9 -209 0 9 9 0 0 9 8 9 9 13 11 10 10 10 10 12 9 9 0 0 13 11 14 12 12 13 14 13 17 13 14 12 15 15 16 18 20 13 18 20 21 17 16 18 16 16 20 21 22 -193 28 31 31 34 35 34 29 26 25 24 19 18 17 16 12 14 15 14 10 20 22 21 21 23 26 26 25 26 30 21 22 22 25 23 23 23 24 21 27 29 30 -193 30 30 30 30 32 29 31 30 30 30 0 0 0 0 0
    0 0 0 0 0 0 0 0 0 0 0 0 0 0 0 0 0 0 0 0 0 0 0 0 0 0 0 0 0 0 0 0 0 0 0 0 0 0 0 0 0 0 0 0 0 0 0 0 0 0 0 0 0 0 0 0 0 0 0 0 0 0 0 0 0 0 0 0 0 0 0 0 0 0 0 0 0 0 0 9 0 0 0 -193 10 10 10 10 -193 12 16 16 11 12 13 13 12 12 11 10 11 9 9 9 0 9 9 0 0 0 0 0 0 0 0 0 0 0 0 0 0 0 0 0 0 0 0 0 9 10 9 9 11 10 9 9 9 11 9 11 11 10 10 12 12 12 10 13 0 10 11 9 9 10 0 0 0 0 0 0 0 0 0 0 9 9 9 0 0 0 0 0 0 0 0 0 0 0 0 0 0 9 9 0 9 0 0 9 9 9 9 9 12 0 0 -193 12 12 10 -193 943 -193 11 13 9 0 0 10 11 9 9 9 -193 0 0 0 0 0 9 0 0 0 13 10 10 10 10 10 12 0 0 0 0 13 10 13 11 12 13 13 13 16 12 13 11 13 15 16 18 20 12 18 20 22 18 16 18 16 16 20 21 22 -193 28 31 31 33 35 34 29 25 23 23 19 18 17 17 12 14 16 15 10 21 22 21 22 24 27 27 26 27 30 21 21 22 24 23 22 22 22 20 26 28 28 -193 29 29 30 31 32 29 31 30 31 31 0 0 0 0 0
    0 0 0 0 0 0 0 0 0 0 0 0 0 0 0 0 0 0 0 0 0 0 0 0 0 0 0 0 0 0 0 0 0 0 0 0 0 0 0 0 0 0 0 0 0 0 0 0 0 0 0 0 0 0 0 0 0 0 0 0 0 0 0 0 0 0 0 0 0 0 0 0 0 0 0 9 0 0 0 0 0 0 0 -193 10 10 11 11 -193 12 16 16 11 12 12 12 11 11 11 10 11 9 9 9 9 9 9 0 0 0 9 0 0 0 0 0 0 0 0 0 0 0 0 0 0 0 0 0 9 10 9 10 11 11 9 9 9 12 10 12 11 11 11 12 13 13 10 12 0 10 10 0 9 9 0 0 0 0 0 0 0 0 0 0 9 9 10 9 0 0 0 0 0 0 0 0 0 0 0 0 0 9 9 0 9 0 0 9 9 9 9 8 11 0 0 -193 12 12 10 10 -193 10 12 13 9 0 0 10 11 0 9 0 -193 0 0 0 0 0 0 0 0 0 12 10 9 9 9 9 11 0 0 0 0 12 10 13 11 12 13 13 13 16 12 13 11 12 14 16 18 20 12 18 21 23 18 17 18 16 16 19 21 22 -193 27 30 30 32 35 34 27 24 22 22 18 18 17 17 13 15 16 16 10 21 23 22 23 24 27 27 27 27 29 21 21 21 -193 22 22 22 22 19 26 27 27 -193 28 29 29 30 31 29 31 30 31 31 0 0 0 0 0
    0 0 0 0 0 0 0 0 0 0 0 0 0 0 0 0 0 0 0 0 0 0 0 0 0 0 0 0 0 0 0 0 0 0 0 0 0 0 0 0 0 0 0 0 0 0 0 0 0 0 0 0 0 0 0 0 0 0 0 0 0 0 0 0 0 0 0 0 0 9 0 0 0 0 9 10 0 0 0 0 0 0 0 11 10 10 11 11 -193 12 16 15 11 12 12 12 10 10 10 9 10 0 9 9 0 9 9 0 0 0 0 0 0 0 0 0 0 0 0 0 0 0 0 0 9 0 0 0 9 11 10 10 11 11 9 9 9 12 10 12 11 11 11 12 13 13 9 11 0 9 9 0 0 0 0 0 0 0 0 0 0 0 0 9 9 10 10 10 9 0 0 0 0 0 0 0 0 0 0 0 0 9 9 0 0 0 0 9 0 9 0 0 11 0 0 -177 12 13 10 10 -193 11 12 13 9 0 0 10 11 0 0 0 0 0 0 0 0 0 0 0 0 0 12 9 9 9 0 0 10 0 0 0 0 11 10 13 12 12 14 14 14 17 12 13 11 12 14 16 18 20 13 19 22 23 19 17 17 16 16 19 20 21 21 27 29 29 31 35 34 24 22 20 21 18 17 17 17 13 16 17 17 11 23 23 22 23 24 27 27 26 26 -193 20 20 21 -193 22 21 21 21 19 25 26 26 -193 27 28 29 30 31 29 30 30 31 31 0 0 0 0 0
    0 0 0 0 0 0 0 0 0 0 0 0 0 0 0 0 0 0 0 0 0 0 0 0 0 0 0 0 0 0 0 0 0 0 0 0 0 0 0 0 0 0 0 0 0 0 0 0 0 0 0 0 0 0 0 0 0 0 0 0 0 0 0 0 0 0 0 0 0 9 0 8 0 0 9 9 0 0 0 0 0 0 0 -193 9 10 10 10 -193 12 15 15 11 12 11 12 10 10 10 9 10 9 9 9 9 9 9 0 0 0 0 0 0 0 0 0 0 0 0 0 0 0 0 0 9 0 9 0 9 11 10 10 11 12 10 9 9 13 11 12 12 12 11 12 14 14 9 10 0 9 10 0 0 0 0 0 0 0 0 0 0 0 0 9 9 10 11 10 9 0 0 0 0 0 10 0 9 0 0 8 0 9 9 0 0 0 0 9 0 9 0 0 10 0 0 -177 12 12 10 10 -193 11 12 13 9 0 0 10 11 0 0 0 -193 0 0 0 0 0 0 0 0 0 11 0 0 0 0 0 9 0 0 0 0 11 10 12 12 13 14 15 14 17 13 13 11 12 14 18 19 20 15 19 23 24 20 18 17 16 15 18 20 20 19 26 28 29 30 34 34 22 21 19 21 18 17 17 17 13 16 18 18 11 24 24 23 23 23 27 26 26 25 -193 20 20 20 -193 21 21 21 21 19 25 26 26 -193 27 28 30 32 31 29 31 30 31 31 0 0 0 0 0
    0 0 0 0 0 0 0 0 0 0 0 0 0 0 0 0 0 0 0 0 0 0 0 0 0 0 0 0 0 0 0 0 0 0 0 0 0 0 0 0 0 0 0 0 0 0 0 0 0 0 0 0 0 0 0 0 0 0 0 0 0 0 0 0 0 0 0 0 0 9 0 9 0 0 9 0 0 0 0 0 0 0 0 -193 9 10 10 10 -193 12 15 14 10 12 11 11 11 10 10 9 11 9 9 9 9 9 9 0 0 0 0 0 0 0 0 0 0 0 0 0 0 0 0 0 9 9 9 9 9 11 10 10 11 13 10 9 9 14 11 13 12 12 11 12 13 13 9 9 0 0 9 0 0 0 0 0 0 0 0 0 0 0 0 9 9 10 10 9 9 0 0 9 0 0 12 9 10 0 9 9 0 9 9 0 0 0 9 9 9 9 0 0 10 0 0 -177 12 12 10 10 -193 11 11 12 9 8 0 10 11 0 0 0 0 0 0 0 0 0 0 0 0 0 11 0 0 0 0 0 9 0 0 0 0 10 10 12 12 13 14 15 14 17 13 13 12 12 14 18 19 21 16 19 24 25 20 18 15 16 15 17 18 19 15 26 27 27 27 31 32 20 20 18 21 18 17 17 17 13 17 19 18 12 24 24 23 23 23 26 26 26 -193 -193 20 -193 -193 -177 21 21 20 20 19 25 25 25 24 27 28 30 33 32 30 31 30 31 31 0 0 0 0 0
    0 0 0 0 0 0 0 0 0 0 0 0 0 0 0 0 0 0 0 0 0 0 0 0 0 0 0 0 0 0 0 0 0 0 0 0 0 0 0 0 0 0 0 0 0 0 0 0 0 0 0 0 0 0 0 0 0 0 0 0 0 0 0 0 0 0 0 0 0 9 0 0 0 0 9 0 0 0 0 0 0 0 0 -193 9 10 10 10 -193 11 14 13 11 12 10 11 11 10 10 9 11 9 10 10 9 9 10 0 0 0 0 0 0 0 0 0 0 0 0 0 0 0 0 0 9 9 9 9 9 11 10 10 11 13 11 10 10 15 12 13 13 12 11 12 13 13 0 0 0 0 9 0 0 0 0 0 0 0 0 0 0 0 0 9 9 9 9 0 0 0 0 9 9 9 12 11 12 9 10 9 9 9 9 0 0 0 9 9 9 9 9 9 11 10 9 17 12 12 10 10 12 11 11 12 0 9 0 10 11 0 0 0 0 0 0 0 0 0 0 0 0 0 12 0 0 0 0 0 9 0 0 0 0 11 10 12 12 14 15 16 15 17 15 13 13 13 14 19 20 21 18 19 25 26 21 18 14 16 14 16 17 18 13 24 24 24 23 27 26 19 19 17 20 18 17 17 17 14 18 19 19 13 22 23 23 23 23 25 25 27 -193 -193 -193 -193 -177 -177 -193 -193 19 19 16 23 25 25 25 27 28 31 33 32 30 31 30 31 31 0 0 0 0 0
    0 0 0 0 0 0 0 0 0 0 0 0 0 0 0 0 0 0 0 0 0 0 0 0 0 0 0 0 0 0 0 0 0 0 0 0 0 0 0 0 0 0 0 0 0 0 0 0 0 0 0 0 0 0 0 0 0 0 0 0 0 0 0 0 0 0 0 0 0 9 0 0 0 0 9 0 0 0 0 0 0 0 0 -193 9 9 10 10 -193 11 14 12 11 13 11 11 11 10 10 0 11 9 9 10 9 9 10 0 0 0 0 0 0 0 0 0 0 0 0 0 0 0 0 0 9 9 9 9 9 10 9 10 11 14 11 10 10 15 12 14 13 13 11 12 13 13 0 0 0 0 0 0 0 0 0 0 0 0 0 0 0 0 0 0 9 9 0 0 0 0 0 10 10 10 13 11 12 10 10 9 9 9 9 0 0 0 9 9 9 9 9 10 11 13 10 18 12 12 11 11 12 11 10 11 0 9 9 10 10 0 0 9 0 0 0 0 0 0 9 0 0 0 12 0 0 0 0 0 10 0 9 0 0 11 10 12 12 15 15 16 15 17 16 13 13 13 15 20 20 22 20 -193 25 26 21 19 14 16 15 16 17 18 12 22 21 22 19 24 23 17 17 16 20 18 17 17 17 14 19 20 19 13 22 23 22 23 22 25 -193 27 -193 -193 -193 -177 -177 -177 -193 -193 19 18 14 22 25 25 24 27 28 31 33 32 31 32 31 33 33 0 0 0 0 0
    0 0 0 0 0 0 0 0 0 0 0 0 0 0 0 0 0 0 0 0 0 0 0 0 0 0 0 0 0 0 0 0 0 0 0 0 0 0 0 0 0 0 0 0 0 0 0 0 0 0 0 0 0 0 0 0 0 0 0 0 0 0 0 0 0 0 0 0 0 9 0 0 0 -193 0 0 0 0 0 0 0 0 9 -193 -209 9 10 10 11 11 15 12 12 14 12 12 12 11 10 0 11 9 9 10 9 9 10 0 0 0 0 0 0 0 0 0 0 0 0 0 0 0 0 0 9 9 9 9 9 10 9 9 10 13 11 10 10 15 12 14 13 13 11 12 13 13 0 9 0 0 0 0 0 0 0 0 0 0 0 0 0 0 0 0 0 0 0 0 0 0 0 10 10 11 13 11 12 10 10 9 0 0 0 0 0 0 0 0 9 9 0 10 11 13 10 17 12 12 10 10 12 11 10 11 0 9 9 11 10 0 9 9 0 0 0 0 0 0 9 0 0 0 11 0 0 0 0 0 10 9 10 9 11 13 13 14 14 16 16 16 15 17 18 14 13 13 15 20 21 22 20 18 26 27 21 19 14 -193 15 16 17 17 12 21 20 20 16 21 22 16 16 16 20 17 17 17 17 14 19 20 20 14 23 23 23 23 22 25 -193 27 -193 -193 -209 -177 -177 -193 -177 -177 -193 -193 11 21 26 26 25 27 28 33 35 34 34 35 33 37 -193 0 0 0 0 0
    0 0 0 0 0 0 0 0 0 0 0 0 0 0 0 0 0 0 0 0 0 0 0 0 0 0 0 0 0 0 0 0 0 0 0 0 0 0 0 0 0 0 0 0 0 0 0 0 0 0 0 0 0 0 0 0 0 0 0 0 0 0 0 0 0 0 0 0 0 -193 0 0 0 -193 0 0 0 0 0 0 -193 0 10 -209 -209 -209 -209 -209 -209 12 15 12 13 16 13 14 13 12 11 10 12 9 9 10 9 9 10 0 0 0 0 0 0 0 0 0 0 0 0 0 0 0 0 0 9 9 9 0 0 9 0 0 10 13 11 10 10 15 12 14 13 13 11 12 13 13 0 9 0 0 0 0 0 0 0 0 0 0 0 0 0 0 0 0 0 0 0 0 0 0 0 9 10 11 13 11 12 10 10 9 0 0 0 0 0 0 0 0 0 0 0 9 10 11 9 15 11 11 10 10 12 10 10 11 0 9 9 11 10 0 9 9 0 0 0 0 0 0 9 0 0 0 10 0 0 0 0 9 10 10 12 12 13 16 15 16 16 18 18 17 16 18 19 15 15 14 16 21 21 22 21 18 26 27 21 19 14 -193 15 16 17 17 11 19 19 20 14 20 22 16 16 16 20 17 17 17 17 14 20 20 20 14 22 23 23 23 22 24 -193 28 -193 -193 53 -177 -177 -193 -177 -177 -193 -193 11 21 28 27 27 28 29 34 36 36 37 38 37 -209 41 0 0 0 0 0
    0 0 0 0 0 0 0 0 0 0 0 0 0 0 0 0 0 0 0 0 0 0 0 0 0 0 0 0 0 0 0 0 0 0 0 0 0 0 0 0 0 0 0 0 0 0 0 0 0 0 0 0 0 0 0 0 0 0 0 0 0 0 0 0 0 0 0 0 0 -193 0 0 0 -193 0 0 0 0 0 0 -193 -209 -193 -177 -209 -209 -209 -209 -209 -209 -193 12 13 17 15 15 14 13 12 11 12 10 10 10 10 10 10 0 0 0 0 0 0 0 0 0 0 0 0 0 0 0 0 0 9 9 0 0 0 0 0 0 9 12 10 9 9 15 12 14 13 13 11 12 12 13 0 0 0 0 0 0 0 0 0 0 0 0 0 0 0 0 0 0 0 0 0 0 0 0 0 9 10 10 12 11 12 10 10 9 0 0 0 0 0 0 0 0 0 0 0 9 10 10 9 14 10 10 9 10 11 10 10 11 9 10 10 11 10 0 9 9 9 0 0 0 0 0 0 0 0 0 9 0 0 0 0 9 11 11 14 14 14 17 17 17 17 19 19 17 16 18 20 16 16 15 17 21 21 22 22 18 26 27 21 20 14 -193 15 16 17 17 11 19 18 19 14 20 22 16 16 16 20 17 17 17 17 15 20 20 20 15 23 24 23 24 22 25 -193 -193 -193 -209 52 -193 -177 -193 -209 -209 -209 -209 13 23 32 31 30 29 30 36 37 37 38 39 39 44 43 0 0 0 0 0
    0 0 0 0 0 0 0 0 0 0 0 0 0 0 0 0 0 0 0 0 0 0 0 0 0 0 0 0 0 0 0 0 0 0 0 0 0 0 0 0 0 0 0 0 0 0 0 0 0 0 0 0 0 0 0 0 0 0 0 0 0 0 0 0 0 0 0 0 0 -193 0 0 0 0 0 0 0 0 0 0 307 -193 -177 -177 -209 -209 -209 -209 -209 -209 -209 -193 15 18 17 17 16 14 14 12 13 11 11 11 10 10 10 0 0 0 0 0 0 0 0 0 0 0 0 0 0 0 0 0 0 0 0 0 0 0 0 0 0 11 10 9 9 15 12 14 13 12 11 11 12 12 0 0 0 0 0 0 0 0 0 0 0 0 0 0 0 0 0 0 0 0 0 0 0 0 0 10 10 10 11 11 11 10 10 0 0 0 0 0 0 0 0 0 0 0 0 0 10 9 9 13 10 10 9 10 11 10 10 11 0 10 10 11 10 0 9 9 8 0 0 0 0 0 0 0 0 0 8 0 0 0 0 10 11 12 16 16 16 18 18 18 18 19 19 17 16 18 20 17 16 16 17 22 21 22 22 18 26 27 22 20 14 -193 15 15 16 16 11 18 18 19 14 20 22 17 17 16 20 17 17 17 17 15 20 21 20 15 24 25 25 25 24 27 -193 -193 -209 42 52 -209 -193 -193 53 48 -209 -209 -209 25 37 36 35 33 34 38 39 38 40 40 41 48 45 0 0 0 0 0
    0 0 0 0 0 0 0 0 0 0 0 0 0 0 0 0 0 0 0 0 0 0 0 0 0 0 0 0 0 0 0 0 0 0 0 0 0 0 0 0 0 0 0 0 0 0 0 0 0 0 0 0 0 0 0 0 0 0 0 0 0 0 0 0 0 0 0 0 0 -209 0 0 0 0 0 0 0 0 0 0 305 306 -193 -177 -193 -209 -209 -209 -193 -209 -209 -209 15 19 17 18 17 15 15 13 14 12 11 12 11 11 11 0 0 0 0 0 0 0 0 0 0 0 0 0 0 0 0 0 0 0 0 0 0 0 0 0 0 10 10 9 9 14 12 14 13 12 10 11 11 11 0 0 0 0 0 0 0 0 0 0 0 0 0 0 0 0 0 0 0 0 0 0 0 0 0 10 10 10 11 11 11 10 10 0 0 0 0 0 0 0 0 0 0 0 0 0 9 0 9 13 10 10 9 10 10 -193 10 10 0 9 9 10 10 0 9 9 0 0 0 0 0 0 8 0 0 0 9 0 0 0 0 10 11 13 18 18 17 19 18 18 18 20 19 16 15 17 20 17 17 16 18 21 21 22 22 18 26 27 21 20 14 16 14 15 16 16 11 17 17 18 13 20 23 17 17 17 20 18 18 18 18 16 21 22 21 17 25 27 28 28 27 31 39 44 45 44 51 54 50 51 52 49 43 44 -209 -193 40 39 38 37 38 40 41 40 42 43 44 50 46 0 0 0 0 0
    0 0 0 0 0 0 0 0 0 0 0 0 0 0 0 0 0 0 0 0 0 0 0 0 0 0 0 0 0 0 0 0 0 0 0 0 0 0 0 0 0 0 0 0 0 0 0 0 0 0 0 0 0 0 0 0 0 0 0 0 0 0 0 0 0 0 0 0 0 -209 0 0 0 0 0 0 0 0 0 0 306 -193 -193 -193 -193 -209 -209 -209 -193 -177 -209 -209 16 18 17 18 17 15 15 13 14 12 11 12 11 11 11 0 0 0 0 0 0 0 0 0 0 0 0 0 0 0 0 0 0 0 0 0 0 0 0 0 0 10 10 0 0 14 11 14 13 12 10 10 11 10 0 0 0 0 0 0 0 0 0 0 0 0 0 0 0 0 0 0 0 0 0 0 0 0 0 10 10 10 10 10 10 10 10 0 0 0 0 0 0 0 0 0 0 0 0 0 9 0 0 12 10 10 -193 9 10 -193 9 10 0 9 0 10 9 0 0 0 0 0 0 0 0 0 10 0 0 0 9 0 0 0 9 11 12 14 20 19 18 20 19 19 18 19 19 16 15 16 20 17 16 16 18 21 21 22 22 17 25 26 21 19 14 16 14 15 16 16 10 16 17 18 14 22 24 19 19 19 22 19 19 20 20 -193 -193 -193 -193 -193 26 30 30 29 29 34 40 45 45 44 50 53 51 51 52 50 45 48 -193 -209 42 42 42 42 41 43 44 43 44 46 47 51 48 0 0 0 0 0
    0 0 0 0 0 0 0 0 0 0 0 0 0 0 0 0 0 0 0 0 0 0 0 0 0 0 0 0 0 0 0 0 0 0 0 0 0 0 0 0 0 0 0 0 0 0 0 0 0 0 0 0 0 0 0 0 0 0 0 0 0 0 0 0 0 0 0 0 0 -193 0 0 0 0 8 0 0 0 0 0 308 -193 -209 -209 -209 -209 -209 -209 -209 -193 -209 14 16 18 17 18 17 15 15 13 14 11 11 11 11 10 10 0 0 0 0 0 0 0 0 0 0 0 0 0 0 0 0 0 0 0 0 0 0 0 0 0 0 10 10 9 9 14 11 13 13 11 9 10 10 10 0 0 0 0 0 0 0 0 0 0 0 0 0 0 0 0 0 0 0 0 0 0 0 0 0 0 9 9 9 9 10 9 10 0 0 0 0 0 0 0 0 0 0 0 0 0 10 0 0 12 9 10 -193 9 10 9 9 10 0 0 0 9 9 0 0 0 0 0 0 9 0 0 11 0 0 0 10 0 0 0 9 11 12 15 20 19 18 20 19 19 18 19 18 15 14 16 19 17 16 16 18 21 21 21 22 17 25 26 21 20 14 16 15 15 16 16 11 16 18 19 16 23 24 20 20 21 23 21 21 21 -193 -177 -193 -193 -193 -209 28 33 34 31 34 38 41 44 44 44 48 50 49 50 50 49 46 50 53 46 45 46 44 44 44 46 47 45 47 48 49 52 49 0 0 0 0 0
    0 0 0 0 0 0 0 0 0 0 0 0 0 0 0 0 0 0 0 0 0 0 0 0 0 0 0 0 0 0 0 0 0 0 0 0 0 0 0 0 0 0 0 0 0 0 0 0 0 0 0 0 0 0 0 0 0 0 0 0 0 0 0 0 0 0 0 0 0 -193 0 0 0 0 0 0 0 0 0 0 310 -209 -209 -209 -209 -193 -209 -209 -209 -177 -193 15 16 18 18 18 17 15 15 13 14 11 11 11 10 10 10 0 0 0 0 0 0 0 0 0 0 0 0 0 0 9 9 0 0 0 0 0 0 0 0 0 0 9 10 0 0 13 11 13 12 11 9 10 10 10 0 0 0 0 0 0 0 0 0 0 0 0 0 0 0 0 0 0 0 0 0 0 0 0 0 0 0 0 0 0 0 0 9 0 0 0 0 0 0 0 0 0 0 0 0 0 9 0 0 11 9 9 -193 9 9 0 9 9 0 0 0 9 0 0 0 0 0 0 0 10 9 9 10 0 0 0 9 0 0 0 9 11 11 15 21 19 18 19 18 18 17 19 18 15 14 15 19 16 15 16 17 21 20 21 21 17 25 25 21 20 14 17 15 15 16 16 11 19 20 21 19 24 26 21 22 22 24 22 22 22 -193 -177 26 28 -193 27 30 36 36 35 38 40 42 44 43 44 47 48 47 47 47 47 45 49 51 47 47 48 47 46 46 48 48 46 48 48 49 51 50 0 0 0 0 0
    0 0 0 0 0 0 0 0 0 0 0 0 0 0 0 0 0 0 0 0 0 0 0 0 0 0 0 0 0 0 0 0 0 0 0 0 0 0 0 0 0 0 0 0 0 0 0 0 0 0 0 0 0 0 0 0 0 0 0 0 0 0 0 0 0 0 0 0 0 -193 0 0 0 0 9 0 0 0 0 0 309 -209 -209 -209 -193 -193 -193 -209 -209 -177 -193 14 16 17 17 18 17 15 15 13 15 12 11 12 11 11 11 0 0 0 0 0 0 0 0 0 0 0 0 0 9 10 10 0 9 0 0 0 0 0 0 0 0 0 9 0 0 13 11 12 12 10 9 9 10 9 0 0 0 0 0 0 0 0 0 0 0 0 0 0 0 0 0 0 0 0 0 0 0 0 0 0 0 0 0 0 0 0 9 0 0 0 0 0 0 0 0 0 0 0 0 0 0 0 0 10 0 -193 -193 0 0 0 9 9 0 0 0 0 0 0 0 0 0 0 0 11 10 9 10 9 0 0 9 0 0 0 9 11 11 15 21 19 19 19 18 18 17 18 17 15 14 15 18 16 15 16 17 21 20 20 21 16 24 25 21 19 14 17 16 16 17 17 12 22 23 23 23 26 28 24 24 25 27 24 24 -209 -177 -177 28 31 29 29 32 37 37 37 39 41 42 44 43 44 46 46 45 45 44 44 43 45 47 45 47 48 48 48 47 49 49 47 47 47 49 51 50 0 0 0 0 0
    0 0 0 0 0 0 0 0 0 0 0 0 0 0 0 0 0 0 0 0 0 0 0 0 0 0 0 0 0 0 0 0 0 0 0 0 0 0 0 0 0 0 0 0 0 0 0 0 0 0 0 0 0 0 0 0 0 0 0 0 0 0 0 0 0 0 0 0 0 -193 0 0 0 0 9 0 0 0 0 0 309 -193 -209 -209 -209 -193 -209 -209 -193 -193 -209 14 16 17 17 17 16 14 15 13 15 12 12 12 11 11 11 0 0 0 0 0 0 0 0 0 0 0 0 9 10 10 11 9 10 0 0 0 0 0 0 0 0 0 9 0 0 13 11 12 12 10 9 9 9 9 0 0 0 0 0 0 0 0 0 0 0 0 0 0 0 0 0 0 9 0 0 0 0 0 0 0 0 0 0 0 0 0 0 0 0 0 0 0 0 0 0 0 0 0 0 0 0 0 0 10 0 0 0 0 0 0 9 0 0 0 0 0 0 0 0 0 0 0 0 12 10 10 10 10 9 9 10 9 0 0 9 10 11 15 20 19 19 19 18 18 17 18 17 15 14 14 18 16 15 16 17 20 20 20 21 16 22 24 20 19 14 17 17 17 19 19 14 25 25 25 25 28 30 31 27 30 32 29 27 27 -193 -193 30 34 32 32 35 38 39 38 40 43 43 44 43 44 45 45 44 43 42 42 42 43 44 44 46 48 49 48 48 49 49 48 48 47 49 50 50 0 0 0 0 0
    0 0 0 0 0 0 0 0 0 0 0 0 0 0 0 0 0 0 0 0 0 0 0 0 0 0 0 0 0 0 0 0 0 0 0 0 0 0 0 0 0 0 0 0 0 0 0 0 0 0 0 0 0 0 0 0 0 0 0 0 0 0 0 0 0 0 0 0 0 -193 0 0 0 0 9 0 0 0 0 0 -193 -209 -209 -209 -193 -193 -193 -209 -177 -177 16 14 16 17 17 17 16 14 15 13 15 12 12 12 11 10 11 0 0 0 0 0 0 0 0 0 0 0 0 9 10 11 12 10 10 9 0 0 0 0 0 0 0 0 9 0 0 12 11 11 11 10 9 9 9 9 0 0 0 0 0 0 0 0 0 0 0 0 0 0 0 0 0 0 10 10 9 9 0 0 0 0 0 0 0 0 0 0 0 0 0 0 0 0 0 0 0 0 0 0 0 0 9 0 0 11 0 0 0 0 0 0 0 0 0 0 0 0 9 0 0 0 0 10 10 12 11 10 11 10 10 9 10 9 0 9 9 10 10 14 20 18 19 18 17 18 16 18 17 14 15 14 17 16 15 16 17 20 20 20 21 16 21 24 20 19 15 17 17 18 20 20 15 25 27 27 27 30 31 37 32 36 36 35 32 32 -193 31 33 37 36 36 37 39 40 40 41 44 43 44 43 44 45 45 44 44 43 43 42 44 45 46 47 49 49 49 49 50 49 49 48 48 50 49 50 0 0 0 0 0
    0 0 0 0 0 0 0 0 0 0 0 0 0 0 0 0 0 0 0 0 0 0 0 0 0 0 0 0 0 0 0 0 0 0 0 0 0 0 0 0 0 0 0 0 0 0 0 0 0 0 0 0 0 0 0 0 0 0 0 0 0 0 0 0 0 0 0 0 0 9 0 0 0 0 9 0 0 0 0 0 -193 -209 -209 -209 -209 187 196 -209 -193 -177 16 13 16 17 17 17 17 14 16 12 15 12 12 11 11 10 10 0 0 0 0 0 0 0 0 0 0 0 0 9 10 10 11 10 10 9 0 0 0 0 0 0 0 0 9 0 0 12 10 11 11 9 0 9 9 9 0 0 0 0 0 0 0 0 0 0 0 0 0 0 0 0 0 0 10 10 9 0 0 0 0 0 0 0 0 0 0 0 0 0 0 0 -193 0 0 0 0 0 0 0 0 0 10 0 0 11 0 0 0 0 0 0 0 0 0 0 0 9 10 10 10 9 12 13 12 15 12 11 11 11 11 10 11 10 9 9 9 10 10 14 20 18 19 18 17 18 17 18 17 14 15 14 17 16 14 16 16 20 19 19 21 16 21 23 19 18 15 17 18 19 21 21 18 26 28 28 28 31 33 38 36 39 38 37 37 36 37 35 36 38 38 38 39 40 41 41 42 44 43 43 43 43 44 45 44 44 43 43 43 47 47 47 48 49 50 49 49 50 50 50 49 48 51 49 51 0 0 0 0 0
    0 0 0 0 0 0 0 0 0 0 0 0 0 0 0 0 0 0 0 0 0 0 0 0 0 0 0 0 0 0 0 0 0 0 0 0 0 0 0 0 0 0 0 0 0 0 0 0 0 0 0 0 0 0 0 0 0 0 0 0 0 0 0 0 0 0 0 0 0 10 0 0 0 0 9 0 0 0 0 0 11 -193 -209 -209 -209 187 195 -209 -209 -209 15 13 15 17 16 16 16 14 15 12 14 10 10 10 10 9 9 0 0 0 0 0 0 0 0 0 0 0 0 9 9 9 10 10 10 9 0 0 0 0 0 0 0 0 9 0 0 11 10 10 10 0 0 0 9 9 0 0 0 0 0 0 0 0 0 0 0 0 0 0 0 0 0 0 9 9 0 0 0 0 0 0 0 0 0 0 0 0 0 0 0 0 -193 0 0 0 0 0 0 0 0 0 10 0 0 11 0 0 0 0 0 0 0 0 0 0 0 9 12 13 14 12 17 16 15 17 13 12 13 12 12 11 11 11 9 10 10 10 10 13 20 17 19 17 17 18 17 18 17 15 16 14 17 17 15 17 17 19 19 19 21 17 20 23 19 18 15 17 18 19 21 22 19 27 29 29 30 33 34 39 38 40 39 39 38 38 39 37 38 40 39 40 40 41 41 41 42 43 42 42 42 43 43 45 44 44 42 43 44 48 48 49 48 49 50 49 49 50 50 50 50 48 52 49 51 0 0 0 0 0
    0 0 0 0 0 0 0 0 0 0 0 0 0 0 0 0 0 0 0 0 0 0 0 0 0 0 0 0 0 0 0 0 0 0 0 0 0 0 0 0 0 0 0 0 0 0 0 0 0 0 0 0 0 0 0 0 0 0 0 0 0 0 0 0 0 0 0 0 0 10 8 0 0 0 9 0 0 0 0 0 11 0 0 0 -193 -193 -193 -209 -209 -209 14 13 15 17 16 16 16 14 15 11 12 9 9 9 9 9 9 0 0 0 9 9 9 9 0 0 0 0 9 9 9 9 10 9 10 9 0 0 0 0 0 0 0 0 8 0 0 10 9 9 9 0 0 0 9 0 0 0 0 0 0 0 0 0 0 0 0 0 0 0 0 0 0 0 9 9 0 0 0 0 0 0 0 0 0 0 0 0 0 0 0 0 -193 0 0 0 0 0 0 0 0 0 9 0 0 11 0 0 0 0 0 0 0 0 0 0 9 10 15 17 19 19 22 20 19 20 15 13 13 13 12 11 11 11 10 10 10 9 10 12 -193 16 18 16 16 18 17 18 17 15 17 14 17 17 15 18 17 20 20 19 21 18 21 23 19 17 15 17 18 20 22 22 21 27 30 30 31 33 34 40 40 41 40 39 40 39 -193 39 40 41 40 41 41 -193 42 -193 42 44 42 42 42 42 43 44 43 44 42 42 44 49 49 49 48 49 49 49 49 49 49 49 50 48 52 49 52 0 0 0 0 0
    0 0 0 0 0 0 0 0 0 0 0 0 0 0 0 0 0 0 0 0 0 0 0 0 0 0 0 0 0 0 0 0 0 0 0 0 0 0 0 0 0 0 0 0 0 0 0 0 0 0 0 0 0 0 0 0 0 0 0 0 0 0 0 0 0 0 0 0 0 11 9 9 9 9 9 9 0 0 0 0 11 0 0 0 0 -193 -209 -209 -209 10 15 14 16 17 17 17 16 14 15 11 12 9 9 9 9 9 10 0 9 9 13 12 13 12 10 9 9 9 9 0 9 0 9 9 9 0 0 0 0 0 0 0 0 0 0 0 0 9 0 0 0 0 0 0 0 0 0 0 0 0 0 0 0 0 0 0 0 0 0 0 0 0 0 0 9 9 0 0 0 0 0 0 0 0 0 0 0 0 0 0 0 0 -193 0 0 0 0 0 9 9 9 0 9 0 0 10 0 0 0 0 0 0 0 0 0 0 8 10 17 21 23 23 25 22 21 21 15 13 14 13 12 11 11 11 10 10 10 9 9 11 -193 15 18 15 16 18 17 19 17 15 18 15 18 18 16 19 18 21 20 20 22 19 21 23 19 17 15 17 19 20 22 23 -193 27 30 31 31 34 33 40 41 41 40 40 40 -193 -177 40 -193 -193 41 42 43 157 -193 -193 43 44 42 42 42 42 42 44 43 43 42 42 44 49 49 48 47 47 48 47 48 48 48 48 49 47 52 49 52 0 0 0 0 0
    0 0 0 0 0 0 0 0 0 0 0 0 0 0 0 0 0 0 0 0 0 0 0 0 0 0 0 0 0 0 0 0 0 0 0 0 0 0 0 0 0 0 0 0 0 0 0 0 0 0 0 0 0 0 0 0 0 0 0 0 0 0 0 0 0 0 0 0 0 11 9 10 9 9 9 9 0 0 0 0 11 0 0 0 0 -193 -209 -209 -193 10 15 14 16 18 17 17 16 14 14 11 12 9 9 10 10 10 -193 -193 -193 11 20 17 16 14 12 11 10 10 10 0 9 9 10 9 9 0 0 0 0 0 0 0 0 0 0 0 0 0 0 0 0 0 0 0 0 0 0 0 0 0 0 0 0 0 0 0 0 0 0 0 0 0 0 0 9 0 0 0 0 0 0 0 0 0 0 0 0 0 0 0 0 0 -193 0 0 0 0 0 9 10 9 9 9 0 0 10 0 0 0 0 0 0 0 0 0 0 9 11 19 24 25 25 27 24 23 22 16 14 14 13 12 11 12 11 10 9 9 9 9 11 -193 14 18 15 16 18 18 19 18 16 18 15 18 18 17 19 19 21 21 21 22 20 21 23 19 16 15 17 19 21 23 23 -177 28 31 32 32 35 33 41 42 42 40 40 41 -193 -177 -193 -209 -193 41 42 43 157 -193 -193 43 44 42 42 42 42 42 44 43 43 42 42 44 49 48 48 47 47 48 47 47 48 48 48 49 47 53 49 52 0 0 0 0 0
    0 0 0 0 0 0 0 0 0 0 0 0 0 0 0 0 0 0 0 0 0 0 0 0 0 0 0 0 0 0 0 0 0 0 0 0 0 0 0 0 0 0 0 0 0 0 0 0 0 0 0 0 0 0 0 0 0 0 0 0 0 0 0 0 0 0 0 0 0 11 9 10 10 10 9 9 9 0 9 0 11 0 0 0 0 -193 -209 -193 -193 10 15 15 15 17 16 16 16 14 14 11 12 10 10 11 11 12 -193 -177 -193 -193 23 19 18 17 15 11 10 10 11 0 0 9 10 9 9 0 0 0 0 0 0 0 0 0 0 0 0 0 0 0 0 0 0 0 0 0 0 0 0 0 0 0 0 0 0 0 0 0 0 0 0 0 0 0 9 9 0 0 0 0 0 0 0 0 0 0 0 0 -193 0 0 0 0 0 0 0 0 0 9 11 10 10 9 0 0 10 0 0 0 0 0 0 0 0 0 9 10 12 21 26 27 28 29 26 25 23 18 14 14 12 12 11 12 12 10 10 9 9 9 10 -193 14 17 14 16 19 18 20 18 16 19 16 18 18 18 19 20 22 22 22 23 21 22 23 20 16 16 17 19 21 23 24 560 28 31 32 32 35 33 41 42 41 40 40 41 40 -193 41 -193 -193 -209 42 43 157 -193 44 43 44 42 42 42 42 43 44 42 43 42 42 44 49 49 48 47 47 48 47 47 48 48 48 49 47 53 50 52 0 0 0 0 0
    0 0 0 0 0 0 0 0 0 0 0 0 0 0 0 0 0 0 0 0 0 0 0 0 0 0 0 0 0 0 0 0 0 0 0 0 0 0 0 0 0 0 0 0 0 0 0 0 0 0 0 0 0 0 0 0 0 0 0 0 0 0 0 0 0 0 0 0 0 12 10 11 10 10 9 10 9 9 9 9 11 0 0 0 0 -193 -193 -193 10 9 14 16 15 18 16 16 16 14 15 12 12 10 11 -193 -193 -193 -177 -177 -177 -209 24 20 18 18 15 11 11 11 11 0 0 9 10 9 9 0 0 0 0 0 0 0 0 0 0 0 0 0 0 0 0 0 0 0 0 0 0 0 0 0 0 0 0 0 0 0 0 0 0 0 0 0 0 0 9 9 0 0 0 0 0 0 0 0 0 0 0 0 -193 0 0 0 -193 0 0 0 0 0 10 12 12 11 9 0 0 11 0 0 0 0 0 0 0 0 0 10 14 16 24 27 30 32 33 31 33 24 18 14 14 12 11 11 12 12 11 10 10 9 9 10 18 14 17 14 17 19 19 21 19 17 20 17 19 19 18 20 20 23 23 22 24 22 22 23 20 16 16 17 19 20 23 24 560 -193 30 31 32 34 32 40 41 41 40 40 41 40 -193 41 -209 -193 -209 42 43 157 -193 44 43 44 42 43 43 42 43 44 43 43 42 42 45 48 48 48 47 46 48 47 47 48 48 48 49 47 54 50 53 0 0 0 0 0
    0 0 0 0 0 0 0 0 0 0 0 0 0 0 0 0 0 0 0 0 0 0 0 0 0 0 0 0 0 0 0 0 0 0 0 0 0 0 0 0 0 0 0 0 0 0 0 0 0 0 0 0 0 0 0 0 0 0 0 0 0 0 0 0 0 0 0 0 0 12 10 11 11 10 9 10 10 9 10 10 12 0 9 10 9 9 -193 10 11 10 13 17 15 17 16 16 16 15 15 12 12 11 13 -193 17 -193 -177 -177 -177 -209 25 -193 18 17 14 10 10 11 11 0 0 9 10 9 0 0 0 0 0 0 0 0 0 0 0 0 0 0 0 0 0 0 0 0 0 0 0 0 0 0 0 0 0 0 0 0 0 0 0 0 0 0 0 0 9 9 9 0 0 0 0 0 0 0 0 0 0 0 -193 0 0 0 -193 0 0 0 0 0 12 18 19 14 10 0 0 12 0 0 9 -193 0 0 0 9 0 11 17 20 26 29 31 34 34 31 34 25 20 15 15 12 11 12 12 11 11 10 11 10 10 11 18 14 17 14 17 18 19 21 19 17 21 18 19 19 19 20 -193 -193 -193 23 25 22 23 24 20 16 16 17 19 20 23 -193 -177 -193 30 32 32 34 32 39 39 40 40 40 40 40 40 41 -209 -193 -193 41 43 156 -193 44 43 44 42 43 43 42 43 45 43 43 42 43 44 48 48 47 46 46 48 47 47 48 48 48 49 46 54 50 53 0 0 0 0 0
    0 0 0 0 0 0 0 0 0 0 0 0 0 0 0 0 0 0 0 0 0 0 0 0 0 0 0 0 0 0 0 0 0 0 0 0 0 0 0 0 0 0 0 0 0 0 0 0 0 0 0 0 0 0 0 0 0 0 0 0 0 0 0 0 0 0 0 0 0 12 10 11 11 11 9 10 10 9 10 10 12 0 9 12 10 11 11 11 12 10 13 18 14 17 15 16 16 15 15 13 12 13 15 21 21 22 -209 -193 -193 -209 26 -193 19 -193 15 11 10 11 11 0 0 9 9 0 0 0 0 0 0 0 0 0 0 0 0 0 0 0 0 0 0 0 0 0 0 0 0 0 0 0 0 0 0 0 0 0 0 0 0 0 0 0 0 0 9 10 10 0 0 0 0 0 0 0 0 0 -193 -193 -193 0 -193 -193 -193 -193 -193 -193 0 -177 17 25 25 22 15 10 9 13 0 0 10 0 0 0 0 10 0 13 19 23 28 30 32 35 35 32 35 27 21 17 16 13 12 12 12 11 11 10 11 11 11 12 17 14 17 14 17 18 19 21 19 17 21 18 19 19 19 20 -193 -193 -193 23 25 -193 -193 24 21 16 16 17 19 20 23 -193 -177 158 29 32 32 33 31 38 38 39 39 39 40 39 40 40 -209 -209 -193 -193 42 -193 -193 44 43 44 42 43 43 42 43 45 43 43 42 43 44 47 47 46 45 45 47 46 47 47 48 47 49 46 54 50 53 0 0 0 0 0
    0 0 0 0 0 0 0 0 0 0 0 0 0 0 0 0 0 0 0 0 0 0 0 0 0 0 0 0 0 0 0 0 0 0 0 0 0 0 0 0 0 0 0 0 0 0 0 0 0 0 0 0 0 0 0 0 0 0 0 0 0 0 0 0 0 0 0 0 0 12 10 11 11 11 9 10 10 9 9 9 12 9 10 12 11 11 12 12 13 11 14 19 14 17 15 16 16 15 15 15 13 15 -193 -193 24 25 28 29 29 28 28 25 21 21 18 13 11 11 11 9 0 9 10 9 9 9 0 0 0 0 0 0 0 0 0 0 0 0 0 0 0 0 0 0 0 0 0 0 0 0 0 0 0 0 0 0 0 0 0 0 0 0 0 0 9 10 11 9 9 -193 -209 -209 -209 -193 -209 -209 -209 -209 -193 -209 -193 -193 -193 -193 -193 -193 -193 11 24 27 29 26 22 13 10 14 0 0 9 0 0 0 0 10 9 16 23 24 29 31 32 34 35 32 33 28 22 18 16 14 12 12 12 11 10 10 11 11 11 11 17 14 17 15 17 17 18 21 19 17 21 19 19 19 -193 21 -193 -193 -177 24 26 -193 -209 24 -177 16 16 17 19 19 23 -193 155 157 29 32 32 33 31 37 37 38 39 39 39 39 39 40 -209 -209 -193 -193 42 -193 42 44 43 44 42 43 43 42 43 45 42 43 42 43 44 47 47 46 45 45 47 46 46 47 48 47 50 46 54 50 54 0 0 0 0 0
    0 0 0 0 0 0 0 0 0 0 0 0 0 0 0 0 0 0 0 0 0 0 0 0 0 0 0 0 0 0 0 0 0 0 0 0 0 0 0 0 0 0 0 0 0 0 0 0 0 0 0 0 0 0 0 0 0 0 0 0 0 0 0 0 0 0 0 0 0 12 10 11 11 11 9 10 10 9 9 9 13 10 10 13 12 12 13 13 14 12 14 20 15 17 16 16 17 15 17 18 15 -193 -193 26 26 27 29 31 31 30 29 26 22 22 20 15 13 12 12 9 9 11 11 10 10 10 9 10 10 11 0 0 0 0 9 0 0 0 0 0 0 0 0 0 0 0 0 0 0 0 0 0 0 0 9 0 0 0 9 9 9 9 0 0 10 13 15 14 19 26 32 31 32 30 30 -193 -193 -209 -209 -193 -193 -193 -193 10 -193 -193 -193 16 26 31 35 32 -209 -209 -193 -193 0 0 9 0 0 0 0 10 -209 23 26 27 30 33 33 34 35 34 34 31 -209 20 17 15 12 12 12 10 10 10 12 12 12 11 17 14 16 15 17 17 18 21 19 17 21 19 19 20 -193 21 -193 -193 -193 25 26 23 24 24 -177 16 16 17 19 -193 -193 -193 156 157 29 31 32 32 31 36 36 37 38 38 39 38 39 40 -193 41 41 40 42 41 42 43 43 43 41 42 42 42 43 44 42 43 42 43 44 48 49 47 46 46 48 47 46 47 47 47 49 46 54 50 54 0 0 0 0 0
    0 0 0 0 0 0 0 0 0 0 0 0 0 0 0 0 0 0 0 0 0 0 0 0 0 0 0 0 0 0 0 0 0 0 0 0 0 0 0 0 0 0 0 0 0 0 0 0 0 0 0 0 0 0 0 0 0 0 0 0 0 0 0 0 0 0 0 0 0 12 10 11 11 11 9 10 10 9 9 9 15 10 11 14 13 13 14 14 15 12 15 20 15 17 16 17 17 17 19 20 17 -193 -193 27 28 28 30 31 32 32 29 26 21 20 19 15 13 12 12 10 11 12 12 12 11 12 11 13 14 17 10 0 0 10 13 0 0 0 0 0 0 0 0 -193 0 0 0 0 0 0 9 9 9 10 10 10 11 10 12 12 13 12 10 9 12 20 20 21 25 29 37 34 34 32 33 30 28 27 27 19 11 12 11 12 -193 -193 -209 21 29 35 38 37 -209 -209 -193 -193 -193 0 -193 0 0 9 0 12 -209 25 28 28 31 34 34 34 35 34 34 32 37 22 19 16 13 12 12 10 10 10 12 12 12 12 17 14 16 16 17 16 18 21 19 17 21 19 19 20 -193 21 23 25 25 25 26 23 23 24 -177 16 17 17 19 19 -193 -193 156 157 28 31 31 31 30 36 35 36 38 38 38 38 39 39 39 41 40 40 41 40 41 42 42 42 41 42 42 41 42 44 42 43 43 44 45 48 49 48 46 47 49 47 47 47 47 46 48 45 53 49 53 0 0 0 0 0
    0 0 0 0 0 0 0 0 0 0 0 0 0 0 0 0 0 0 0 0 0 0 0 0 0 0 0 0 0 0 0 0 0 0 0 0 0 0 0 0 0 0 0 0 0 0 0 0 0 0 0 0 0 0 0 0 0 0 0 0 0 0 0 0 0 0 0 0 0 11 10 11 11 11 9 10 9 0 8 0 15 11 11 14 13 13 14 15 16 12 14 20 15 18 17 18 19 18 20 21 19 25 25 29 28 28 29 31 31 31 30 27 21 20 20 15 13 13 13 11 12 14 14 13 12 14 14 18 19 22 22 12 12 21 20 -193 0 0 0 0 0 0 -193 -193 -193 -193 0 9 10 9 10 10 9 11 12 12 14 15 17 20 -193 -193 17 13 19 25 24 25 26 30 37 35 35 33 34 33 30 29 30 26 18 17 19 18 23 25 25 25 32 37 39 39 -209 -209 270 -209 -209 0 -209 -209 -193 10 10 -193 -209 28 31 30 31 34 34 34 35 34 35 33 39 -193 22 19 16 12 12 10 10 10 13 12 12 12 17 14 17 16 17 16 19 21 19 18 21 19 19 20 20 20 23 25 25 25 26 23 23 23 -177 17 17 18 19 19 -193 -193 156 157 28 30 31 31 30 36 35 36 38 38 38 39 39 38 39 40 39 39 41 40 40 41 41 41 41 41 41 41 41 43 42 43 43 44 45 48 49 48 47 48 49 48 47 48 48 47 48 45 53 48 52 0 0 0 0 0
    0 0 0 0 0 0 0 0 0 0 0 0 0 0 0 0 0 0 0 0 0 0 0 0 0 0 0 0 0 0 0 0 0 0 0 0 0 0 0 0 0 0 0 0 0 0 0 0 0 0 0 0 0 0 0 0 0 0 0 0 0 0 0 0 0 0 0 0 0 11 10 11 11 11 9 9 9 0 0 0 16 11 11 14 14 13 15 15 16 12 14 20 15 18 18 19 20 20 22 22 21 26 27 29 29 28 30 32 32 32 31 28 24 24 25 20 16 15 14 13 13 16 16 15 14 17 17 21 22 25 27 23 20 25 25 -193 10 17 0 0 11 -209 -193 -177 -193 -193 9 11 11 10 10 11 10 13 14 19 21 24 25 26 -193 26 26 24 25 26 26 27 28 33 38 36 36 35 36 35 33 33 33 29 25 24 25 25 26 28 28 28 35 38 39 40 -209 -209 -177 -177 -209 0 -209 -209 -193 -209 -193 -193 31 30 33 32 32 34 34 34 34 34 35 33 37 32 26 23 20 13 13 11 10 11 13 13 12 12 17 14 17 16 17 16 19 21 19 18 21 20 19 20 20 21 23 25 25 25 26 23 23 23 22 17 18 18 19 -193 -193 -193 157 157 28 30 31 31 30 36 35 36 38 38 38 39 38 38 38 39 39 39 40 39 39 41 40 41 40 41 41 40 41 43 42 43 43 44 45 47 48 47 46 48 49 48 48 48 48 47 48 45 52 47 51 0 0 0 0 0
    0 0 0 0 0 0 0 0 0 0 0 0 0 0 0 0 0 0 0 0 0 0 0 0 0 0 0 0 0 0 0 0 0 0 0 0 0 0 0 0 0 0 0 0 0 0 0 0 0 0 0 0 0 0 0 0 0 0 0 0 0 0 0 0 0 0 0 0 0 11 10 11 11 11 9 10 9 0 0 -177 17 11 11 13 13 13 14 15 16 12 14 20 16 18 18 19 21 21 23 24 23 27 28 30 29 28 31 33 33 34 32 29 26 27 27 23 19 17 15 14 15 18 17 17 16 19 -193 -193 26 29 33 29 27 28 28 29 24 27 -193 -209 24 -209 -177 -177 -193 -193 10 11 11 10 10 10 10 15 20 25 27 27 27 28 28 28 28 26 27 28 29 30 31 35 38 37 37 36 37 37 35 35 35 32 28 27 27 27 28 31 31 31 36 38 39 40 -209 -209 -177 -177 -209 -209 -209 -209 -209 -209 -209 29 36 34 35 34 33 34 34 34 34 34 35 34 36 36 33 30 24 17 14 11 9 11 14 13 12 13 17 15 17 17 18 16 19 21 20 18 21 20 20 21 21 21 23 25 25 25 26 23 23 23 -177 17 18 18 19 -193 -193 -193 157 157 28 31 32 31 31 36 36 36 38 38 39 39 39 38 38 39 38 38 40 39 39 40 40 40 40 40 40 40 40 43 42 43 43 44 45 47 48 47 46 48 49 48 48 48 48 47 48 45 51 46 49 0 0 0 0 0
    0 0 0 0 0 0 0 0 0 0 0 0 0 0 0 0 0 0 0 0 0 0 0 0 0 0 0 0 0 0 0 0 0 0 0 0 0 0 0 0 0 0 0 0 0 0 0 0 0 0 0 0 0 0 0 0 0 0 0 0 0 0 0 0 0 0 0 0 0 11 10 11 11 11 9 10 9 0 0 -193 18 12 11 13 13 13 15 16 16 12 15 20 16 19 19 20 22 23 24 25 25 28 29 31 30 29 32 34 33 34 32 29 28 29 28 25 22 19 17 17 18 20 19 20 20 -209 -209 -193 33 32 35 33 29 31 30 31 27 32 34 26 27 -193 -209 -177 -193 -193 10 11 11 10 9 -193 -193 -193 -193 28 31 30 30 30 30 31 31 29 30 28 29 33 34 36 38 37 37 37 37 38 37 37 37 34 31 30 31 30 31 34 33 33 37 38 38 39 -209 -209 -193 -193 -193 -209 -177 -209 -209 -209 -209 37 39 37 37 35 34 34 34 34 34 33 34 33 35 34 33 32 30 23 17 12 9 11 14 13 12 13 17 15 17 17 17 16 19 21 20 19 22 20 20 21 22 21 23 25 25 25 26 22 22 -177 -177 17 18 18 19 -193 -193 157 158 157 29 32 33 32 31 37 37 36 38 38 39 39 39 38 37 39 39 39 40 39 39 40 39 40 40 40 39 39 40 42 41 43 43 43 45 47 48 48 46 49 49 48 48 48 47 46 47 45 50 46 48 0 0 0 0 0
    0 0 0 0 0 0 0 0 0 0 0 0 0 0 0 0 0 0 0 0 0 0 0 0 0 0 0 0 0 0 0 0 0 0 0 0 0 0 0 0 0 0 0 0 0 0 0 0 0 0 0 0 0 0 0 0 0 0 0 0 0 0 0 0 0 0 0 0 0 11 10 11 11 11 9 12 -193 -193 -193 -193 20 12 11 13 13 13 15 17 17 13 16 20 17 -193 20 21 -193 24 26 27 27 30 32 32 32 31 35 35 35 35 33 31 30 30 29 26 24 22 20 21 21 22 23 26 27 36 35 34 35 34 35 34 32 34 31 33 30 35 37 30 29 32 -193 -209 -193 -193 10 10 10 -193 -193 -193 -193 -193 -193 30 35 33 33 33 33 34 33 32 32 30 31 35 36 37 38 38 38 38 38 39 38 37 37 36 34 35 35 34 35 36 35 35 37 38 37 38 -209 -209 -209 -193 -193 -177 -177 -209 -209 -193 -177 -193 40 38 37 36 34 34 34 33 34 34 34 34 36 36 35 35 35 -193 22 13 9 11 14 13 12 12 16 14 17 17 17 16 20 21 20 20 22 21 22 23 23 22 24 25 25 26 26 22 22 -177 -177 18 18 18 19 -193 -193 158 159 158 29 32 33 33 32 38 37 37 39 38 39 39 38 38 36 38 38 39 40 39 39 40 39 40 39 39 39 39 39 41 41 42 42 43 45 47 48 48 46 49 49 49 48 48 47 46 47 44 50 47 48 0 0 0 0 0
    0 0 0 0 0 0 0 0 0 0 0 0 0 0 0 0 0 0 0 0 0 0 0 0 0 0 0 0 0 0 0 0 0 0 0 0 0 0 0 0 0 0 0 0 0 0 0 0 0 0 0 0 0 0 0 0 0 0 0 0 0 0 0 0 0 0 0 0 0 11 11 12 12 12 10 19 -209 -177 -193 -193 22 13 12 14 14 14 16 18 18 13 17 21 19 -193 22 23 26 26 28 30 29 31 33 34 34 33 35 36 36 36 35 33 33 33 30 27 25 24 23 23 24 24 28 31 35 37 35 35 35 34 35 34 34 35 32 36 33 37 38 35 32 35 29 29 -193 -193 -193 10 10 -193 -193 -209 -193 -209 -193 31 36 35 34 35 34 35 34 34 34 32 31 36 38 38 39 40 39 39 39 39 38 37 37 37 35 36 36 35 36 37 37 36 38 38 37 38 -209 -209 -209 -193 -177 -177 -209 -209 -209 -193 -193 -193 39 38 37 36 34 34 34 34 34 35 35 35 36 37 37 37 38 -193 -193 18 10 11 14 12 11 12 17 14 18 18 18 17 21 22 22 21 23 23 24 24 25 23 26 26 26 28 28 23 23 -177 -177 19 19 19 19 -193 -193 158 159 158 29 31 33 33 32 40 38 38 39 38 39 39 38 37 35 37 38 39 39 39 39 40 39 39 39 39 38 38 39 41 40 42 42 43 45 48 48 49 47 50 50 49 49 48 47 47 47 45 50 47 48 0 0 0 0 0
    0 0 0 0 0 0 0 0 0 0 0 0 0 0 0 0 0 0 0 0 0 0 0 0 0 0 0 0 0 0 0 0 0 0 0 0 0 0 0 0 0 0 0 0 0 0 0 0 0 0 0 0 0 0 0 0 0 0 0 0 0 0 0 0 0 0 0 0 0 12 12 13 14 14 11 -193 -209 -177 -193 -193 23 16 13 15 14 14 17 19 18 14 18 21 19 -193 23 23 28 27 30 31 31 33 34 34 35 33 36 36 37 37 36 34 34 34 30 27 25 23 24 25 26 28 31 33 36 38 36 36 35 35 35 34 35 36 32 37 34 38 -193 37 35 37 -193 -209 -177 -177 -209 10 9 -209 -193 -209 -209 -209 -193 33 36 36 35 35 35 35 35 35 34 32 32 36 38 39 39 40 39 39 39 40 38 38 37 37 35 36 36 36 37 37 38 37 38 38 36 38 -193 -209 -209 -193 -193 -209 -193 -209 -193 -193 -193 -193 39 38 37 36 34 34 34 34 34 35 36 35 36 37 37 38 38 -193 -193 24 24 12 18 14 13 15 19 16 19 19 19 18 23 23 23 23 24 23 25 25 25 23 25 25 25 28 29 23 23 23 23 20 20 20 19 19 20 -193 -177 -193 29 30 32 32 33 41 39 39 39 39 39 40 37 36 32 35 36 38 38 38 38 39 38 39 39 39 38 38 39 40 40 42 43 43 45 47 48 49 47 50 50 49 49 48 48 47 47 45 50 47 48 0 0 0 0 0
    0 0 0 0 0 0 0 0 0 0 0 0 0 0 0 0 0 0 0 0 0 0 0 0 0 0 0 0 0 0 0 0 0 0 0 0 0 0 0 0 0 0 0 0 0 0 0 0 0 0 0 0 0 0 0 0 0 0 0 0 0 0 0 0 0 0 0 0 0 12 12 14 15 15 13 26 -209 -193 -193 28 25 19 15 15 14 14 17 19 18 14 18 22 20 -193 -209 24 32 30 33 34 33 35 35 35 36 34 37 37 38 37 36 34 34 35 30 26 23 21 23 25 26 30 32 34 37 38 37 37 36 36 35 35 36 36 32 39 35 39 -209 38 37 -193 -177 -177 -177 -177 -177 -193 -209 -209 -209 -193 -193 -209 -193 34 37 36 35 36 35 36 35 35 34 32 31 35 37 38 39 40 40 40 40 41 39 39 38 38 36 36 36 36 37 38 38 37 38 38 36 37 36 -209 -209 -209 -209 -209 -209 -193 -193 -193 -193 -177 -193 37 37 36 35 34 35 35 35 36 37 36 37 38 38 38 39 39 38 30 38 17 22 17 15 20 21 19 20 20 21 21 25 24 25 25 25 25 26 26 26 24 26 23 25 29 33 28 25 25 24 22 23 22 20 19 18 -193 -193 -209 34 35 33 35 37 43 42 42 41 40 40 40 37 36 33 35 36 38 38 38 39 40 39 39 39 39 39 39 39 41 41 42 43 43 45 47 48 49 47 50 50 49 49 48 47 47 47 45 50 48 48 0 0 0 0 0
    0 0 0 0 0 0 0 0 0 0 0 0 0 0 0 0 0 0 0 0 0 0 0 0 0 0 0 0 0 0 0 0 0 0 0 0 0 0 0 0 0 0 0 0 0 0 0 0 0 0 0 0 0 0 0 0 0 0 0 0 0 0 0 0 0 0 0 0 0 14 14 16 17 18 16 27 -209 -209 30 31 28 24 19 18 15 15 18 20 19 15 20 23 22 -193 27 27 36 32 35 35 35 36 36 36 36 35 38 38 38 37 37 36 36 36 31 27 23 22 24 25 27 31 33 34 38 38 37 38 37 36 36 36 37 37 34 40 38 40 -209 -193 -193 -177 -177 -177 -177 -177 -177 -193 -193 -209 -209 294 293 -209 34 35 37 36 36 36 35 36 35 35 34 34 31 35 38 39 40 40 42 41 41 42 40 40 39 39 38 37 37 37 37 38 38 37 38 38 35 37 35 -209 -209 -209 -209 -209 -209 -193 -193 -193 -193 -177 -193 37 37 37 36 35 35 35 36 36 37 36 37 38 39 39 39 39 40 36 41 -193 30 30 30 30 28 24 -193 22 25 25 27 27 28 28 29 29 29 28 28 27 27 -193 -193 30 37 36 32 32 30 27 30 27 -209 22 10 -193 -209 -209 -193 41 40 41 40 43 43 43 41 40 39 40 37 37 34 36 38 39 38 38 39 40 39 39 40 39 39 39 39 41 41 42 43 42 44 47 48 49 46 51 50 49 49 48 47 47 48 45 50 48 48 0 0 0 0 0
    0 0 0 0 0 0 0 0 0 0 0 0 0 0 0 0 0 0 0 0 0 0 0 0 0 0 0 0 0 0 0 0 0 0 0 0 0 0 0 0 0 0 0 0 0 0 0 0 0 0 0 0 0 0 0 0 0 0 0 0 0 0 0 0 0 0 0 0 0 16 15 18 19 20 19 29 -193 -193 33 33 30 28 25 23 18 18 21 23 21 21 22 25 24 29 32 31 37 32 35 35 35 36 36 36 36 36 38 38 38 38 37 36 36 36 30 26 23 21 23 26 30 33 34 35 38 -177 -177 37 37 37 36 36 37 37 36 40 39 40 -209 -193 -193 305 307 307 305 -177 -177 -177 -193 -209 -209 292 290 -193 -193 35 37 36 36 35 35 36 36 35 34 35 34 36 39 40 41 41 43 42 42 43 42 41 40 40 40 39 39 39 39 39 39 38 38 37 35 36 35 -193 -209 -209 -177 -209 -177 -177 -193 -193 -193 -193 37 38 37 38 37 35 36 36 36 36 37 36 37 38 39 39 39 39 40 38 42 42 37 39 39 38 37 33 34 29 34 30 30 31 33 33 34 35 34 31 32 34 -193 -209 -209 33 37 38 38 40 40 37 39 40 41 37 -209 -209 -209 -209 -209 43 42 -193 -193 42 42 40 39 36 36 35 35 36 33 36 38 39 38 38 39 40 39 39 40 39 39 40 40 42 41 42 43 43 44 49 49 50 48 52 51 50 49 49 47 47 48 46 50 49 49 0 0 0 0 0
    0 0 0 0 0 0 0 0 0 0 0 0 0 0 0 0 0 0 0 0 0 0 0 0 0 0 0 0 0 0 0 0 0 0 0 0 0 0 0 0 0 0 0 0 0 0 0 0 0 0 0 0 0 0 0 0 0 0 0 0 0 0 0 0 0 0 0 0 0 19 18 20 22 23 23 34 40 -193 36 36 34 33 30 -193 -193 24 26 27 27 30 28 31 32 36 38 36 38 34 36 35 36 36 36 36 36 36 38 38 38 37 37 35 36 35 27 25 17 18 22 26 -193 -209 34 36 38 38 -177 37 36 36 34 35 35 36 35 39 38 40 -209 -193 -193 -177 308 307 306 -177 -177 -177 -209 -209 -209 -193 -193 30 37 36 37 37 37 35 36 36 36 36 35 36 36 37 40 40 41 42 43 42 42 43 42 41 41 40 40 39 39 39 39 38 39 38 37 37 35 35 35 35 -209 -209 -177 316 -193 -177 -193 -193 -193 -193 37 38 37 38 37 36 37 36 37 37 37 36 37 38 39 38 39 39 40 39 42 42 37 38 39 37 37 34 35 33 35 31 32 32 35 35 36 37 36 34 35 -193 -193 -209 -193 -193 -209 35 37 38 38 35 38 38 -193 32 33 -193 -209 -209 -209 -193 -193 41 41 42 41 40 41 39 39 39 37 38 36 39 40 40 39 39 41 41 40 40 40 40 40 40 40 42 41 42 43 43 44 48 51 51 50 53 52 50 49 49 48 47 49 47 51 50 50 0 0 0 0 0
    0 0 0 0 0 0 0 0 0 0 0 0 0 0 0 0 0 0 0 0 0 0 0 0 0 0 0 0 0 0 0 0 0 0 0 0 0 0 0 0 0 0 0 0 0 0 0 0 0 0 0 0 0 0 0 0 0 0 0 0 0 0 0 0 0 0 0 0 0 -193 25 26 29 38 36 39 40 37 37 36 36 35 35 34 31 31 34 36 38 38 38 37 37 38 39 38 38 35 36 36 36 36 37 36 37 37 38 38 38 37 37 35 35 34 25 22 12 15 23 -193 -209 -209 -193 37 38 38 36 36 35 35 33 35 36 37 37 40 39 40 -209 -193 -193 -193 309 307 -177 -177 -177 -209 -209 -209 -209 -209 -209 34 38 38 38 38 37 36 36 36 37 36 35 37 36 37 40 41 41 42 43 42 42 42 41 41 41 40 40 37 38 37 38 38 38 37 37 36 35 35 35 36 37 -193 -177 -177 -209 -209 -209 -193 -209 -193 37 38 38 38 38 36 37 37 37 37 38 37 38 39 40 40 41 41 41 41 42 43 38 38 38 37 36 34 35 35 37 33 33 34 36 37 37 38 37 33 34 -209 -209 -209 -209 -209 -209 33 36 37 36 33 35 32 -193 26 28 -193 -209 -209 -209 -193 -193 -193 -193 41 40 38 38 37 -209 -209 37 38 37 41 42 42 40 40 42 41 40 40 40 40 40 41 41 42 42 43 43 43 44 47 51 50 50 52 52 50 49 49 48 47 50 47 51 50 50 0 0 0 0 0
    0 0 0 0 0 0 0 0 0 0 0 0 0 0 0 0 0 0 0 0 0 0 0 0 0 0 0 0 0 0 0 0 0 0 0 0 0 0 0 0 0 0 0 0 0 0 0 0 0 0 0 0 0 0 0 0 0 0 0 0 0 0 0 0 0 0 0 0 0 -193 35 36 39 42 42 41 40 37 37 36 36 35 34 34 32 33 36 37 39 39 39 38 37 37 39 37 38 34 35 35 36 37 37 36 37 37 38 38 39 38 38 36 36 34 -193 20 10 15 24 -193 -209 -209 37 37 38 38 37 36 35 35 34 36 37 37 38 40 39 40 40 41 -193 42 -193 -193 -177 -177 -177 -209 -177 -177 278 -193 -193 36 39 39 39 38 39 38 38 38 38 38 37 39 39 37 41 42 42 42 43 42 41 41 40 40 39 39 39 36 38 37 38 38 39 37 37 37 35 35 36 37 38 -193 -193 -193 -209 -209 -209 -209 -209 34 35 38 37 37 38 37 37 37 37 38 38 38 39 40 41 41 42 43 42 43 43 43 38 39 38 37 37 36 38 38 40 37 37 37 38 39 39 39 39 35 36 38 -209 -209 37 -209 -209 35 37 37 35 32 33 30 28 28 28 29 -193 35 38 39 39 36 36 37 36 34 34 34 35 30 36 37 37 42 42 42 40 41 42 42 41 41 41 41 42 42 42 43 43 44 44 44 45 46 51 50 51 52 51 50 49 49 49 48 50 48 51 51 50 0 0 0 0 0</data></disparity>
</opencv_storage>
