<?xml version="1.0"?>
<opencv_storage>
<gps_time_stamp>38622</gps_time_stamp>
<gps_x>-1.3713077545166016e+001</gps_x>
<gps_y>1.5004876852035522e+000</gps_y>
<gps_z>-4.0508575439453125e+000</gps_z>
<image_time_stamp>26567</image_time_stamp>
<disparity type_id="opencv-matrix">
  <rows>91</rows>
  <cols>320</cols>
  <dt>s</dt>
  <data>
    0 0 0 0 0 0 0 0 0 0 0 0 0 0 0 0 0 0 0 0 0 0 0 0 0 0 0 0 0 0 0 0 0 0 0 0 0 0 0 0 0 0 0 0 0 0 0 0 0 0 0 0 0 0 0 0 0 0 0 0 0 0 0 0 0 0 0 0 0 10 10 11 11 10 10 10 10 10 11 11 11 11 11 12 11 11 12 12 12 12 12 13 14 15 14 13 13 0 0 0 0 0 0 0 0 0 0 0 0 0 0 0 0 0 0 0 0 0 0 0 0 0 0 0 0 10 0 0 0 0 0 0 0 0 0 0 0 0 0 0 0 0 0 0 0 0 0 -193 10 12 9 10 12 12 12 12 11 11 10 10 10 10 9 0 0 0 -225 -225 -225 -225 -225 15 -225 -225 -225 -225 -225 -225 -225 -225 -225 -209 15 14 15 13 13 14 14 14 14 13 14 -225 -209 -209 10 9 16 12 12 12 11 12 11 12 13 10 12 10 10 12 11 12 11 11 12 11 12 14 10 11 18 14 12 16 16 14 14 15 15 13 15 18 15 14 17 18 16 13 12 12 17 12 12 11 10 12 13 14 14 9 11 15 17 17 18 19 19 18 17 18 18 19 19 19 19 19 20 21 20 20 21 21 21 22 22 23 23 23 24 25 25 25 25 24 24 24 24 24 23 22 22 22 23 26 25 25 25 27 26 26 26 26 25 26 26 27 25 27 27 28 28 28 29 0 0 0 0 0
    0 0 0 0 0 0 0 0 0 0 0 0 0 0 0 0 0 0 0 0 0 0 0 0 0 0 0 0 0 0 0 0 0 0 0 0 0 0 0 0 0 0 0 0 0 0 0 0 0 0 0 0 0 0 0 0 0 0 0 0 0 0 0 0 0 0 0 0 0 10 10 11 10 11 10 10 10 11 12 12 11 12 12 12 11 11 11 11 10 10 10 10 11 12 11 12 12 0 0 0 0 0 0 0 0 0 0 0 0 0 0 0 0 0 0 0 0 0 0 0 0 0 0 0 0 9 0 0 0 0 0 0 0 0 0 0 0 0 0 0 0 0 0 0 0 0 0 -193 10 11 9 9 11 11 10 11 10 9 9 9 9 9 0 0 0 0 0 -225 -225 13 15 14 -225 -225 -225 -225 -225 -225 -193 0 0 9 12 12 12 12 12 12 13 14 14 14 15 -225 -209 -209 10 9 16 12 12 11 11 12 11 12 13 10 12 10 11 13 11 12 12 11 12 11 12 13 10 10 -209 13 12 17 17 15 15 15 16 13 16 19 15 14 17 18 15 12 12 12 16 12 12 11 10 12 14 14 14 10 14 17 18 18 19 20 19 18 18 19 19 19 19 19 19 19 20 20 20 20 21 21 20 21 22 22 22 22 23 24 24 25 25 25 24 24 24 24 23 22 21 22 23 26 25 26 26 27 26 26 26 26 25 26 26 27 26 28 28 31 31 30 31 0 0 0 0 0
    0 0 0 0 0 0 0 0 0 0 0 0 0 0 0 0 0 0 0 0 0 0 0 0 0 0 0 0 0 0 0 0 0 0 0 0 0 0 0 0 0 0 0 0 0 0 0 0 0 0 0 0 0 0 0 0 0 0 0 0 0 0 0 0 0 0 0 0 0 10 11 12 11 11 10 11 11 11 12 12 12 12 12 12 11 11 11 11 10 10 9 9 9 9 9 10 9 0 0 0 0 0 0 0 0 0 0 0 0 0 0 0 0 0 0 0 0 0 0 0 0 0 0 0 0 9 0 0 0 0 0 0 0 0 0 0 0 0 0 0 0 0 0 0 0 0 0 -193 10 11 10 9 11 10 10 11 10 9 9 0 0 0 0 0 0 0 0 -225 13 12 15 13 17 18 21 20 22 18 13 0 0 9 10 10 11 10 11 11 12 13 13 14 -193 -225 -209 -209 11 9 16 11 12 11 11 11 10 11 12 10 11 10 11 13 11 12 12 11 11 11 12 13 10 10 -209 14 12 18 17 16 16 16 16 14 17 19 15 14 16 17 14 12 12 12 15 12 11 10 10 12 13 13 14 10 14 16 18 18 19 20 19 18 20 19 19 18 19 19 19 19 20 19 19 20 21 21 20 21 22 22 22 22 23 23 24 25 24 25 24 24 24 24 23 22 21 22 24 27 26 26 26 27 26 26 26 26 25 26 26 27 27 29 29 33 33 31 32 0 0 0 0 0
    0 0 0 0 0 0 0 0 0 0 0 0 0 0 0 0 0 0 0 0 0 0 0 0 0 0 0 0 0 0 0 0 0 0 0 0 0 0 0 0 0 0 0 0 0 0 0 0 0 0 0 0 0 0 0 0 0 0 0 0 0 0 0 0 0 0 0 0 0 10 10 11 10 10 10 10 11 11 11 12 11 12 12 12 12 10 11 10 9 9 0 9 0 0 0 9 0 0 0 0 0 0 0 0 0 0 0 0 0 0 0 0 0 0 0 0 0 0 0 0 0 0 0 0 0 9 0 0 0 0 0 0 0 0 0 0 0 0 0 0 0 0 0 0 0 0 0 -193 10 11 10 9 10 10 10 10 10 0 0 0 0 0 0 0 0 0 0 -225 12 11 13 12 17 17 21 20 23 19 14 9 9 10 10 10 10 10 10 11 12 12 13 -193 -209 -225 -193 -193 12 10 15 11 12 11 -193 11 10 11 12 10 11 10 11 13 11 12 11 10 11 11 11 12 10 10 -209 14 12 18 18 16 16 17 17 14 18 20 14 14 16 16 13 12 12 12 14 12 11 10 10 12 13 13 14 10 15 16 18 18 20 19 19 19 20 19 18 18 19 19 19 19 19 18 19 20 21 21 20 22 22 22 22 22 23 23 24 25 24 25 25 25 25 24 23 22 21 22 24 28 26 26 27 27 26 27 27 27 25 26 26 27 28 30 30 33 33 32 33 0 0 0 0 0
    0 0 0 0 0 0 0 0 0 0 0 0 0 0 0 0 0 0 0 0 0 0 0 0 0 0 0 0 0 0 0 0 0 0 0 0 0 0 0 0 0 0 0 0 0 0 0 0 0 0 0 0 0 0 0 0 0 0 0 0 0 0 0 0 0 0 0 0 0 10 10 11 10 10 9 9 10 10 10 11 11 11 11 12 11 10 10 11 9 9 0 9 0 0 0 9 0 0 0 0 0 0 0 0 0 0 0 0 0 0 0 0 0 0 0 0 0 0 0 0 0 0 0 0 0 9 0 0 0 0 0 0 0 0 0 0 0 0 0 0 0 0 0 0 0 0 0 -193 10 11 10 9 10 10 10 11 10 9 0 0 0 0 0 0 0 0 0 -225 -225 10 11 10 13 13 18 18 21 18 13 9 9 10 10 9 9 9 9 -193 -193 -193 12 -209 -209 -209 -209 -193 13 11 15 11 12 11 -193 11 10 11 12 10 11 10 11 13 10 12 11 10 11 11 11 12 10 10 -209 13 12 18 18 17 16 17 17 14 19 20 14 14 15 16 13 12 12 11 13 11 11 10 10 11 12 13 13 11 16 17 19 18 20 19 18 19 19 18 18 18 19 19 19 19 18 19 20 20 21 20 20 22 22 22 22 22 23 23 24 24 23 24 24 24 24 24 24 22 21 22 24 29 27 27 27 26 26 26 26 27 26 26 26 27 28 33 32 34 33 32 33 0 0 0 0 0
    0 0 0 0 0 0 0 0 0 0 0 0 0 0 0 0 0 0 0 0 0 0 0 0 0 0 0 0 0 0 0 0 0 0 0 0 0 0 0 0 0 0 0 0 0 0 0 0 0 0 0 0 0 0 0 0 0 0 0 0 0 0 0 0 0 0 0 0 0 10 10 11 10 10 9 9 10 10 10 11 11 11 11 11 11 10 10 10 9 9 8 9 0 0 0 8 0 0 0 0 0 0 0 0 0 0 0 0 0 0 0 0 0 0 0 0 0 0 0 0 0 0 0 0 0 9 0 0 0 0 0 0 0 0 0 -193 0 0 0 0 0 0 0 0 0 9 9 -193 10 11 10 10 11 11 11 11 10 9 9 0 0 0 0 0 0 0 0 -225 -225 9 11 10 12 12 17 17 19 18 14 10 10 10 10 -193 -193 -193 -193 -193 -193 -193 -209 -209 -209 -209 -209 -177 13 12 15 11 12 11 -193 11 10 11 11 10 11 10 11 13 11 13 12 11 12 11 12 13 10 11 17 14 13 19 18 17 17 17 18 14 19 20 13 14 16 16 13 12 12 12 13 11 10 9 9 11 12 13 13 11 16 17 20 18 20 18 18 19 19 18 18 18 19 18 19 19 18 19 20 20 21 20 21 22 22 22 22 22 23 22 23 24 22 23 23 24 24 23 24 22 20 22 24 29 26 26 27 -193 25 26 26 26 25 26 26 27 29 34 32 34 33 33 33 0 0 0 0 0
    0 0 0 0 0 0 0 0 0 0 0 0 0 0 0 0 0 0 0 0 0 0 0 0 0 0 0 0 0 0 0 0 0 0 0 0 0 0 0 0 0 0 0 0 0 0 0 0 0 0 0 0 0 0 0 0 0 0 0 0 0 0 0 0 0 0 0 0 0 10 10 11 10 10 10 10 11 10 10 11 11 10 11 11 10 9 10 10 9 9 9 0 0 0 0 9 9 0 0 0 0 0 0 0 0 0 0 0 0 0 0 0 0 0 0 0 0 0 0 0 0 0 0 0 0 9 0 0 0 0 0 0 0 0 0 -193 0 0 0 0 0 0 0 0 0 9 9 -193 10 11 10 10 11 10 11 11 10 9 9 0 0 0 0 0 0 0 0 -225 11 9 11 12 14 15 19 19 20 19 16 13 11 11 10 -193 -193 -193 -193 -193 -209 -193 -193 -209 -209 -193 -193 -177 13 13 14 11 12 11 -193 11 10 11 11 10 11 10 11 13 11 13 12 11 13 12 12 13 10 11 17 14 13 19 18 18 17 17 17 14 19 20 13 14 16 16 13 12 12 12 12 11 9 9 9 10 12 12 13 12 17 18 20 19 20 19 19 20 19 19 19 18 19 18 19 19 18 19 20 20 20 20 21 22 22 22 22 22 23 22 23 23 21 21 23 23 23 21 23 21 19 22 24 28 26 26 27 -193 25 26 26 26 26 26 26 26 29 34 32 33 32 33 33 0 0 0 0 0
    0 0 0 0 0 0 0 0 0 0 0 0 0 0 0 0 0 0 0 0 0 0 0 0 0 0 0 0 0 0 0 0 0 0 0 0 0 0 0 0 0 0 0 0 0 0 0 0 0 0 0 0 0 0 0 0 0 0 0 0 0 0 0 0 0 0 0 0 0 10 10 11 10 11 10 10 11 10 10 12 11 10 11 10 10 9 9 10 0 9 9 0 0 0 0 9 9 0 0 0 0 0 0 0 0 0 0 0 0 0 0 0 0 0 0 0 0 0 0 0 0 0 0 0 0 0 0 0 0 0 0 0 0 0 0 -193 0 0 0 0 0 0 0 9 9 9 10 -193 10 11 10 10 11 10 11 11 10 9 9 0 0 0 0 0 0 0 0 -225 14 14 15 15 -225 -225 20 20 20 20 16 13 11 10 9 0 0 -193 0 -193 -209 10 11 -193 13 25 27 -209 13 13 13 11 11 10 -193 11 10 10 11 10 11 10 11 13 11 13 12 11 13 12 12 12 10 10 -193 13 13 19 18 17 17 17 17 14 19 20 12 14 15 16 13 12 12 13 12 11 10 9 10 11 12 13 13 13 18 19 20 19 20 19 19 20 20 19 19 18 19 18 19 19 18 19 20 20 21 21 21 23 22 21 21 22 23 21 23 23 19 20 22 22 22 19 23 21 21 23 25 27 26 26 27 25 25 26 26 26 26 26 26 26 29 32 31 32 31 32 32 0 0 0 0 0
    0 0 0 0 0 0 0 0 0 0 0 0 0 0 0 0 0 0 0 0 0 0 0 0 0 0 0 0 0 0 0 0 0 0 0 0 0 0 0 0 0 0 0 0 0 0 0 0 0 0 0 0 0 0 0 0 0 0 0 0 0 0 0 0 0 0 0 0 0 10 11 11 10 11 10 11 11 11 10 12 10 10 11 10 10 9 9 9 0 9 9 0 0 0 0 9 0 0 0 0 0 0 0 0 0 0 0 0 0 0 0 0 0 0 0 0 0 0 0 0 0 0 0 0 0 0 0 0 0 0 0 0 0 0 0 -193 0 0 9 0 0 0 0 9 9 10 10 0 10 10 10 11 12 11 11 12 11 10 10 9 9 0 0 0 0 0 0 10 15 18 16 16 -225 -225 -225 20 20 19 16 13 11 10 9 0 0 0 0 0 9 10 10 11 13 24 25 -209 13 14 12 10 11 10 -193 11 9 10 10 10 11 10 11 12 11 13 12 11 12 11 11 12 10 10 -193 12 12 19 17 17 16 17 17 14 19 19 12 14 15 16 13 12 12 14 12 12 10 10 11 12 13 14 13 14 19 20 20 19 21 19 19 20 20 19 18 18 19 18 20 19 18 19 20 21 21 21 21 23 22 21 21 22 23 21 22 22 18 18 21 21 21 16 22 22 21 23 25 27 26 26 28 26 25 26 26 27 26 27 26 26 29 32 31 32 31 32 32 0 0 0 0 0
    0 0 0 0 0 0 0 0 0 0 0 0 0 0 0 0 0 0 0 0 0 0 0 0 0 0 0 0 0 0 0 0 0 0 0 0 0 0 0 0 0 0 0 0 0 0 0 0 0 0 0 0 0 0 0 0 0 0 0 0 0 0 0 0 0 0 0 0 0 10 11 11 10 10 10 10 12 11 11 12 10 10 10 10 10 9 9 9 0 9 9 9 0 0 0 9 0 0 0 0 0 0 0 0 0 0 0 0 0 0 0 0 0 0 0 0 0 0 0 0 0 0 0 0 0 0 0 0 0 0 0 0 0 0 0 -193 0 0 9 0 0 0 0 9 9 10 10 0 10 10 10 11 12 12 12 12 11 11 11 10 10 9 0 0 0 0 0 0 9 -193 11 14 15 -225 17 18 18 17 15 13 11 -193 9 0 0 0 0 0 9 9 10 -209 12 25 -193 -209 13 15 12 10 11 10 -193 -193 9 10 9 10 11 9 11 11 11 12 12 11 13 12 12 12 10 11 14 11 11 18 16 17 16 16 16 14 19 19 11 14 14 15 13 12 13 14 12 12 10 11 11 12 13 14 13 15 20 21 20 19 21 19 19 20 20 19 18 18 19 18 20 19 18 19 20 21 21 20 21 23 22 21 22 22 23 21 22 22 17 16 21 21 21 17 22 22 22 23 25 26 26 26 28 26 26 27 27 27 27 27 27 26 29 33 31 32 32 33 32 0 0 0 0 0
    0 0 0 0 0 0 0 0 0 0 0 0 0 0 0 0 0 0 0 0 0 0 0 0 0 0 0 0 0 0 0 0 0 0 0 0 0 0 0 0 0 0 0 0 0 0 0 0 0 0 0 0 0 0 0 0 0 0 0 0 0 0 0 0 0 0 0 0 0 10 10 11 10 11 10 10 11 11 10 12 10 10 10 10 10 9 9 9 0 9 9 0 0 0 0 0 0 0 0 0 0 0 0 0 0 0 0 0 0 0 0 0 0 0 0 0 0 0 0 0 0 0 0 0 0 0 0 -177 0 0 0 0 0 0 0 129 0 0 10 0 0 0 0 9 9 10 10 0 9 9 10 11 13 13 13 13 12 12 12 11 11 10 0 0 0 0 -193 -225 -209 -209 11 15 15 16 16 16 16 16 15 14 13 12 10 -193 0 9 0 9 9 9 9 -193 11 22 14 -209 13 15 11 10 11 10 -193 -193 9 10 9 10 11 9 11 11 11 12 11 12 13 12 12 12 11 11 14 11 11 18 16 16 15 16 15 13 19 18 11 14 14 15 13 12 14 14 12 12 11 11 11 13 14 13 13 16 20 20 20 19 21 18 19 20 19 18 18 18 20 18 20 19 18 19 20 21 21 20 21 23 23 22 22 22 23 22 22 22 17 17 21 22 21 17 22 22 22 23 25 25 25 26 28 27 26 27 27 27 27 28 27 26 30 33 31 31 32 32 32 0 0 0 0 0
    0 0 0 0 0 0 0 0 0 0 0 0 0 0 0 0 0 0 0 0 0 0 0 0 0 0 0 0 0 0 0 0 0 0 0 0 0 0 0 0 0 0 0 0 0 0 0 0 0 0 0 0 0 0 0 0 0 0 0 0 0 0 0 0 0 0 0 0 0 10 10 11 10 11 11 11 11 11 10 11 10 9 9 9 9 9 9 9 0 9 9 9 9 0 0 9 0 0 0 0 0 0 0 0 0 0 0 0 0 0 0 9 0 0 0 0 0 0 0 0 0 0 0 0 0 0 0 -177 0 0 9 0 0 9 0 130 0 0 10 0 9 0 0 9 9 10 10 0 9 9 10 11 13 14 13 13 12 12 12 12 11 10 0 0 0 -193 -209 -209 -209 -209 14 17 15 16 15 15 15 16 15 14 13 13 11 -193 9 10 9 10 10 10 10 9 11 18 13 -209 13 15 11 10 11 10 -193 -193 9 10 9 10 11 10 11 10 11 12 11 12 13 12 12 12 11 11 -193 10 10 17 15 15 14 15 14 13 19 17 11 13 14 15 12 12 15 14 13 13 12 12 12 13 14 13 14 17 19 20 20 18 20 18 19 19 18 18 18 19 20 18 20 20 19 20 20 21 20 20 21 23 22 21 22 22 23 23 23 23 19 19 23 23 22 18 22 22 22 23 24 25 25 27 29 27 27 28 28 28 28 28 27 26 30 33 31 30 31 32 32 0 0 0 0 0
    0 0 0 0 0 0 0 0 0 0 0 0 0 0 0 0 0 0 0 0 0 0 0 0 0 0 0 0 0 0 0 0 0 0 0 0 0 0 0 0 0 0 0 0 0 0 0 0 0 0 0 0 0 0 0 0 0 0 0 0 0 0 0 0 0 0 0 0 0 10 11 11 11 11 11 11 11 11 11 11 9 9 9 9 9 8 9 9 0 10 10 9 9 9 9 9 9 0 0 0 0 0 0 0 0 0 0 0 0 0 0 9 0 0 0 0 0 0 0 0 0 0 0 0 0 0 0 0 0 0 9 0 0 9 0 -193 0 0 11 9 10 9 9 9 9 10 10 0 0 0 9 11 13 14 13 13 11 12 12 11 11 10 0 0 0 -193 -209 -193 -209 -209 18 19 16 16 15 15 14 14 14 13 -193 12 11 -193 9 10 9 10 10 10 10 9 11 15 12 -193 13 15 11 10 11 10 -193 -193 9 10 9 10 11 10 11 10 11 12 11 12 14 12 11 12 11 11 -209 9 9 16 14 15 14 14 14 13 18 16 10 13 13 14 12 12 16 14 13 13 12 13 13 14 15 14 15 17 19 19 19 18 20 18 18 19 18 18 18 19 19 17 20 19 19 20 20 21 20 20 21 23 22 22 22 22 23 23 23 23 19 21 23 23 23 19 22 22 23 24 24 25 26 27 29 28 28 28 28 28 29 29 27 26 29 33 30 29 31 31 30 0 0 0 0 0
    0 0 0 0 0 0 0 0 0 0 0 0 0 0 0 0 0 0 0 0 0 0 0 0 0 0 0 0 0 0 0 0 0 0 0 0 0 0 0 0 0 0 0 0 0 0 0 0 0 0 0 0 0 0 0 0 0 0 0 0 0 0 0 0 0 0 0 0 0 10 11 12 11 11 11 11 12 11 11 12 10 9 9 9 9 9 9 9 9 10 10 9 9 9 10 9 0 0 0 0 0 0 0 0 0 9 0 0 8 0 9 9 0 0 0 0 0 0 0 0 0 0 0 0 0 0 9 9 0 8 10 0 0 10 0 -193 0 0 12 9 10 10 9 9 9 10 10 0 0 0 0 11 12 14 12 12 11 11 11 11 10 9 0 0 9 22 -209 -193 -209 34 -193 19 16 16 14 14 13 14 13 13 12 10 10 9 9 10 9 10 9 9 10 9 11 13 12 -193 12 15 10 10 11 10 -193 -193 9 10 0 10 11 10 11 10 11 12 11 12 13 13 11 12 11 11 -209 0 9 15 13 14 13 14 13 13 17 15 10 13 12 13 12 12 16 14 14 14 13 14 14 15 16 14 15 17 18 19 19 18 20 18 18 19 19 19 19 19 20 18 20 20 19 20 20 21 20 20 21 23 23 22 22 23 23 24 24 23 20 22 24 24 23 20 22 23 24 25 25 26 26 28 29 29 29 29 29 29 29 29 28 26 29 31 29 29 31 31 30 0 0 0 0 0
    0 0 0 0 0 0 0 0 0 0 0 0 0 0 0 0 0 0 0 0 0 0 0 0 0 0 0 0 0 0 0 0 0 0 0 0 0 0 0 0 0 0 0 0 0 0 0 0 0 0 0 0 0 0 0 0 0 0 0 0 0 0 0 0 0 0 0 0 0 9 11 11 11 11 11 11 12 11 11 12 10 10 10 10 9 0 9 9 9 9 10 9 9 9 9 9 0 0 0 0 0 0 0 0 0 10 0 0 9 9 9 9 0 0 0 0 0 0 0 0 0 0 0 0 0 0 9 9 9 9 11 0 0 10 0 -193 0 0 12 10 11 10 9 9 9 10 10 0 0 0 0 10 11 13 11 12 11 11 11 11 10 10 9 9 10 12 -209 -209 -209 -209 -193 19 17 17 14 14 13 14 13 13 13 10 11 10 10 10 9 10 9 9 10 9 10 12 12 -193 12 15 10 10 11 10 -193 -193 9 10 0 10 11 10 11 10 11 12 11 12 13 13 11 11 10 10 -193 0 0 14 12 13 13 13 13 12 17 15 10 12 12 13 12 12 15 14 14 15 14 14 14 16 17 15 16 17 18 19 18 19 20 18 19 19 19 19 19 20 19 18 20 19 19 19 20 21 20 20 21 23 23 22 22 23 24 24 24 23 20 22 24 24 23 21 23 23 24 25 25 26 27 28 30 30 30 30 30 30 30 30 29 27 29 30 29 28 31 30 29 0 0 0 0 0
    0 0 0 0 0 0 0 0 0 0 0 0 0 0 0 0 0 0 0 0 0 0 0 0 0 0 0 0 0 0 0 0 0 0 0 0 0 0 0 0 0 0 0 0 0 0 0 0 0 0 0 0 0 0 0 0 0 0 0 0 0 0 0 0 0 0 0 0 0 9 11 12 11 11 11 11 12 11 11 12 11 10 10 10 9 0 9 9 0 0 9 9 0 0 9 0 0 0 0 0 0 0 0 0 0 10 0 0 9 9 9 9 0 0 0 0 0 0 0 0 0 0 0 0 0 9 10 9 9 9 11 9 9 11 9 -193 0 0 13 10 12 11 9 10 9 10 10 0 0 0 0 9 9 12 10 12 11 12 11 11 10 10 9 9 9 10 11 -209 -209 -209 -209 20 18 -193 14 13 13 14 12 12 -193 10 11 10 10 10 10 10 9 9 10 9 10 12 12 -193 12 15 10 10 11 10 -193 10 9 10 0 10 11 10 11 9 11 12 10 12 13 13 11 11 11 9 0 0 0 13 12 13 12 13 13 13 16 15 10 12 12 13 12 12 15 14 14 16 14 15 15 17 17 15 16 17 18 18 17 18 19 18 18 19 19 19 19 20 19 17 19 19 18 19 20 21 20 20 21 23 23 22 22 23 24 24 24 24 21 23 24 24 24 22 23 24 25 26 26 27 27 29 30 30 30 30 30 30 30 30 29 27 28 29 28 28 31 30 29 0 0 0 0 0
    0 0 0 0 0 0 0 0 0 0 0 0 0 0 0 0 0 0 0 0 0 0 0 0 0 0 0 0 0 0 0 0 0 0 0 0 0 0 0 0 0 0 0 0 0 0 0 0 0 0 0 0 0 0 0 0 0 0 0 0 0 0 0 0 0 0 0 0 0 9 11 12 11 10 11 11 12 11 11 12 11 10 10 10 10 0 9 9 9 0 9 9 0 0 0 0 0 0 0 0 0 0 0 0 0 10 0 0 9 9 10 10 0 0 0 0 0 0 0 0 0 0 0 0 0 10 10 10 10 10 12 9 9 11 9 -193 0 0 14 11 12 11 10 10 9 10 10 0 0 0 0 0 0 10 10 11 10 11 10 11 10 10 9 9 9 0 9 0 -209 -209 -209 19 -193 -209 -193 -193 -193 -209 -193 11 -193 10 11 11 10 10 10 10 10 9 10 0 9 12 11 -193 12 15 10 10 11 10 11 10 9 11 9 11 12 11 11 10 12 12 10 12 14 13 12 11 12 10 0 0 0 14 12 13 12 13 13 13 17 15 11 12 12 13 12 12 15 13 15 16 14 15 15 17 16 15 16 16 17 18 17 19 19 18 18 20 19 19 19 19 19 18 19 19 18 19 20 21 20 20 21 23 23 22 22 23 24 24 24 24 22 23 25 25 24 23 24 25 25 26 26 27 27 29 30 30 30 31 31 31 30 31 28 27 28 29 28 29 32 30 29 0 0 0 0 0
    0 0 0 0 0 0 0 0 0 0 0 0 0 0 0 0 0 0 0 0 0 0 0 0 0 0 0 0 0 0 0 0 0 0 0 0 0 0 0 0 0 0 0 0 0 0 0 0 0 0 0 0 0 0 0 0 0 0 0 0 0 0 0 0 0 0 0 0 0 9 10 11 10 10 11 11 12 11 10 12 11 10 10 10 10 9 10 10 9 9 9 9 0 0 9 0 0 9 9 9 0 9 9 9 9 11 0 0 9 9 10 10 0 0 0 0 0 0 0 0 0 0 0 0 0 10 11 11 11 10 13 10 10 12 9 -193 9 0 14 11 13 11 10 10 10 11 10 0 0 0 0 0 0 10 9 10 10 10 10 10 10 10 9 9 9 0 0 0 -225 -193 -209 16 -209 -209 -193 -209 -193 -209 -193 10 12 10 12 11 10 10 10 10 10 9 10 0 9 11 11 -193 11 15 10 10 11 10 11 11 10 11 9 11 12 11 12 10 12 12 10 12 14 13 12 11 12 10 9 0 0 15 12 13 12 13 12 13 16 14 11 12 12 13 12 13 16 13 15 16 14 15 15 16 16 14 16 16 16 17 17 18 19 18 18 20 19 19 19 20 19 18 19 19 17 19 20 20 20 20 21 23 22 22 22 23 24 24 24 24 22 24 25 25 24 23 24 25 25 26 26 27 28 29 30 31 31 31 31 31 31 31 29 29 30 30 30 30 32 31 30 0 0 0 0 0
    0 0 0 0 0 0 0 0 0 0 0 0 0 0 0 0 0 0 0 0 0 0 0 0 0 0 0 0 0 0 0 0 0 0 0 0 0 0 0 0 0 0 0 0 0 0 0 0 0 0 0 0 0 0 0 0 0 0 0 0 0 0 0 0 0 0 0 0 0 9 10 11 11 9 11 11 12 10 10 12 11 10 10 10 10 9 10 10 9 9 9 9 9 9 9 9 0 9 9 0 0 0 0 0 0 10 0 0 9 9 9 10 0 0 0 0 0 0 0 0 0 0 0 0 0 11 11 11 11 11 13 10 11 13 10 10 9 9 14 11 13 11 10 10 10 10 10 0 0 0 0 0 0 9 9 10 9 10 10 10 10 10 9 10 9 9 0 -225 -225 -193 -225 -193 -209 -209 -209 -209 -209 -209 -209 9 11 9 12 11 10 10 10 10 10 9 10 0 9 11 11 -193 11 15 11 10 11 11 12 11 10 12 9 11 12 11 12 10 12 13 10 12 14 13 11 10 11 -209 0 0 0 15 13 13 12 13 13 13 17 14 11 12 12 13 12 13 15 13 16 17 15 15 16 16 16 15 16 15 15 17 17 18 18 18 18 19 19 19 19 20 19 18 19 19 17 19 20 20 19 19 21 23 22 22 22 23 24 25 24 24 23 24 25 25 24 24 24 25 25 27 26 28 28 30 30 32 31 31 31 32 31 31 29 29 30 31 30 30 31 31 30 0 0 0 0 0
    0 0 0 0 0 0 0 0 0 0 0 0 0 0 0 0 0 0 0 0 0 0 0 0 0 0 0 0 0 0 0 0 0 0 0 0 0 0 0 0 0 0 0 0 0 0 0 0 0 0 0 0 0 0 0 0 0 0 0 0 0 0 0 0 0 0 0 0 0 9 10 11 11 9 10 10 12 10 10 12 11 11 11 10 10 9 10 10 9 9 9 9 9 9 10 9 9 9 9 0 0 0 0 0 0 9 0 0 9 0 9 9 0 0 0 0 0 0 0 0 0 0 0 0 0 11 11 11 11 11 14 11 11 13 10 10 9 9 15 11 13 11 10 10 10 11 10 0 0 0 0 0 0 0 0 9 9 10 9 9 9 10 10 11 9 9 -225 -225 -225 -225 -225 -225 -209 -209 -193 -193 0 -209 -193 0 -209 9 11 11 10 10 10 10 10 9 10 0 9 11 12 -193 11 16 11 11 12 11 12 11 11 12 9 11 12 11 12 10 13 13 11 13 14 13 12 10 11 -209 9 0 9 16 13 13 13 13 13 13 17 14 11 13 12 13 12 14 15 13 17 17 15 15 17 17 16 16 17 15 15 18 17 18 19 18 18 20 19 20 19 20 18 18 19 19 17 18 20 20 19 19 21 23 22 22 23 23 24 25 25 24 24 25 25 25 25 24 24 25 26 27 27 29 29 31 30 32 31 32 31 33 31 30 29 28 29 29 29 29 29 29 30 0 0 0 0 0
    0 0 0 0 0 0 0 0 0 0 0 0 0 0 0 0 0 0 0 0 0 0 0 0 0 0 0 0 0 0 0 0 0 0 0 0 0 0 0 0 0 0 0 0 0 0 0 0 0 0 0 0 0 0 0 0 0 0 0 0 0 0 0 0 0 0 0 0 0 9 10 11 11 9 10 10 12 10 10 12 11 10 10 10 10 9 9 10 9 9 9 9 9 9 10 10 9 9 10 9 9 0 0 0 0 11 9 0 9 0 9 9 0 0 0 0 0 0 0 0 0 0 0 0 0 11 11 11 11 11 14 11 11 14 10 10 10 9 15 12 13 12 10 11 10 11 11 0 0 0 0 0 0 0 0 10 9 10 9 10 9 10 10 11 9 9 -225 -225 -225 -225 -225 -225 -225 -193 0 0 0 -209 0 0 -209 9 12 11 10 10 10 10 10 9 10 0 9 11 12 -193 10 16 12 11 12 11 12 11 11 13 9 11 12 11 12 10 13 13 11 13 14 14 13 10 11 -193 11 9 10 16 13 13 13 13 12 13 16 14 11 13 12 13 13 14 14 12 18 18 15 15 17 17 16 16 17 15 16 18 17 18 18 18 18 20 20 19 19 20 18 18 19 19 17 18 20 19 19 20 22 23 22 23 23 23 25 24 24 24 24 25 25 25 24 25 25 26 27 28 28 30 31 32 31 33 32 33 32 34 31 31 29 29 29 29 29 29 28 29 29 0 0 0 0 0
    0 0 0 0 0 0 0 0 0 0 0 0 0 0 0 0 0 0 0 0 0 0 0 0 0 0 0 0 0 0 0 0 0 0 0 0 0 0 0 0 0 0 0 0 0 0 0 0 0 0 0 0 0 0 0 0 0 0 0 0 0 0 0 0 0 0 0 0 0 0 10 10 11 9 10 10 12 10 10 12 11 10 10 10 10 9 9 9 9 9 9 9 9 9 9 9 9 9 10 9 9 0 0 0 0 10 9 0 0 0 9 9 0 0 0 0 0 0 0 0 0 0 0 0 0 10 11 11 11 11 13 11 11 14 10 10 10 10 15 12 13 12 10 11 10 11 11 0 0 0 0 0 0 0 0 9 9 9 9 9 9 10 10 10 0 0 -225 -225 -225 -225 -225 -225 -225 -193 0 0 0 -193 0 0 -209 9 12 11 11 10 11 10 10 9 10 0 0 10 12 -193 10 17 12 12 12 12 12 11 11 13 9 11 12 11 12 11 13 13 10 13 14 13 13 10 10 13 11 10 10 17 13 12 12 13 12 13 16 13 11 12 13 13 13 15 14 12 19 18 15 15 17 17 16 16 16 15 16 18 17 19 18 18 19 20 20 19 19 20 18 19 19 19 17 19 21 19 19 19 22 22 22 22 23 23 24 24 24 24 24 24 25 24 24 24 25 26 27 28 28 31 31 33 31 34 33 34 33 35 32 32 30 30 29 29 29 29 28 29 29 0 0 0 0 0
    0 0 0 0 0 0 0 0 0 0 0 0 0 0 0 0 0 0 0 0 0 0 0 0 0 0 0 0 0 0 0 0 0 0 0 0 0 0 0 0 0 0 0 0 0 0 0 0 0 0 0 0 0 0 0 0 0 0 0 0 0 0 0 0 0 0 0 0 0 9 10 10 11 9 11 10 11 10 9 12 11 10 10 10 9 9 9 9 0 0 9 9 8 9 9 9 9 9 10 9 0 0 0 0 0 9 0 0 0 0 9 9 0 0 0 0 0 0 0 0 0 0 0 0 0 9 10 10 10 -193 -193 11 11 14 -193 -193 9 9 15 11 13 11 10 11 10 11 11 0 0 0 0 0 0 0 9 9 9 9 9 9 9 9 9 9 0 -225 -225 -225 -225 -225 -225 -225 -225 0 0 0 0 -193 0 0 -209 9 12 11 11 11 11 11 10 10 10 0 0 10 13 10 9 17 12 12 12 12 12 11 11 13 9 11 12 11 13 11 14 13 10 13 14 13 13 10 11 15 12 10 11 17 13 12 12 13 11 13 15 13 11 12 12 13 13 16 14 13 19 18 14 15 17 17 15 16 17 15 16 18 17 19 18 19 19 20 19 19 19 20 17 19 19 19 16 19 21 18 19 19 22 21 21 21 22 22 24 24 24 23 24 24 25 24 23 24 25 26 27 28 28 30 31 33 31 34 33 34 33 35 32 33 30 31 30 30 29 30 28 28 29 0 0 0 0 0
    0 0 0 0 0 0 0 0 0 0 0 0 0 0 0 0 0 0 0 0 0 0 0 0 0 0 0 0 0 0 0 0 0 0 0 0 0 0 0 0 0 0 0 0 0 0 0 0 0 0 0 0 0 0 0 0 0 0 0 0 0 0 0 0 0 0 0 0 0 9 10 10 11 10 11 10 11 10 9 12 10 10 10 9 9 0 9 9 0 0 9 9 9 9 10 10 10 10 10 10 0 0 0 0 0 9 0 0 0 0 9 9 0 0 0 0 0 0 0 0 0 0 0 0 0 9 10 -193 -193 -193 -193 10 11 13 -209 -193 9 9 14 11 13 11 10 11 11 11 11 0 0 0 0 0 0 0 9 9 0 9 9 9 9 9 9 0 0 -225 -225 -225 -225 -225 -225 -225 0 0 0 0 0 0 0 -193 -209 9 13 11 11 11 11 11 11 10 10 0 9 10 14 9 9 17 12 12 12 12 12 11 12 14 9 11 11 11 12 10 13 13 10 13 13 12 12 10 11 15 12 10 11 16 13 12 12 13 11 13 15 12 10 12 12 13 13 15 14 13 19 18 14 15 17 16 15 16 17 15 16 18 17 19 18 18 18 19 19 19 19 19 16 19 19 19 17 20 21 18 19 20 22 21 21 21 22 23 24 24 24 23 24 25 25 24 24 25 25 26 27 28 29 30 29 31 29 32 31 33 32 33 31 33 30 31 30 31 29 30 28 29 29 0 0 0 0 0
    0 0 0 0 0 0 0 0 0 0 0 0 0 0 0 0 0 0 0 0 0 0 0 0 0 0 0 0 0 0 0 0 0 0 0 0 0 0 0 0 0 0 0 0 0 0 0 0 0 0 0 0 0 0 0 0 0 0 0 0 0 0 0 0 0 0 0 0 0 9 10 10 10 10 10 10 10 9 9 12 10 10 10 10 9 9 9 9 0 9 9 9 9 9 9 10 10 10 10 9 0 0 0 0 0 9 0 0 0 0 9 9 0 0 0 0 0 0 0 0 0 0 0 0 0 0 10 10 -193 -193 -193 10 11 13 -209 -193 9 9 13 11 12 11 10 11 11 11 11 0 0 0 0 8 10 0 9 9 0 9 9 9 9 9 9 0 0 -225 -225 -225 -225 -225 -225 -225 0 0 0 0 0 0 0 -193 -209 9 13 11 10 11 11 11 11 10 10 0 10 11 15 9 9 17 13 13 13 12 -193 11 12 14 9 10 10 11 12 10 13 13 10 12 12 11 11 10 10 14 11 10 12 16 13 13 13 13 11 14 16 12 10 13 12 13 14 15 14 13 19 18 15 15 17 16 15 17 17 16 16 18 17 19 18 18 18 19 18 19 19 19 15 19 20 20 19 21 22 19 20 20 22 21 21 21 22 22 23 23 23 23 24 25 25 24 24 25 25 26 26 27 29 30 29 30 29 31 31 32 31 31 31 32 29 31 30 32 30 30 28 29 30 0 0 0 0 0
    0 0 0 0 0 0 0 0 0 0 0 0 0 0 0 0 0 0 0 0 0 0 0 0 0 0 0 0 0 0 0 0 0 0 0 0 0 0 0 0 0 0 0 0 0 0 0 0 0 0 0 0 0 0 0 0 0 0 0 0 0 0 0 0 0 0 0 0 0 9 10 10 10 10 10 10 10 10 9 12 10 9 10 10 9 9 9 9 0 9 9 9 9 9 9 10 10 10 10 9 0 0 0 0 0 9 0 0 0 0 0 0 0 0 0 0 0 0 0 0 0 0 0 0 0 0 9 10 -193 -193 -193 10 11 13 9 10 9 9 12 10 12 11 10 11 11 11 11 9 10 0 0 9 11 9 9 9 9 9 10 10 9 9 9 8 0 -225 -225 -225 -225 -225 -225 0 0 0 0 0 0 0 0 9 -193 10 13 11 11 12 11 12 11 10 11 9 11 12 16 9 9 17 13 13 13 12 -193 11 12 13 9 10 10 10 12 10 13 13 11 12 12 11 11 9 9 14 11 10 12 16 13 13 13 13 11 14 16 12 10 14 13 14 14 15 14 13 19 18 15 15 17 16 16 17 17 16 16 18 17 19 18 18 18 18 18 18 19 20 14 20 21 21 20 21 22 19 20 21 22 21 21 21 22 22 23 23 23 23 25 25 25 25 25 25 25 25 25 27 32 30 30 31 29 31 31 32 31 30 31 32 29 31 31 33 31 30 28 29 30 0 0 0 0 0
    0 0 0 0 0 0 0 0 0 0 0 0 0 0 0 0 0 0 0 0 0 0 0 0 0 0 0 0 0 0 0 0 0 0 0 0 0 0 0 0 0 0 0 0 0 0 0 0 0 0 0 0 0 0 0 0 0 0 0 0 0 0 0 0 0 0 0 0 0 0 9 9 10 10 10 10 10 10 9 12 10 10 10 10 9 9 9 9 0 9 9 0 9 9 9 9 9 10 10 9 9 9 0 0 0 9 0 0 0 0 0 0 0 0 0 0 0 0 0 0 0 0 0 0 0 9 9 10 -193 -193 -193 10 11 12 9 10 9 9 12 10 12 11 10 11 11 11 11 10 11 0 0 10 11 9 10 9 9 9 10 10 9 9 10 9 0 0 -225 -225 -225 -225 -225 0 0 0 0 -193 0 -209 -193 11 13 11 13 12 12 13 12 12 11 11 12 10 12 13 16 10 9 17 13 13 13 12 -193 -193 12 13 9 9 9 10 11 10 12 12 10 12 11 11 11 9 0 14 11 10 13 16 13 13 13 14 11 14 15 11 10 15 14 15 15 15 14 14 18 17 14 15 16 16 16 17 17 16 17 18 18 20 18 18 18 18 18 17 19 19 14 21 21 21 21 21 22 19 20 20 22 21 21 21 22 22 23 23 23 23 25 26 26 25 25 25 25 26 26 28 32 30 30 31 29 30 30 31 30 29 30 30 29 31 31 33 31 30 28 29 30 0 0 0 0 0
    0 0 0 0 0 0 0 0 0 0 0 0 0 0 0 0 0 0 0 0 0 0 0 0 0 0 0 0 0 0 0 0 0 0 0 0 0 0 0 0 0 0 0 0 0 0 0 0 0 0 0 0 0 0 0 0 0 0 0 0 0 0 0 0 0 0 0 0 0 0 9 9 10 10 9 9 9 9 9 12 10 9 10 10 10 10 9 9 0 0 9 0 0 0 0 0 0 9 10 9 9 9 0 9 0 9 0 0 0 0 0 0 0 0 0 0 0 0 0 0 0 9 9 0 0 0 0 9 -193 0 10 9 10 11 9 10 9 9 11 10 12 11 10 11 11 11 11 10 11 0 0 10 11 9 9 9 9 9 10 9 9 9 9 9 0 0 -225 -225 -225 -225 -193 0 -193 -209 10 10 -209 -209 11 13 15 12 14 13 12 14 12 13 12 12 13 11 13 15 17 12 10 17 13 13 13 -193 -193 -193 12 13 9 9 9 10 10 9 10 10 9 10 10 9 9 0 0 13 11 10 14 16 13 13 13 14 11 14 15 11 10 16 14 16 15 15 14 14 18 17 14 15 15 16 16 17 17 16 18 18 18 20 18 18 18 18 18 16 20 19 13 22 22 22 22 22 22 19 21 21 23 21 21 22 22 22 23 23 23 23 25 26 26 25 25 26 26 26 26 28 32 30 30 31 29 30 30 31 30 28 29 30 28 31 31 32 30 29 28 28 28 0 0 0 0 0
    0 0 0 0 0 0 0 0 0 0 0 0 0 0 0 0 0 0 0 0 0 0 0 0 0 0 0 0 0 0 0 0 0 0 0 0 0 0 0 0 0 0 0 0 0 0 0 0 0 0 0 0 0 0 0 0 0 0 0 0 0 0 0 0 0 0 0 0 0 8 9 9 10 10 10 9 9 9 0 12 10 9 10 10 10 10 9 9 0 0 0 0 0 0 0 0 0 0 9 9 9 9 0 9 0 9 0 0 0 0 0 0 0 0 0 0 0 0 0 0 0 9 10 0 0 0 0 0 0 0 9 0 9 10 9 10 9 9 11 9 11 10 10 10 10 11 11 11 12 9 10 11 11 9 10 9 9 9 10 9 9 9 10 9 0 0 0 0 0 -193 -193 0 9 -193 12 12 11 12 12 14 16 12 14 13 12 14 12 13 12 12 13 12 13 16 17 12 10 17 13 13 13 12 -193 11 12 13 9 9 9 9 10 9 10 9 9 9 9 8 0 0 0 12 10 10 14 15 12 13 13 13 12 14 14 10 9 16 13 16 15 15 14 14 18 17 14 15 13 15 15 16 16 15 18 18 18 21 17 18 18 18 17 16 20 19 13 22 22 22 22 22 22 19 21 22 23 21 21 22 22 22 24 24 23 23 25 26 26 25 25 25 26 26 25 29 31 29 29 31 29 29 29 30 29 28 29 30 28 31 31 32 30 28 27 -193 26 0 0 0 0 0
    0 0 0 0 0 0 0 0 0 0 0 0 0 0 0 0 0 0 0 0 0 0 0 0 0 0 0 0 0 0 0 0 0 0 0 0 0 0 0 0 0 0 0 0 0 0 0 0 0 0 0 0 0 0 0 0 0 0 0 0 0 0 0 0 0 0 0 0 0 0 9 10 10 11 10 10 9 9 9 12 10 10 11 10 10 10 10 10 0 9 9 0 0 0 0 0 0 0 9 9 9 9 0 9 9 9 0 0 0 0 0 0 0 0 0 0 0 0 0 0 0 9 10 0 0 0 0 0 0 0 0 0 9 9 9 10 9 9 10 9 11 10 9 10 10 11 11 11 12 9 10 11 12 10 10 10 9 10 10 10 10 10 10 9 0 0 0 0 0 0 0 0 -193 -193 11 11 11 11 11 13 15 12 13 13 12 13 12 13 12 12 13 12 13 15 16 12 10 17 13 14 13 12 12 11 11 13 9 9 9 10 10 9 10 10 9 10 10 9 9 0 0 9 9 9 13 14 12 12 13 13 12 15 14 10 10 17 14 16 15 15 14 14 18 17 13 14 13 14 15 16 16 16 18 19 19 21 18 18 18 18 17 17 20 19 13 21 22 22 21 22 21 19 22 22 23 22 22 22 23 23 24 24 24 23 25 26 26 25 26 26 26 26 25 29 31 29 29 30 29 29 29 29 28 27 28 30 27 30 31 31 29 28 26 -193 -209 0 0 0 0 0
    0 0 0 0 0 0 0 0 0 0 0 0 0 0 0 0 0 0 0 0 0 0 0 0 0 0 0 0 0 0 0 0 0 0 0 0 0 0 0 0 0 0 0 0 0 0 0 0 0 0 0 0 0 0 0 0 0 0 0 0 0 0 0 0 0 0 0 0 0 0 0 9 10 10 9 9 9 9 9 12 10 10 11 11 10 10 10 10 9 9 9 0 0 0 0 0 0 0 10 9 9 9 9 9 9 9 9 8 0 0 0 0 0 0 0 0 0 0 0 0 0 9 11 0 0 0 0 0 0 0 0 0 0 0 0 9 9 9 9 0 10 9 9 9 10 11 11 11 13 10 11 12 12 10 11 10 9 10 10 10 10 10 11 9 0 0 0 0 0 -193 -193 -193 -193 -193 -193 9 9 9 10 12 13 12 13 13 13 14 13 14 13 13 13 13 14 16 16 13 11 16 13 14 13 12 12 11 11 12 9 9 9 10 10 9 11 11 10 10 10 10 9 0 0 0 0 0 13 13 12 12 13 13 12 15 14 10 9 17 13 15 15 14 14 14 18 17 13 14 13 14 14 16 16 15 18 19 20 22 18 18 18 18 18 18 20 19 14 22 22 22 22 22 21 20 22 23 24 23 22 23 24 24 25 25 24 24 26 27 27 26 27 27 27 26 26 30 31 29 28 30 28 28 28 29 28 27 28 28 26 29 30 30 28 27 26 -193 25 0 0 0 0 0
    0 0 0 0 0 0 0 0 0 0 0 0 0 0 0 0 0 0 0 0 0 0 0 0 0 0 0 0 0 0 0 0 0 0 0 0 0 0 0 0 0 0 0 0 0 0 0 0 0 0 0 0 0 0 0 0 0 0 0 0 0 0 0 0 0 0 0 0 0 0 0 0 9 9 9 9 9 9 9 12 10 10 12 11 11 10 10 10 9 9 9 0 0 0 0 9 0 9 10 9 9 10 10 10 10 9 9 0 0 0 0 0 0 0 0 0 0 0 0 0 0 10 12 0 9 0 0 0 0 0 0 0 0 0 9 9 0 9 0 0 10 9 9 9 10 11 11 12 13 10 11 12 12 10 11 10 10 10 11 10 11 11 11 9 0 0 0 0 0 0 -193 -193 -193 -193 -209 -193 0 -193 0 11 13 12 13 13 14 14 13 15 13 13 13 13 15 17 16 14 11 16 13 14 13 12 12 11 11 12 9 9 9 10 10 10 11 11 11 10 11 10 9 9 9 0 0 0 13 12 12 12 12 12 12 14 14 10 9 16 13 15 14 14 13 14 18 17 13 14 12 14 14 16 16 16 18 20 20 22 18 18 19 19 18 17 19 19 14 22 22 22 22 22 22 22 23 23 24 23 23 23 24 24 24 25 24 25 26 27 27 27 28 28 27 27 26 31 31 29 28 30 28 28 28 28 27 26 27 27 25 28 31 31 29 27 26 25 26 0 0 0 0 0
    0 0 0 0 0 0 0 0 0 0 0 0 0 0 0 0 0 0 0 0 0 0 0 0 0 0 0 0 0 0 0 0 0 0 0 0 0 0 0 0 0 0 0 0 0 0 0 0 0 0 0 0 0 0 0 0 0 0 0 0 0 0 0 0 0 0 0 0 0 0 0 0 9 9 0 0 9 9 9 13 10 10 12 11 11 11 11 11 9 9 10 0 0 0 0 9 0 0 10 9 10 10 10 10 10 10 9 9 0 0 0 0 0 0 0 0 0 0 0 0 0 10 13 0 9 0 0 0 0 0 0 0 0 0 0 0 0 9 0 0 10 9 9 9 10 11 11 12 13 11 12 12 11 10 10 10 10 10 11 10 10 11 11 -193 0 0 0 0 9 0 0 0 9 -193 -209 0 0 -193 0 10 13 11 13 13 14 14 13 15 13 14 14 13 15 18 17 16 12 17 13 14 13 12 12 11 12 12 9 10 9 10 11 10 12 11 11 11 10 10 9 9 9 0 0 0 14 12 12 12 12 12 12 13 13 9 9 16 13 15 14 14 13 13 17 17 13 14 13 14 15 15 16 16 18 20 21 22 18 19 20 19 18 18 19 19 15 22 22 21 22 22 22 22 23 23 23 23 23 23 24 24 24 24 24 25 25 27 27 27 27 28 27 27 26 32 31 29 29 31 28 28 28 28 27 26 27 27 25 28 32 31 29 28 27 25 27 0 0 0 0 0
    0 0 0 0 0 0 0 0 0 0 0 0 0 0 0 0 0 0 0 0 0 0 0 0 0 0 0 0 0 0 0 0 0 0 0 0 0 0 0 0 0 0 0 0 0 0 0 0 0 0 0 0 0 0 0 0 0 0 0 0 0 0 0 0 0 0 0 0 0 0 0 0 0 0 0 0 9 9 9 12 10 10 12 11 11 10 11 11 9 10 10 0 0 0 0 10 10 9 11 10 11 11 10 11 11 10 9 0 0 0 0 0 0 0 0 0 0 0 0 0 0 9 12 0 9 0 0 0 0 0 0 0 0 0 0 0 0 9 0 0 9 9 9 9 10 10 11 11 12 11 12 11 11 9 10 10 10 10 11 9 10 10 11 -193 0 0 0 0 9 0 0 0 0 -193 -193 0 0 -193 0 10 12 11 13 13 14 14 13 14 13 14 14 14 17 19 18 19 14 17 13 15 13 13 13 12 12 12 10 11 10 11 11 10 12 11 11 10 10 9 9 0 9 0 0 0 14 12 11 12 12 11 11 12 12 9 9 15 13 15 14 14 13 13 17 17 13 14 13 14 14 15 16 17 19 21 21 22 19 20 20 19 18 18 19 19 15 21 21 21 22 22 22 22 23 24 24 24 24 24 24 24 24 25 25 25 25 27 27 27 27 27 27 26 26 32 30 29 29 31 28 28 28 28 26 26 26 27 25 28 32 31 29 27 26 26 27 0 0 0 0 0
    0 0 0 0 0 0 0 0 0 0 0 0 0 0 0 0 0 0 0 0 0 0 0 0 0 0 0 0 0 0 0 0 0 0 0 0 0 0 0 0 0 0 0 0 0 0 0 0 0 0 0 0 0 0 0 0 0 0 0 0 0 0 0 0 0 0 0 0 0 0 9 9 9 8 0 0 9 0 8 12 10 10 12 11 10 10 10 10 9 9 10 0 0 9 9 10 10 10 12 11 11 11 10 10 11 9 0 0 0 0 0 0 0 0 0 0 0 0 0 0 0 9 12 0 9 0 0 0 0 0 0 0 0 0 0 0 0 9 0 0 9 0 9 9 10 10 11 11 12 11 12 11 11 9 10 10 10 10 10 9 10 10 10 -193 0 0 -193 0 10 9 0 0 0 0 -209 0 0 0 0 9 10 10 11 12 13 13 13 14 14 15 14 13 16 19 18 20 15 15 12 14 12 12 12 11 11 11 10 12 11 12 12 11 13 12 11 10 10 9 9 0 9 0 0 0 14 11 11 11 11 11 11 12 12 9 9 14 12 14 13 14 13 13 17 17 13 14 13 14 13 15 15 16 18 21 22 23 19 20 20 20 19 18 19 19 15 21 20 21 22 22 21 22 23 24 25 24 23 23 24 25 24 25 25 25 25 27 28 27 27 27 27 26 27 32 29 28 29 30 28 27 27 27 25 25 26 26 25 28 32 31 28 27 27 27 27 0 0 0 0 0
    0 0 0 0 0 0 0 0 0 0 0 0 0 0 0 0 0 0 0 0 0 0 0 0 0 0 0 0 0 0 0 0 0 0 0 0 0 0 0 0 0 0 0 0 0 0 0 0 0 0 0 0 0 0 0 0 0 0 0 0 0 0 0 0 0 0 0 0 0 9 9 10 9 9 0 0 9 0 8 11 9 9 11 10 10 9 9 9 0 9 9 0 0 9 9 11 10 10 10 8 9 9 0 0 0 0 0 0 0 0 0 0 0 0 0 0 0 0 0 0 0 9 10 0 9 0 0 0 0 0 0 0 0 0 0 0 0 0 0 0 9 0 9 9 10 10 11 11 12 10 11 10 10 9 10 9 10 9 10 0 9 10 9 0 0 0 0 0 9 9 0 0 -193 0 0 0 0 0 0 0 0 9 9 11 12 12 12 13 12 14 12 12 14 15 17 17 15 12 11 13 11 11 11 10 10 10 11 12 11 13 13 12 13 12 11 10 10 9 9 0 9 0 0 0 13 11 11 11 11 10 11 12 11 0 9 13 12 13 13 14 13 13 18 17 13 14 14 14 13 14 15 17 17 21 22 23 20 20 20 20 19 19 19 19 15 21 20 20 22 22 21 23 24 25 25 24 24 23 24 24 24 25 25 24 25 27 28 27 27 28 27 26 27 32 28 28 28 29 27 27 27 27 25 26 26 26 25 27 31 31 28 27 27 27 28 0 0 0 0 0
    0 0 0 0 0 0 0 0 0 0 0 0 0 0 0 0 0 0 0 0 0 0 0 0 0 0 0 0 0 0 0 0 0 0 0 0 0 0 0 0 0 0 0 0 0 0 0 0 0 0 0 0 0 0 0 0 0 0 0 0 0 0 0 0 0 0 0 0 0 9 9 9 0 0 0 0 9 9 9 11 9 9 11 10 10 9 9 9 9 10 10 0 9 10 10 12 11 10 0 0 0 0 0 0 0 0 0 0 0 0 0 0 0 0 0 0 0 0 0 0 0 0 10 0 9 0 0 0 0 0 0 0 0 0 0 0 0 0 0 0 9 9 9 9 10 10 11 11 12 10 10 10 10 9 10 9 10 9 10 9 9 10 9 0 0 0 0 0 0 0 0 0 -193 0 0 0 0 0 0 0 0 0 9 10 11 11 11 11 10 11 10 10 10 10 -193 11 13 -193 -193 11 10 10 10 9 9 0 11 12 11 12 13 12 14 12 12 11 11 10 9 9 10 0 0 0 13 10 11 11 10 10 10 12 11 0 9 13 12 13 13 14 12 13 17 17 13 14 14 14 13 14 15 17 16 21 22 23 20 21 21 20 19 20 20 19 16 21 20 21 22 22 22 24 24 24 24 23 23 22 23 23 22 23 23 23 24 26 28 27 28 29 28 26 28 32 28 28 28 29 27 27 27 26 25 26 26 26 26 26 30 31 28 27 27 28 29 0 0 0 0 0
    0 0 0 0 0 0 0 0 0 0 0 0 0 0 0 0 0 0 0 0 0 0 0 0 0 0 0 0 0 0 0 0 0 0 0 0 0 0 0 0 0 0 0 0 0 0 0 0 0 0 0 0 0 0 0 0 0 0 0 0 0 0 0 0 0 0 0 0 0 9 9 9 0 0 0 0 9 9 9 10 9 9 11 10 10 9 10 10 9 10 10 9 9 10 10 12 11 11 0 0 0 0 0 0 0 0 0 0 0 0 0 0 0 0 0 0 0 0 0 0 0 0 10 0 9 0 0 0 0 0 0 0 0 0 0 0 0 0 0 0 9 9 9 10 10 10 11 11 12 10 9 9 10 9 10 9 10 9 10 9 9 9 0 0 0 0 0 0 0 0 0 -193 -193 -193 -193 0 0 0 0 -209 -193 9 -193 10 11 11 10 11 9 10 9 9 -193 -193 -193 10 11 -193 -193 10 9 9 9 0 0 0 10 12 10 11 12 11 14 12 11 10 10 10 9 9 10 0 0 0 13 10 10 10 10 9 10 11 11 0 10 13 12 13 13 14 12 13 17 17 13 14 14 14 13 14 15 16 15 21 21 22 20 21 21 20 19 20 20 19 17 21 21 21 23 23 24 24 24 24 23 22 22 21 22 21 21 22 19 21 23 25 26 26 28 29 27 26 29 31 28 28 28 28 27 27 27 27 26 27 27 26 26 27 30 31 28 28 29 30 31 0 0 0 0 0
    0 0 0 0 0 0 0 0 0 0 0 0 0 0 0 0 0 0 0 0 0 0 0 0 0 0 0 0 0 0 0 0 0 0 0 0 0 0 0 0 0 0 0 0 0 0 0 0 0 0 0 0 0 0 0 0 0 0 0 0 0 0 0 0 0 0 0 0 0 9 9 9 0 0 0 0 9 0 9 10 9 9 10 10 9 9 9 9 9 9 10 9 9 10 10 12 11 11 0 0 0 0 0 0 0 0 0 0 0 0 0 0 0 0 0 0 0 0 0 0 0 0 10 0 9 0 0 0 0 0 0 0 0 0 0 0 0 0 0 0 9 9 10 10 10 10 11 11 12 10 9 9 9 9 10 0 10 9 10 9 9 0 0 0 0 0 0 0 0 -193 -193 -193 -193 -193 -193 0 -193 -209 -209 -193 -209 10 -193 11 -193 12 10 -193 -209 -209 -209 -209 -209 -209 -209 -193 10 -193 -193 9 9 9 9 0 0 0 10 12 10 11 11 11 13 12 11 10 10 9 9 9 10 0 0 9 14 11 11 10 10 9 10 12 11 0 11 14 12 14 13 14 13 13 17 16 13 14 14 15 14 15 16 16 15 20 21 22 20 21 21 20 19 19 19 19 17 21 21 21 24 25 26 25 24 24 22 21 21 20 21 19 20 20 17 20 22 24 25 25 27 28 26 25 29 30 27 27 28 28 27 27 27 27 26 27 27 26 27 28 29 31 29 30 31 31 33 0 0 0 0 0
    0 0 0 0 0 0 0 0 0 0 0 0 0 0 0 0 0 0 0 0 0 0 0 0 0 0 0 0 0 0 0 0 0 0 0 0 0 0 0 0 0 0 0 0 0 0 0 0 0 0 0 0 0 0 0 0 0 0 0 0 0 0 0 0 0 0 0 0 0 9 9 9 0 0 0 0 0 0 9 9 0 9 10 9 9 9 9 9 0 9 9 0 9 10 9 11 10 10 0 0 0 0 0 0 0 0 0 0 0 0 0 9 0 0 9 0 0 0 0 0 0 0 10 0 9 0 0 0 0 0 0 0 0 0 0 0 0 0 0 0 9 9 9 10 10 10 10 11 12 9 9 9 9 9 10 9 10 9 10 9 9 0 -193 -193 -193 -193 -193 0 0 -193 -193 -193 -193 -193 -209 -209 398 -209 -209 -193 -193 10 -193 -193 -209 -193 -209 -209 -209 -193 -209 -193 140 -193 -209 -209 10 -193 0 9 9 9 -193 0 0 0 10 12 10 11 11 11 13 12 11 10 9 0 0 0 10 0 0 9 14 11 11 11 11 10 10 12 12 9 12 15 13 15 13 14 13 13 17 16 13 14 14 16 15 16 16 16 15 20 21 21 20 21 21 20 19 19 19 19 17 21 20 20 23 25 25 24 24 24 22 21 21 20 21 19 20 20 17 20 22 23 24 23 25 25 24 24 29 30 27 27 29 28 27 27 27 26 26 27 27 26 27 28 29 31 30 32 32 31 33 0 0 0 0 0
    0 0 0 0 0 0 0 0 0 0 0 0 0 0 0 0 0 0 0 0 0 0 0 0 0 0 0 0 0 0 0 0 0 0 0 0 0 0 0 0 0 0 0 0 0 0 0 0 0 0 0 0 0 0 0 0 0 0 0 0 0 0 0 0 0 0 0 0 0 9 9 9 0 0 0 0 0 0 0 9 0 9 10 9 9 9 9 9 9 9 9 0 9 9 9 11 9 9 0 0 0 0 0 0 0 0 0 0 0 0 0 9 0 0 9 0 0 0 0 0 0 0 0 0 9 0 0 0 0 0 0 0 0 0 0 0 0 0 0 0 9 9 9 9 9 9 -193 10 12 9 0 0 9 9 10 9 10 9 10 10 9 -193 -193 -193 -193 -193 -193 -193 0 -193 -193 -193 -193 -193 -209 -209 -193 -193 -193 -209 -193 11 10 -209 -209 -193 -193 -193 -209 -193 -193 -193 140 -193 -193 -209 10 -193 0 9 9 9 -193 0 8 0 10 11 10 10 11 10 12 11 10 9 0 0 0 0 9 0 9 9 14 11 11 11 12 10 11 13 12 10 13 15 14 15 14 14 13 14 17 16 13 15 15 16 15 16 17 16 15 19 20 20 20 21 20 20 19 20 20 20 18 21 20 22 23 25 24 23 23 23 22 21 21 20 20 19 20 20 17 20 22 23 23 22 24 23 23 23 28 29 27 27 29 28 28 28 28 26 26 28 27 26 27 28 28 30 30 32 32 32 33 0 0 0 0 0
    0 0 0 0 0 0 0 0 0 0 0 0 0 0 0 0 0 0 0 0 0 0 0 0 0 0 0 0 0 0 0 0 0 0 0 0 0 0 0 0 0 0 0 0 0 0 0 0 0 0 0 0 0 0 0 0 0 0 0 0 0 0 0 0 0 0 0 0 0 9 10 9 0 0 0 0 0 0 0 0 0 0 9 9 9 9 9 9 9 9 9 0 0 9 9 10 9 9 0 0 0 0 0 0 0 0 0 0 0 0 0 0 0 0 0 0 0 0 0 0 0 0 0 0 9 0 0 0 0 0 0 0 0 0 0 0 0 0 0 0 9 9 9 9 9 9 -193 10 11 9 0 0 9 9 10 9 10 9 9 10 9 9 -193 -193 -193 -193 -193 -193 0 -193 -193 -193 -193 -193 -209 -209 -209 -193 -193 -193 -193 -193 -193 -193 141 143 141 143 -209 -193 -193 140 140 -193 -193 -209 10 -193 0 9 9 9 9 9 9 0 10 11 10 10 11 10 12 11 10 9 0 0 0 0 10 9 9 10 14 11 12 11 12 11 12 14 12 10 15 15 14 15 14 14 13 14 17 16 13 15 15 16 16 16 16 15 15 18 18 19 19 20 19 20 19 20 20 19 18 20 19 22 23 24 23 22 22 23 22 21 21 20 20 20 21 21 17 20 23 23 23 21 23 23 22 23 28 28 26 26 29 28 27 28 28 27 27 29 28 26 28 29 28 31 30 32 32 32 33 0 0 0 0 0
    0 0 0 0 0 0 0 0 0 0 0 0 0 0 0 0 0 0 0 0 0 0 0 0 0 0 0 0 0 0 0 0 0 0 0 0 0 0 0 0 0 0 0 0 0 0 0 0 0 0 0 0 0 0 0 0 0 0 0 0 0 0 0 0 0 0 0 0 0 9 10 10 9 0 0 0 0 0 0 9 0 9 9 9 9 9 9 9 9 9 9 0 0 0 0 9 0 0 0 0 0 0 0 0 0 0 0 0 0 0 0 0 0 0 0 0 0 0 0 0 0 0 0 0 9 0 0 0 0 0 0 0 0 0 0 0 0 0 0 0 9 9 9 9 9 9 10 11 12 9 0 9 9 9 10 9 10 9 10 10 9 9 9 -193 -193 -193 -193 -193 -193 -193 -193 -193 139 -193 -209 -209 -209 -193 -193 -193 -193 -193 -193 -193 141 144 141 143 -193 -193 -193 -193 140 -193 -193 -209 9 0 0 9 9 9 -193 9 9 0 10 11 10 10 11 10 12 11 11 10 9 9 0 0 11 10 10 10 14 11 12 12 13 11 12 13 12 11 15 15 15 15 14 14 13 14 17 15 13 15 15 17 16 17 16 15 15 18 18 18 19 20 19 20 19 20 20 19 19 21 21 22 23 24 23 22 22 23 22 21 21 20 21 21 21 21 17 20 23 24 24 21 23 23 23 23 28 27 25 25 29 28 28 28 29 27 28 30 29 27 29 30 29 32 31 32 33 33 34 0 0 0 0 0
    0 0 0 0 0 0 0 0 0 0 0 0 0 0 0 0 0 0 0 0 0 0 0 0 0 0 0 0 0 0 0 0 0 0 0 0 0 0 0 0 0 0 0 0 0 0 0 0 0 0 0 0 0 0 0 0 0 0 0 0 0 0 0 0 0 0 0 0 0 9 10 9 9 0 0 0 0 0 0 10 9 9 10 10 10 10 10 10 9 9 9 0 0 0 0 9 0 0 0 0 0 0 0 0 0 0 0 0 0 0 0 0 0 0 0 0 0 0 0 0 0 0 0 0 9 0 9 0 0 0 0 0 0 0 0 0 0 0 0 0 0 0 9 9 9 9 -193 11 12 9 9 9 9 9 11 9 10 9 10 10 9 9 -193 -193 -193 -193 -193 -193 -193 -193 -193 -193 -193 -193 -193 -209 -209 -193 -193 -193 -193 -193 -193 -193 -193 144 141 143 -193 -193 -193 -193 -193 -193 -209 -209 9 0 0 -193 9 9 -209 -193 9 0 10 12 10 10 11 10 12 12 11 11 10 9 9 9 13 11 11 11 15 12 12 12 13 11 12 14 12 11 16 16 15 15 14 14 13 14 16 15 13 14 15 17 17 17 17 16 15 18 18 17 18 19 18 19 18 19 20 19 21 24 23 24 24 24 23 22 22 23 22 21 21 21 21 21 22 22 17 21 24 24 24 20 23 23 23 23 28 26 25 25 30 28 28 29 29 28 29 31 30 28 30 31 29 32 32 32 33 34 34 0 0 0 0 0
    0 0 0 0 0 0 0 0 0 0 0 0 0 0 0 0 0 0 0 0 0 0 0 0 0 0 0 0 0 0 0 0 0 0 0 0 0 0 0 0 0 0 0 0 0 0 0 0 0 0 0 0 0 0 0 0 0 0 0 0 0 0 0 0 0 0 0 0 0 9 10 9 9 0 0 0 0 0 0 12 10 10 11 11 11 11 11 11 10 10 10 9 0 0 0 9 0 0 0 0 0 0 0 0 0 0 0 0 0 0 0 0 0 0 0 0 0 0 0 0 0 0 0 0 10 9 9 9 0 0 0 0 0 0 0 0 0 0 0 0 0 0 0 9 0 0 -209 10 11 9 8 9 9 9 10 9 10 9 10 10 9 -193 -193 -193 -193 -193 -193 -193 -193 -193 -193 -209 -193 -193 -193 9 -209 -177 -177 -209 -193 -193 11 -193 -193 144 141 143 -193 -209 -193 -193 -193 -193 -209 -209 9 0 0 -193 -193 -193 -209 -193 -193 0 11 12 11 11 12 11 13 13 12 11 10 9 9 9 13 11 11 11 15 12 12 12 13 11 12 13 12 11 16 16 15 15 14 14 13 14 16 14 13 14 14 17 17 17 17 15 15 17 18 17 17 18 17 18 17 18 19 18 22 24 24 24 24 24 23 22 22 23 22 21 21 21 22 22 23 22 18 22 25 25 25 21 24 24 23 23 28 25 25 25 30 28 28 29 29 28 29 32 31 28 31 32 30 32 32 33 -193 35 34 0 0 0 0 0
    0 0 0 0 0 0 0 0 0 0 0 0 0 0 0 0 0 0 0 0 0 0 0 0 0 0 0 0 0 0 0 0 0 0 0 0 0 0 0 0 0 0 0 0 0 0 0 0 0 0 0 0 0 0 0 0 0 0 0 0 0 0 0 0 0 0 0 0 0 9 10 10 9 0 0 0 0 0 0 14 11 11 12 12 12 12 11 11 10 10 9 0 0 0 0 0 0 0 0 0 0 0 0 0 0 0 0 0 0 0 0 0 0 0 0 0 0 0 0 0 0 0 0 0 10 9 9 9 9 0 0 0 0 0 0 0 0 0 0 0 0 0 0 0 0 0 -193 10 11 9 0 0 0 0 10 9 10 10 10 10 10 9 10 -193 -193 -193 -193 -193 9 -193 10 -209 -193 -193 10 9 10 11 -177 -193 11 12 12 -193 -193 -193 141 143 -193 -209 -209 -193 -193 -193 -193 -209 9 0 -193 -193 9 -193 -209 9 9 0 11 11 11 11 12 11 12 12 12 12 11 10 9 0 12 11 11 11 15 12 13 12 13 11 13 13 12 11 16 15 15 14 14 14 13 14 16 14 13 14 15 17 16 17 16 15 14 16 17 16 16 16 16 17 16 17 18 15 20 22 23 23 24 23 22 21 21 23 22 21 21 21 22 22 23 23 18 24 26 26 26 22 25 25 25 24 29 25 24 25 30 28 28 29 29 27 29 31 30 28 30 32 30 33 33 33 -193 36 35 0 0 0 0 0
    0 0 0 0 0 0 0 0 0 0 0 0 0 0 0 0 0 0 0 0 0 0 0 0 0 0 0 0 0 0 0 0 0 0 0 0 0 0 0 0 0 0 0 0 0 0 0 0 0 0 0 0 0 0 0 0 0 0 0 0 0 0 0 0 0 0 0 0 0 9 10 10 9 0 0 0 0 0 0 -177 12 11 14 12 12 12 12 11 10 10 9 0 0 0 0 0 0 0 0 0 0 0 0 0 0 0 0 0 0 0 0 0 0 0 0 0 0 0 0 0 0 0 0 0 10 9 9 9 9 0 0 0 0 0 0 0 0 0 0 0 0 0 0 0 0 0 0 9 10 0 0 0 0 0 10 9 11 10 10 11 11 10 12 10 10 10 10 10 10 9 10 -193 10 10 10 10 10 11 11 12 11 12 12 10 -193 -193 141 -193 -209 -193 -209 -209 -209 -193 -209 0 9 0 -193 9 -193 -193 -193 10 10 0 11 11 12 12 12 12 12 13 13 12 11 10 9 0 12 11 10 11 15 12 13 12 13 11 13 13 12 11 16 15 15 14 14 14 13 14 15 14 13 14 15 17 16 17 16 16 14 16 17 16 16 16 16 17 15 17 18 14 20 22 22 23 23 22 20 20 21 23 22 21 21 21 23 23 24 24 20 25 27 27 26 24 26 27 26 26 31 25 25 25 30 28 27 29 28 27 28 30 30 27 30 32 31 -193 34 -193 -193 -193 35 0 0 0 0 0
    0 0 0 0 0 0 0 0 0 0 0 0 0 0 0 0 0 0 0 0 0 0 0 0 0 0 0 0 0 0 0 0 0 0 0 0 0 0 0 0 0 0 0 0 0 0 0 0 0 0 0 0 0 0 0 0 0 0 0 0 0 0 0 0 0 0 0 0 0 10 10 10 9 0 0 0 0 0 0 -177 12 12 15 12 13 12 12 12 10 10 10 0 0 0 0 0 0 0 0 0 0 9 0 0 0 0 0 0 0 0 0 0 0 0 0 0 0 0 0 0 0 0 0 0 10 9 9 0 0 0 0 0 0 0 0 0 0 0 0 0 0 0 0 0 0 0 0 9 0 0 0 0 0 0 10 10 11 11 11 12 12 12 13 11 11 11 12 11 11 10 10 10 10 10 10 10 11 12 12 13 11 12 12 10 -193 -193 -193 -193 0 9 0 0 9 -209 -193 0 10 9 10 10 -193 -193 -193 10 11 9 11 11 12 12 12 12 12 12 12 12 11 10 9 8 12 11 10 11 15 11 12 12 12 11 13 12 12 11 16 15 14 14 14 13 13 14 15 14 13 14 15 16 16 17 16 17 14 15 17 15 16 16 16 17 15 17 18 14 21 21 22 22 22 21 19 19 21 23 21 21 21 21 23 24 24 24 21 25 27 28 27 25 27 28 28 28 33 27 25 26 31 29 28 29 28 26 28 30 30 27 29 33 32 -193 35 34 -193 -193 35 0 0 0 0 0
    0 0 0 0 0 0 0 0 0 0 0 0 0 0 0 0 0 0 0 0 0 0 0 0 0 0 0 0 0 0 0 0 0 0 0 0 0 0 0 0 0 0 0 0 0 0 0 0 0 0 0 0 0 0 0 0 0 0 0 0 0 0 0 0 0 0 0 0 0 10 11 10 10 9 9 0 0 0 0 -177 12 12 15 12 12 12 12 12 10 10 10 0 0 0 0 0 0 0 0 9 9 10 0 0 0 9 0 0 0 0 0 0 0 0 0 0 0 0 0 0 0 0 0 0 9 0 0 0 0 0 0 0 0 0 0 0 0 9 0 0 0 0 0 9 0 9 0 0 0 0 0 0 0 0 9 10 11 11 10 11 10 11 11 11 11 11 12 11 11 11 10 10 10 10 11 10 12 12 13 13 12 13 13 11 10 9 9 9 0 9 9 9 11 12 0 0 13 10 11 10 10 -193 -193 11 11 9 11 10 12 12 12 12 11 12 12 11 10 10 10 10 11 11 10 10 14 11 12 11 11 10 12 12 12 11 15 14 14 13 14 13 14 14 15 14 13 14 15 15 15 16 16 17 14 15 17 15 16 16 16 16 14 17 18 13 20 21 22 23 22 20 18 18 20 23 21 21 20 21 23 24 24 24 21 25 27 27 27 26 28 29 28 29 34 28 26 27 31 29 28 29 29 27 29 31 30 28 30 34 33 -193 36 34 34 37 35 0 0 0 0 0
    0 0 0 0 0 0 0 0 0 0 0 0 0 0 0 0 0 0 0 0 0 0 0 0 0 0 0 0 0 0 0 0 0 0 0 0 0 0 0 0 0 0 0 0 0 0 0 0 0 0 0 0 0 0 0 0 0 0 0 0 0 0 0 0 0 0 0 0 0 10 11 11 11 9 10 0 0 0 0 -177 12 12 15 12 12 12 12 12 10 10 10 0 0 0 0 0 0 0 10 11 10 11 0 0 0 9 0 0 0 0 0 0 0 0 0 0 0 0 0 0 0 0 0 0 10 0 0 0 0 0 0 0 0 0 0 0 0 10 0 0 9 9 9 9 9 10 0 9 -193 0 0 0 0 10 10 10 10 10 9 10 9 9 9 9 9 0 10 11 12 11 9 10 10 10 11 12 12 12 14 14 12 13 13 11 10 9 10 9 9 10 11 10 15 -193 -193 0 15 11 12 10 10 10 -193 11 12 9 11 10 11 12 11 12 11 12 12 11 10 10 10 11 11 10 10 10 12 10 11 11 10 10 12 11 11 10 15 14 14 13 14 14 14 14 15 14 13 15 15 15 15 16 15 18 15 15 18 15 16 15 16 16 14 17 17 12 21 23 23 23 23 20 18 18 21 23 21 21 20 21 23 23 23 23 20 25 26 27 26 26 28 29 28 28 34 28 27 27 31 30 28 29 29 27 29 31 31 28 29 -193 34 34 36 34 34 36 35 0 0 0 0 0
    0 0 0 0 0 0 0 0 0 0 0 0 0 0 0 0 0 0 0 0 0 0 0 0 0 0 0 0 0 0 0 0 0 0 0 0 0 0 0 0 0 0 0 0 0 0 0 0 0 0 0 0 0 0 0 0 0 0 0 0 0 0 0 0 0 0 0 0 0 11 12 12 11 10 11 9 0 9 0 20 12 12 16 13 13 13 12 12 10 10 10 0 0 0 0 9 9 11 12 13 10 11 0 0 0 9 0 0 0 0 0 0 0 0 0 0 0 0 0 0 0 9 9 0 11 0 8 0 0 0 0 0 0 0 0 0 0 11 9 9 10 9 10 10 10 10 0 9 -193 9 0 13 10 11 11 10 10 10 9 9 0 0 0 0 0 0 9 10 12 12 9 9 -193 10 9 13 12 11 13 12 11 12 12 11 9 9 10 9 10 11 11 11 16 -193 -193 0 -193 11 12 10 10 10 10 11 12 9 11 9 11 11 11 11 11 11 11 10 10 10 10 11 9 10 9 9 11 9 10 10 9 10 11 11 10 10 14 14 13 13 13 14 14 14 15 14 13 14 15 15 14 16 16 19 14 15 18 15 16 16 16 16 14 17 18 11 23 25 25 24 23 19 18 18 21 23 21 20 20 21 23 23 23 23 19 25 25 26 25 25 27 28 27 27 34 28 27 27 31 30 29 29 29 27 29 31 31 28 28 33 34 33 36 34 34 36 35 0 0 0 0 0
    0 0 0 0 0 0 0 0 0 0 0 0 0 0 0 0 0 0 0 0 0 0 0 0 0 0 0 0 0 0 0 0 0 0 0 0 0 0 0 0 0 0 0 0 0 0 0 0 0 0 0 0 0 0 0 0 0 0 0 0 0 0 0 0 0 0 0 0 0 11 12 12 12 10 12 9 0 9 9 20 13 13 16 13 13 13 13 13 10 11 11 0 0 0 9 10 11 13 13 14 10 11 9 0 0 0 0 0 0 0 0 0 0 0 0 0 0 0 0 0 0 0 9 0 11 0 9 0 0 0 0 0 0 0 0 0 0 12 10 10 10 10 10 10 10 11 0 9 -193 10 10 19 13 14 12 11 10 10 9 9 0 0 0 0 0 0 0 9 13 13 0 -193 -193 9 9 13 12 11 12 12 11 11 11 11 9 9 10 10 10 12 12 13 19 20 -193 0 -193 11 12 10 10 11 10 11 12 9 11 9 11 11 10 11 10 11 11 10 9 9 0 10 0 0 0 0 9 9 9 9 9 10 11 10 10 10 13 13 12 13 13 13 14 14 15 14 13 14 14 14 13 14 16 18 14 15 19 15 16 16 16 16 14 17 18 11 24 26 26 25 23 18 17 16 21 22 20 20 20 20 22 23 23 22 18 24 24 25 25 25 26 27 27 -193 34 28 27 28 31 30 29 30 29 26 29 31 30 27 27 32 35 33 36 -193 -193 -193 34 0 0 0 0 0
    0 0 0 0 0 0 0 0 0 0 0 0 0 0 0 0 0 0 0 0 0 0 0 0 0 0 0 0 0 0 0 0 0 0 0 0 0 0 0 0 0 0 0 0 0 0 0 0 0 0 0 0 0 0 0 0 0 0 0 0 0 0 0 0 0 0 0 0 0 11 12 12 12 10 12 9 9 9 9 21 13 13 16 13 13 13 13 13 10 11 11 0 0 0 9 11 12 14 14 13 10 10 9 9 0 0 0 0 0 0 0 0 0 0 0 0 0 0 0 0 0 0 9 0 11 0 0 0 0 0 0 0 0 0 0 0 0 13 10 10 10 10 10 10 11 11 0 9 -193 10 12 21 16 16 13 11 10 10 9 9 0 0 0 0 0 0 0 9 13 13 0 -193 -193 -193 10 17 14 12 13 12 11 11 11 10 9 9 10 9 10 12 12 13 20 21 -193 0 -193 11 12 10 10 11 10 12 12 9 10 9 11 11 10 11 10 10 10 9 9 0 0 0 0 0 0 0 0 0 9 9 9 10 11 10 10 10 13 13 12 12 13 13 14 14 16 14 13 14 14 14 13 15 17 17 14 15 19 16 16 16 16 16 15 18 18 11 25 26 27 25 24 18 16 15 20 21 19 19 19 20 21 22 22 19 16 22 23 24 23 25 26 27 27 -193 -193 28 28 28 31 30 29 29 29 26 28 29 29 26 26 29 -193 32 36 -193 -193 -193 33 0 0 0 0 0
    0 0 0 0 0 0 0 0 0 0 0 0 0 0 0 0 0 0 0 0 0 0 0 0 0 0 0 0 0 0 0 0 0 0 0 0 0 0 0 0 0 0 0 0 0 0 0 0 0 0 0 0 0 0 0 0 0 0 0 0 0 0 0 0 0 0 0 0 0 12 13 13 12 10 12 9 0 9 9 21 13 13 17 13 13 14 14 13 10 11 12 0 9 0 10 12 12 15 14 13 10 10 9 9 0 0 0 0 0 0 0 0 0 0 0 0 0 0 0 0 0 0 9 0 11 0 0 0 0 0 0 0 0 0 0 0 0 13 11 11 11 10 11 11 11 12 0 10 9 11 14 22 17 17 13 11 10 10 9 9 0 0 0 0 0 0 -177 -177 11 12 0 76 81 -193 -193 19 14 13 14 12 11 11 11 10 9 9 9 9 10 11 11 12 18 19 0 0 -193 11 12 10 10 11 10 12 12 9 10 9 11 11 10 10 10 9 9 9 0 0 0 0 0 0 0 9 9 9 9 9 9 10 11 10 9 10 13 12 12 12 12 13 14 14 17 14 14 15 15 14 14 16 18 17 15 16 20 16 16 16 16 16 15 18 19 12 25 33 32 30 28 20 18 17 21 21 18 18 18 19 20 21 20 17 15 21 22 23 21 25 25 26 26 -193 -193 29 28 29 31 30 29 29 29 25 27 28 28 25 25 -193 -193 30 35 -193 -193 -193 32 0 0 0 0 0
    0 0 0 0 0 0 0 0 0 0 0 0 0 0 0 0 0 0 0 0 0 0 0 0 0 0 0 0 0 0 0 0 0 0 0 0 0 0 0 0 0 0 0 0 0 0 0 0 0 0 0 0 0 0 0 0 0 0 0 0 0 0 0 0 0 0 0 0 0 12 13 13 13 10 12 9 9 0 0 -177 13 13 16 13 13 14 14 14 10 12 12 9 10 10 11 13 12 15 13 12 10 10 9 9 0 0 0 0 0 0 0 0 0 0 0 0 0 0 0 0 0 9 9 0 10 0 0 0 0 0 0 0 0 0 0 0 0 13 11 12 11 10 11 11 12 12 0 10 9 11 15 21 17 17 13 11 10 10 9 0 0 0 0 0 0 0 -177 -177 10 -225 -193 75 78 -193 -193 17 13 12 13 11 11 11 11 10 9 9 9 9 9 10 10 11 14 16 0 0 -177 11 12 10 10 11 10 12 12 9 10 9 11 11 10 10 10 9 9 0 0 0 0 0 0 0 0 10 0 0 9 9 9 10 11 10 9 10 13 12 12 12 12 13 14 14 18 14 14 15 15 15 14 17 19 16 16 17 20 16 16 17 17 16 16 19 19 13 26 35 33 32 31 24 22 21 22 21 18 18 17 18 18 20 20 16 14 21 22 22 20 24 24 25 -193 92 -193 28 28 29 31 30 29 29 29 26 28 28 28 26 26 27 -193 30 33 -193 -193 31 31 0 0 0 0 0
    0 0 0 0 0 0 0 0 0 0 0 0 0 0 0 0 0 0 0 0 0 0 0 0 0 0 0 0 0 0 0 0 0 0 0 0 0 0 0 0 0 0 0 0 0 0 0 0 0 0 0 0 0 0 0 0 0 0 0 0 0 0 0 0 0 0 0 0 0 12 13 14 14 10 13 0 9 0 0 -177 13 13 16 13 13 14 14 14 11 12 13 10 11 11 12 14 13 15 12 11 9 9 9 9 0 0 0 0 0 0 0 0 0 0 0 0 0 0 0 0 0 9 10 0 10 0 0 0 0 0 0 0 9 0 0 0 0 13 11 12 11 -193 11 11 12 13 9 10 9 12 15 20 17 16 13 10 10 9 9 0 0 0 0 0 0 0 0 0 9 -225 -225 -225 -225 -209 -193 15 12 11 13 11 10 10 10 10 9 9 9 0 9 9 10 10 13 15 0 0 -177 10 12 10 10 11 10 12 12 10 11 9 11 11 10 11 10 9 9 0 0 0 0 0 0 0 0 11 0 9 9 9 9 10 10 10 9 10 13 11 12 12 13 14 15 15 18 14 15 15 15 15 14 17 19 15 16 17 20 17 17 17 17 16 17 19 20 14 26 36 33 33 33 27 25 24 24 22 18 18 17 17 18 19 19 15 14 20 21 21 19 23 23 24 -193 91 -177 28 28 29 31 29 29 29 28 26 28 28 28 27 27 -193 -193 30 32 31 -193 31 31 0 0 0 0 0
    0 0 0 0 0 0 0 0 0 0 0 0 0 0 0 0 0 0 0 0 0 0 0 0 0 0 0 0 0 0 0 0 0 0 0 0 0 0 0 0 0 0 0 0 0 0 0 0 0 0 0 0 0 0 0 0 0 0 0 0 0 0 0 0 0 0 0 0 0 13 14 14 14 10 13 0 0 0 8 21 13 13 16 14 14 14 14 15 11 13 13 11 11 11 12 14 13 15 12 11 9 9 9 0 0 0 0 0 0 0 0 0 0 0 0 0 0 0 0 0 0 9 10 0 11 0 9 0 0 9 9 0 10 0 0 0 0 13 11 13 11 11 11 12 13 13 9 10 9 13 16 20 16 16 14 10 9 9 9 0 0 0 0 0 0 0 0 0 -225 -225 -225 -225 -225 72 0 -193 12 11 12 10 10 10 9 9 -193 -193 -193 0 9 9 9 10 11 13 0 0 -177 10 11 10 10 10 10 11 12 10 11 9 11 11 10 11 11 10 10 9 9 0 0 9 0 0 9 13 10 9 10 9 9 11 11 10 9 9 14 11 13 12 12 14 15 15 19 14 15 15 16 15 15 17 19 14 16 18 20 17 17 17 17 16 18 20 20 17 27 37 34 34 35 29 26 25 24 22 18 18 17 16 17 19 19 15 14 20 21 20 19 22 23 23 -193 -193 -177 27 28 29 30 29 29 29 28 26 28 28 28 27 28 29 -193 31 32 -193 -193 31 31 0 0 0 0 0
    0 0 0 0 0 0 0 0 0 0 0 0 0 0 0 0 0 0 0 0 0 0 0 0 0 0 0 0 0 0 0 0 0 0 0 0 0 0 0 0 0 0 0 0 0 0 0 0 0 0 0 0 0 0 0 0 0 0 0 0 0 0 0 0 0 0 0 0 0 13 14 14 14 10 13 0 0 9 9 21 13 13 16 14 14 15 15 15 11 14 14 11 12 11 12 13 12 15 11 10 0 0 0 0 0 0 0 0 0 0 0 0 0 0 0 0 0 0 0 0 9 10 11 0 12 9 10 9 10 10 9 9 10 0 9 0 0 14 11 13 12 11 11 12 13 14 9 11 9 14 16 20 16 16 14 11 10 9 9 0 0 0 0 0 0 0 0 0 -225 -225 -225 -225 -225 -209 0 -193 11 10 12 9 9 9 9 9 0 0 0 0 9 9 9 9 10 10 0 0 -193 9 11 9 9 -193 9 11 11 10 11 9 11 11 10 11 12 11 10 10 10 0 0 13 0 0 10 15 11 11 11 10 10 12 11 10 9 10 14 11 13 12 12 14 14 14 18 14 15 14 15 15 15 17 19 13 16 18 20 17 17 17 17 16 20 21 21 21 28 37 35 35 37 31 26 26 24 22 18 17 17 16 17 19 19 14 14 20 21 20 19 22 23 23 23 -193 -177 26 27 28 28 27 28 28 27 26 28 28 27 28 30 30 -193 31 32 -193 -193 -193 31 0 0 0 0 0
    0 0 0 0 0 0 0 0 0 0 0 0 0 0 0 0 0 0 0 0 0 0 0 0 0 0 0 0 0 0 0 0 0 0 0 0 0 0 0 0 0 0 0 0 0 0 0 0 0 0 0 0 0 0 0 0 0 0 0 0 0 0 0 0 0 0 0 0 0 12 14 14 14 9 13 0 0 0 9 20 13 12 16 14 14 14 15 15 11 13 15 12 12 11 11 13 12 14 10 10 0 0 0 0 0 0 0 0 0 0 0 0 0 0 0 0 0 0 0 0 0 9 9 0 12 10 10 10 10 11 10 10 11 9 9 0 0 14 11 13 12 11 11 12 13 14 9 10 9 14 16 19 15 15 14 11 10 9 9 0 0 0 0 0 0 0 0 0 0 -225 -225 0 0 10 0 11 10 10 11 0 9 9 0 0 0 0 0 0 9 9 0 9 9 9 0 0 -209 9 10 9 9 -193 9 11 11 10 11 9 11 11 10 11 11 11 10 10 9 0 0 15 0 0 10 17 13 12 12 11 11 13 11 10 9 9 14 11 13 12 12 14 14 14 18 13 15 14 15 15 15 17 19 13 16 19 20 17 17 17 17 16 21 -193 -193 25 30 37 36 37 37 34 26 26 24 22 18 17 17 15 17 18 18 14 15 20 21 20 19 23 23 23 23 -193 -177 25 26 27 27 26 27 27 26 26 28 29 27 28 31 30 -193 -193 31 -193 -193 -209 30 0 0 0 0 0
    0 0 0 0 0 0 0 0 0 0 0 0 0 0 0 0 0 0 0 0 0 0 0 0 0 0 0 0 0 0 0 0 0 0 0 0 0 0 0 0 0 0 0 0 0 0 0 0 0 0 0 0 0 0 0 0 0 0 0 0 0 0 0 0 0 0 0 0 0 12 13 13 14 9 13 9 9 9 11 20 14 13 17 14 14 15 15 15 11 14 15 12 12 11 11 12 11 13 9 9 0 0 0 0 0 0 0 0 0 0 0 0 0 0 0 0 0 0 0 0 0 0 9 0 12 11 11 11 11 12 10 10 11 10 9 9 9 14 12 13 12 12 11 13 13 14 9 10 0 14 15 18 15 15 13 11 10 9 9 9 0 0 0 0 0 0 0 0 0 0 0 0 0 9 0 10 10 11 11 9 0 9 0 0 0 0 0 0 9 9 0 0 9 9 0 0 -209 0 10 9 0 -193 9 10 10 10 10 9 11 11 10 11 11 11 10 10 10 0 0 14 9 9 11 18 14 12 12 12 11 13 11 11 9 9 14 11 13 11 12 13 14 14 18 13 15 14 16 16 16 18 19 12 16 20 19 17 17 17 17 17 -193 -209 -193 27 31 36 35 36 36 34 26 25 24 21 17 16 16 15 16 18 18 13 15 19 20 20 19 23 24 24 24 91 -209 25 25 27 27 26 26 26 26 26 28 29 26 28 31 30 -193 -193 30 -193 -193 -209 30 0 0 0 0 0
    0 0 0 0 0 0 0 0 0 0 0 0 0 0 0 0 0 0 0 0 0 0 0 0 0 0 0 0 0 0 0 0 0 0 0 0 0 0 0 0 0 0 0 0 0 0 0 0 0 0 0 0 0 0 0 0 0 0 0 0 0 0 0 0 0 0 0 0 0 12 13 13 13 9 14 10 10 11 12 20 14 13 16 14 14 15 15 15 11 13 14 12 12 12 12 13 11 13 9 9 0 0 0 0 0 0 0 0 0 0 0 0 0 0 0 0 0 0 0 0 0 0 9 0 12 11 11 11 12 12 11 11 11 11 9 9 9 14 12 13 12 12 11 13 14 14 9 10 0 13 13 15 14 13 12 10 10 9 9 9 0 0 0 0 0 9 0 0 0 0 0 0 0 0 0 9 10 11 11 9 0 9 0 0 0 0 0 0 0 0 0 0 0 0 0 0 0 0 9 0 0 9 9 10 9 10 10 9 10 11 10 11 11 11 10 10 10 9 10 15 10 10 11 18 14 13 13 12 12 14 12 11 9 10 14 11 12 11 11 13 13 13 17 13 15 14 17 16 17 18 19 12 17 20 19 17 17 17 17 18 -193 -209 -193 28 32 36 35 35 36 33 25 -193 24 21 17 16 16 14 16 17 17 13 15 19 20 20 18 23 24 24 24 -177 -209 24 24 27 26 25 26 26 25 26 28 28 -193 28 31 30 -193 31 30 30 32 30 31 0 0 0 0 0
    0 0 0 0 0 0 0 0 0 0 0 0 0 0 0 0 0 0 0 0 0 0 0 0 0 0 0 0 0 0 0 0 0 0 0 0 0 0 0 0 0 0 0 0 0 0 0 0 0 0 0 0 0 0 0 0 0 0 0 0 0 0 0 0 0 0 0 0 0 12 13 13 13 9 14 10 11 12 14 20 14 13 16 13 13 14 15 14 11 13 15 13 13 13 13 14 12 13 9 9 0 0 0 0 0 0 0 0 0 0 0 0 0 0 0 0 0 0 0 0 0 0 9 0 12 11 11 11 12 12 11 11 11 11 9 9 9 14 12 13 12 12 11 13 14 14 9 10 0 12 12 13 12 12 11 10 9 9 0 0 0 0 0 9 0 9 9 0 0 0 0 0 0 0 0 0 9 10 10 0 0 9 0 0 0 0 0 0 0 0 0 0 0 0 0 0 0 0 9 0 0 0 0 9 9 10 11 9 10 10 10 10 10 11 10 10 10 9 12 18 11 11 12 19 15 14 14 13 12 15 12 11 9 10 14 12 12 11 11 13 13 13 17 13 14 14 18 17 17 19 19 13 18 20 19 17 17 17 17 18 -193 -193 -193 29 32 36 34 35 36 33 -193 -193 24 20 17 16 16 14 16 17 17 12 16 20 21 20 18 24 24 24 24 -193 -193 23 24 27 -193 25 25 25 25 26 28 29 -193 28 31 30 30 32 31 31 32 31 32 0 0 0 0 0
    0 0 0 0 0 0 0 0 0 0 0 0 0 0 0 0 0 0 0 0 0 0 0 0 0 0 0 0 0 0 0 0 0 0 0 0 0 0 0 0 0 0 0 0 0 0 0 0 0 0 0 0 0 0 0 0 0 0 0 0 0 0 0 0 0 0 0 0 0 11 12 12 12 9 13 11 11 13 15 19 16 14 17 14 14 15 15 15 12 15 16 14 15 15 14 15 13 14 9 9 0 0 0 0 0 0 0 0 0 0 0 0 0 0 0 0 0 0 0 0 9 0 9 0 12 11 11 11 12 12 11 11 12 12 10 9 9 14 12 13 12 12 11 13 14 14 9 10 0 12 11 12 12 11 11 10 9 9 0 0 0 0 0 9 9 10 10 0 0 0 0 0 0 9 0 0 9 9 10 0 0 0 0 0 0 0 0 0 0 0 0 0 9 9 0 9 0 0 9 0 0 0 0 9 0 10 11 9 10 10 10 10 10 11 11 10 11 9 10 18 12 12 12 19 15 14 14 13 13 16 13 12 9 10 14 12 12 11 11 13 13 13 16 13 14 14 18 17 17 19 19 13 18 21 18 16 17 17 17 18 22 -193 -209 29 32 35 34 35 36 31 24 23 23 20 17 16 16 14 17 17 17 12 16 19 20 19 16 23 23 23 23 -193 23 23 24 27 -193 -193 25 25 24 27 28 29 -193 29 32 31 30 32 31 31 32 31 33 0 0 0 0 0
    0 0 0 0 0 0 0 0 0 0 0 0 0 0 0 0 0 0 0 0 0 0 0 0 0 0 0 0 0 0 0 0 0 0 0 0 0 0 0 0 0 0 0 0 0 0 0 0 0 0 0 0 0 0 0 0 0 0 0 0 0 0 0 0 0 0 0 0 0 10 -193 11 11 9 13 10 11 13 15 19 16 15 18 15 14 16 16 17 13 16 17 15 16 16 16 16 13 14 9 9 0 0 0 0 0 0 0 0 0 0 0 0 0 0 0 0 0 0 0 0 9 0 9 0 12 12 11 11 12 13 11 11 12 12 10 9 9 14 12 13 13 12 11 13 14 14 10 11 9 11 12 12 12 11 10 10 9 9 9 0 8 0 9 9 9 10 10 9 9 0 0 0 0 0 0 0 9 9 9 0 0 0 0 0 0 0 0 0 9 9 0 9 9 10 0 10 0 0 9 0 0 0 0 9 0 10 10 9 10 9 10 10 10 11 11 11 12 10 10 19 12 12 13 20 15 14 14 14 13 17 13 12 9 10 14 12 12 11 11 13 13 13 16 13 14 14 18 17 18 19 19 13 18 21 18 16 17 17 17 17 22 -193 -193 28 32 34 34 35 36 27 22 21 22 19 17 16 16 14 17 18 17 12 15 17 19 18 14 23 23 23 23 -193 23 23 24 -193 -193 -193 25 25 24 26 28 29 26 30 34 33 31 33 31 31 32 32 34 0 0 0 0 0
    0 0 0 0 0 0 0 0 0 0 0 0 0 0 0 0 0 0 0 0 0 0 0 0 0 0 0 0 0 0 0 0 0 0 0 0 0 0 0 0 0 0 0 0 0 0 0 0 0 0 0 0 0 0 0 0 0 0 0 0 0 0 0 0 0 0 0 0 0 10 11 10 11 9 12 10 10 13 15 18 17 15 17 14 14 16 16 16 13 16 17 15 17 17 16 16 14 14 10 9 0 9 0 0 0 0 0 0 0 0 0 0 0 0 0 0 0 0 0 0 0 0 9 0 12 12 11 12 12 13 12 11 12 12 10 9 9 13 11 14 13 12 11 13 14 14 10 12 9 10 12 12 11 11 10 10 9 9 9 0 9 0 9 9 9 10 10 9 9 0 0 0 0 0 9 0 9 9 9 0 0 9 9 0 9 0 0 0 9 9 0 0 9 9 8 11 0 0 0 0 0 0 0 0 0 10 10 0 9 9 9 10 9 10 11 11 11 10 -177 17 12 12 12 19 15 14 14 14 13 17 13 12 9 10 13 12 12 11 11 12 12 12 16 13 14 14 19 17 18 19 19 13 18 21 17 15 17 17 17 17 21 -193 -193 28 32 33 33 36 37 -193 19 18 21 18 16 16 16 14 18 18 17 11 15 17 18 17 13 22 22 23 24 -193 24 24 24 -193 -193 -193 25 25 23 26 27 28 26 30 34 33 31 33 32 32 32 32 34 0 0 0 0 0
    0 0 0 0 0 0 0 0 0 0 0 0 0 0 0 0 0 0 0 0 0 0 0 0 0 0 0 0 0 0 0 0 0 0 0 0 0 0 0 0 0 0 0 0 0 0 0 0 0 0 0 0 0 0 0 0 0 0 0 0 0 0 0 0 0 0 0 0 0 10 10 10 10 9 12 10 10 13 15 17 -193 15 16 14 -193 15 15 -209 -193 16 17 16 17 17 17 16 14 13 11 10 10 9 9 0 0 9 0 0 0 0 0 0 0 0 0 0 0 0 0 0 0 0 9 0 12 12 11 11 12 12 11 11 12 11 10 9 9 13 11 13 13 12 11 13 13 13 10 12 9 10 11 12 11 10 10 10 9 9 9 0 9 0 9 9 9 10 9 9 9 0 0 0 0 0 9 0 9 9 9 0 0 9 9 0 9 0 0 0 9 9 0 0 9 9 0 11 0 0 0 0 0 0 0 0 0 9 10 0 9 0 9 9 0 9 9 10 0 0 0 13 11 11 11 19 14 14 14 13 13 17 12 12 9 11 13 12 12 11 11 13 12 12 16 13 14 15 19 18 19 19 20 13 19 22 17 15 16 17 16 17 21 23 -193 28 32 32 32 35 37 20 16 17 21 17 16 16 16 14 18 18 17 11 15 17 18 17 13 21 21 23 23 -193 24 24 -193 -193 -193 -193 25 26 23 26 27 28 -193 29 32 32 30 32 31 31 31 32 33 0 0 0 0 0
    0 0 0 0 0 0 0 0 0 0 0 0 0 0 0 0 0 0 0 0 0 0 0 0 0 0 0 0 0 0 0 0 0 0 0 0 0 0 0 0 0 0 0 0 0 0 0 0 0 0 0 0 0 0 0 0 0 0 0 0 0 0 0 0 0 0 0 0 0 9 10 10 10 9 11 9 10 13 15 -193 -193 16 -193 -193 -209 -209 -209 -209 -209 18 17 16 18 18 17 17 14 14 12 12 12 11 10 10 10 10 10 9 0 0 0 0 0 0 0 0 0 0 0 0 0 0 9 0 12 11 11 11 12 12 11 11 11 11 10 9 9 12 11 13 12 12 11 12 13 13 10 12 9 10 11 12 11 10 10 10 10 9 9 0 9 0 9 9 9 9 9 0 0 0 0 0 0 0 0 0 9 9 9 0 0 9 9 0 9 0 0 9 9 9 0 0 10 10 0 11 0 0 0 0 0 0 0 0 0 9 10 0 9 0 9 0 0 0 0 0 0 0 0 11 10 11 11 18 14 13 13 13 12 17 12 12 9 11 12 11 11 11 11 12 12 12 16 13 14 15 20 18 19 20 20 14 20 22 18 15 16 16 16 16 20 22 -193 27 31 31 31 33 34 20 16 16 20 17 16 16 16 14 18 18 17 11 16 17 18 16 14 19 20 22 23 32 26 26 -193 -193 -193 26 26 26 24 26 27 27 26 28 30 30 29 31 31 30 31 32 33 0 0 0 0 0
    0 0 0 0 0 0 0 0 0 0 0 0 0 0 0 0 0 0 0 0 0 0 0 0 0 0 0 0 0 0 0 0 0 0 0 0 0 0 0 0 0 0 0 0 0 0 0 0 0 0 0 0 0 0 0 0 0 0 0 0 0 0 0 0 0 0 0 0 0 9 10 10 10 9 11 9 10 13 15 -193 308 18 -193 -209 -209 -209 -209 -209 -209 19 17 17 18 18 18 17 15 15 13 14 13 12 11 11 11 12 11 9 0 0 0 0 0 0 0 0 0 0 0 0 9 9 10 0 12 11 10 11 11 12 11 11 11 10 9 9 9 12 10 12 12 12 11 12 13 13 10 12 9 9 11 11 10 10 10 10 10 9 9 0 0 0 0 9 0 9 0 0 0 0 8 0 0 0 9 0 9 9 9 0 9 9 9 0 9 0 0 8 9 9 9 9 10 11 9 12 0 0 0 0 8 0 0 0 0 9 9 0 9 0 9 0 0 0 0 0 0 0 0 10 10 10 11 17 13 12 12 12 12 16 12 11 9 11 11 11 12 11 11 13 13 13 17 14 14 16 20 19 20 20 20 14 21 22 18 14 16 16 16 16 20 21 18 26 29 29 28 30 30 19 16 17 20 16 16 16 16 14 18 18 17 11 17 18 18 16 15 19 19 21 23 -193 27 27 -193 -193 -193 27 27 27 24 26 26 26 26 27 29 29 29 31 31 31 31 32 33 0 0 0 0 0
    0 0 0 0 0 0 0 0 0 0 0 0 0 0 0 0 0 0 0 0 0 0 0 0 0 0 0 0 0 0 0 0 0 0 0 0 0 0 0 0 0 0 0 0 0 0 0 0 0 0 0 0 0 0 0 0 0 0 0 0 0 0 0 0 0 0 0 0 0 9 9 9 9 9 11 9 9 12 14 -193 309 15 15 -193 -209 -209 -209 -193 -193 18 16 17 19 19 18 18 15 16 14 15 14 12 11 11 11 12 11 0 0 0 0 0 0 0 0 0 0 0 0 0 9 9 11 0 12 10 10 10 11 11 11 10 11 10 9 9 0 11 10 12 12 11 11 12 12 12 11 12 9 9 10 11 10 10 10 9 10 9 9 0 0 0 0 0 0 0 0 0 0 0 9 0 0 9 10 9 9 9 9 0 9 0 0 0 0 0 0 0 9 0 9 9 10 12 10 13 0 0 0 0 9 0 0 0 0 9 9 9 9 0 9 9 0 9 0 0 0 0 0 9 10 10 11 16 12 12 12 12 12 16 12 11 10 12 12 12 12 13 12 14 13 13 18 15 15 17 20 19 20 21 20 15 21 23 18 14 16 16 16 16 20 20 16 26 27 27 26 28 32 18 17 18 20 17 16 16 17 14 18 18 17 11 18 19 19 19 19 21 23 24 24 38 30 29 -193 31 -193 27 27 27 24 25 25 25 25 26 28 29 30 31 31 31 31 32 33 0 0 0 0 0
    0 0 0 0 0 0 0 0 0 0 0 0 0 0 0 0 0 0 0 0 0 0 0 0 0 0 0 0 0 0 0 0 0 0 0 0 0 0 0 0 0 0 0 0 0 0 0 0 0 0 0 0 0 0 0 0 0 0 0 0 0 0 0 0 0 0 0 0 0 9 9 9 9 9 10 0 0 11 13 -193 309 14 14 13 -193 -193 -193 -193 17 19 17 17 19 19 18 18 15 16 14 15 14 12 12 12 11 12 11 0 0 0 0 0 0 0 0 0 0 0 0 0 9 10 12 0 13 10 10 10 10 11 10 10 10 9 9 0 0 -193 9 12 12 11 11 12 12 12 11 12 9 0 10 11 10 10 10 9 10 9 9 0 0 0 0 0 0 0 0 0 0 0 9 9 8 9 10 9 9 9 9 0 9 0 0 0 0 0 0 0 9 0 9 9 10 13 10 13 0 0 9 0 9 0 0 0 0 9 9 9 9 0 9 9 0 0 0 0 0 0 0 9 10 10 11 14 11 11 12 11 11 17 13 12 11 12 12 12 13 14 12 14 14 14 19 15 16 17 20 20 21 21 21 16 22 23 19 15 17 16 15 16 19 19 14 25 25 24 23 24 30 18 17 18 20 17 17 17 17 14 18 18 17 12 19 20 21 21 21 23 28 38 39 40 33 33 32 33 30 27 27 27 24 24 24 25 25 26 28 29 29 30 31 31 31 31 32 0 0 0 0 0
    0 0 0 0 0 0 0 0 0 0 0 0 0 0 0 0 0 0 0 0 0 0 0 0 0 0 0 0 0 0 0 0 0 0 0 0 0 0 0 0 0 0 0 0 0 0 0 0 0 0 0 0 0 0 0 0 0 0 0 0 0 0 0 0 0 0 0 0 0 9 9 9 9 9 10 0 0 11 13 -193 308 15 16 14 -193 -193 -193 -193 19 19 16 17 18 18 18 17 15 16 13 15 13 12 11 11 11 12 10 9 0 0 0 -193 0 0 0 0 0 0 0 0 9 11 13 9 14 10 10 10 10 11 10 9 10 -193 9 0 0 -193 9 12 11 11 11 11 12 12 10 11 0 0 10 11 10 11 10 9 10 9 9 0 0 0 0 0 0 0 0 0 0 0 10 0 0 0 9 9 9 9 9 0 9 0 0 0 0 0 0 0 9 0 0 0 9 10 9 12 0 0 0 0 9 0 0 0 0 9 0 0 9 0 9 9 0 0 0 0 0 0 0 9 10 10 10 12 11 11 11 11 11 17 13 13 12 14 13 13 14 15 13 15 14 15 20 16 16 18 20 20 21 22 21 17 23 24 19 15 17 16 15 16 19 19 13 24 24 24 23 24 29 19 19 20 21 17 17 17 17 14 18 18 16 12 20 20 21 22 23 24 38 44 43 42 36 36 36 35 32 28 28 27 23 24 24 24 26 27 29 29 31 31 33 32 31 32 32 0 0 0 0 0
    0 0 0 0 0 0 0 0 0 0 0 0 0 0 0 0 0 0 0 0 0 0 0 0 0 0 0 0 0 0 0 0 0 0 0 0 0 0 0 0 0 0 0 0 0 0 0 0 0 0 0 0 0 0 0 0 0 0 0 0 0 0 0 0 0 0 0 0 0 9 9 9 9 9 10 0 0 10 12 15 -193 14 15 13 -193 -193 -193 -209 18 19 16 17 18 18 17 17 14 16 13 15 13 12 11 12 11 12 10 0 0 0 0 -193 0 0 0 0 0 0 0 0 9 11 15 9 14 10 10 10 10 11 10 9 10 -193 9 0 0 -193 9 12 11 10 10 11 11 11 10 11 0 0 10 11 10 11 10 9 9 9 9 0 0 0 0 0 0 0 0 0 0 0 9 0 0 0 9 9 9 10 9 0 9 9 0 0 0 0 0 0 0 0 0 0 0 0 0 11 0 9 0 0 9 0 0 9 0 9 0 9 9 0 10 10 9 9 9 0 9 0 9 9 9 9 10 10 10 10 11 11 11 18 13 14 13 15 14 14 15 16 14 16 15 16 20 16 16 18 20 21 22 23 21 17 24 24 20 16 17 16 15 17 19 19 14 25 25 25 25 25 31 20 20 21 21 18 17 17 17 14 18 18 15 13 21 22 22 23 26 31 41 44 44 44 38 38 38 37 34 29 28 28 23 23 24 24 25 27 29 29 34 34 38 38 36 -193 35 0 0 0 0 0
    0 0 0 0 0 0 0 0 0 0 0 0 0 0 0 0 0 0 0 0 0 0 0 0 0 0 0 0 0 0 0 0 0 0 0 0 0 0 0 0 0 0 0 0 0 0 0 0 0 0 0 0 0 0 0 0 0 0 0 0 0 0 0 0 0 0 0 0 0 9 9 9 9 9 9 0 0 10 13 14 -193 13 13 12 -193 -193 -193 -209 15 18 16 16 18 17 17 17 14 16 13 15 14 12 12 12 11 13 11 9 0 0 0 0 0 0 0 0 0 0 0 0 9 12 15 10 14 9 9 10 10 10 9 9 9 0 9 0 0 -193 9 11 10 10 9 10 10 10 9 10 0 0 9 9 9 10 10 9 9 9 9 0 0 0 0 0 0 0 0 0 0 0 9 0 9 0 9 9 9 10 9 0 9 0 0 0 0 0 0 0 0 0 0 0 0 0 0 12 9 10 9 9 10 9 9 10 0 9 0 9 9 0 10 10 9 9 9 0 9 0 9 0 9 8 9 0 9 9 11 10 11 19 14 15 14 16 16 15 16 17 15 18 16 18 21 17 16 19 20 21 22 23 22 -193 24 24 20 16 17 16 15 17 19 19 14 25 25 25 25 26 32 22 21 22 21 18 17 17 17 14 18 18 14 13 21 22 24 25 31 36 42 45 44 45 39 39 38 37 35 30 29 28 24 24 24 24 25 27 28 27 -193 41 43 43 42 42 41 0 0 0 0 0
    0 0 0 0 0 0 0 0 0 0 0 0 0 0 0 0 0 0 0 0 0 0 0 0 0 0 0 0 0 0 0 0 0 0 0 0 0 0 0 0 0 0 0 0 0 0 0 0 0 0 0 0 0 0 0 0 0 0 0 0 0 0 0 0 0 0 0 0 0 9 9 9 9 9 9 0 0 10 13 15 13 13 14 12 -193 -193 -193 -193 14 19 16 16 18 18 17 17 15 17 13 15 14 12 12 12 12 13 11 9 0 0 0 0 0 0 0 0 0 0 0 0 10 12 14 10 14 0 9 9 9 9 9 0 9 0 9 0 0 0 0 10 9 9 9 9 9 -193 9 8 0 0 0 9 0 10 9 0 9 9 9 0 0 0 0 0 0 0 0 0 0 0 9 0 9 0 8 9 9 10 10 0 9 0 0 0 0 0 0 0 0 0 0 0 8 9 0 12 9 10 10 10 11 9 9 10 0 9 0 9 9 0 9 9 0 9 9 0 9 0 9 0 0 0 9 0 0 0 11 10 12 19 15 16 15 17 16 16 17 18 15 18 16 19 21 17 16 19 20 21 22 23 22 -193 25 24 20 17 17 16 15 18 19 18 15 24 24 25 26 26 33 22 22 23 21 17 16 16 15 13 17 17 14 15 23 24 27 30 38 40 43 45 44 45 39 39 39 37 35 30 30 29 25 26 26 25 26 29 33 -209 44 44 45 45 45 44 44 0 0 0 0 0
    0 0 0 0 0 0 0 0 0 0 0 0 0 0 0 0 0 0 0 0 0 0 0 0 0 0 0 0 0 0 0 0 0 0 0 0 0 0 0 0 0 0 0 0 0 0 0 0 0 0 0 0 0 0 0 0 0 0 0 0 0 0 0 0 0 0 0 0 0 9 9 9 -193 9 10 9 9 11 14 15 -193 14 -193 13 -193 15 15 -193 14 19 16 16 19 18 17 18 15 17 13 15 14 12 12 12 11 13 11 10 0 0 0 0 0 0 0 0 0 0 0 0 10 12 13 10 13 0 0 0 0 0 0 0 0 0 9 0 0 0 0 9 0 0 0 0 0 0 9 0 0 0 0 0 0 10 9 0 9 9 9 0 0 0 0 0 0 0 0 0 0 0 9 0 9 0 0 9 9 10 10 0 9 0 0 0 0 0 0 0 0 0 0 0 9 9 9 13 10 11 10 10 11 10 10 11 0 9 0 9 9 0 0 0 0 0 9 0 10 9 10 8 0 0 10 0 0 9 11 10 12 20 16 17 15 17 17 17 17 18 15 18 15 19 21 17 16 19 20 21 22 23 21 -193 -193 23 -193 18 17 16 15 18 19 17 15 23 24 26 27 29 38 24 24 24 22 18 16 15 15 14 17 17 14 18 25 28 35 38 41 41 45 46 45 45 41 40 40 38 36 32 31 29 26 27 27 26 28 32 -193 43 45 46 46 46 46 45 46 0 0 0 0 0
    0 0 0 0 0 0 0 0 0 0 0 0 0 0 0 0 0 0 0 0 0 0 0 0 0 0 0 0 0 0 0 0 0 0 0 0 0 0 0 0 0 0 0 0 0 0 0 0 0 0 0 0 0 0 0 0 0 0 0 0 0 0 0 0 0 0 0 0 0 0 9 9 -193 9 10 9 10 11 15 15 -193 -193 -193 -193 -209 -193 13 -193 12 18 15 16 19 18 17 18 15 17 13 15 13 11 12 12 11 13 11 11 9 9 10 0 0 0 0 0 0 0 0 0 -193 12 13 11 14 9 0 0 0 0 0 0 0 0 9 0 0 0 0 0 0 0 0 0 0 0 0 0 0 0 0 0 0 10 9 0 9 0 9 0 0 0 0 0 0 0 0 0 0 0 9 0 0 0 0 0 8 10 10 0 9 9 0 0 0 0 0 0 0 0 0 0 0 9 9 13 11 12 11 11 12 10 11 12 0 9 0 9 0 0 0 0 0 0 9 9 10 10 11 10 9 9 11 0 0 9 11 11 13 21 17 18 16 18 17 18 18 19 15 19 15 20 21 17 15 19 19 20 21 23 21 -193 -209 23 -193 18 17 16 15 18 19 16 17 24 25 28 28 31 39 26 27 26 -193 -193 17 -193 -193 -193 -193 -193 -193 19 25 31 39 41 42 43 46 46 46 46 42 41 41 39 37 33 32 30 26 29 28 27 30 37 43 46 47 47 47 47 46 46 47 0 0 0 0 0
    0 0 0 0 0 0 0 0 0 0 0 0 0 0 0 0 0 0 0 0 0 0 0 0 0 0 0 0 0 0 0 0 0 0 0 0 0 0 0 0 0 0 0 0 0 0 0 0 0 0 0 0 0 0 0 0 0 0 0 0 0 0 0 0 0 0 0 0 0 0 0 0 -193 0 9 9 10 11 15 15 -193 12 13 -193 -193 12 12 13 12 18 16 16 19 18 18 18 15 17 13 14 13 11 12 12 12 14 11 13 10 11 15 0 0 0 0 0 0 0 0 0 -193 12 13 11 14 9 9 0 0 0 0 0 0 0 9 0 0 0 0 0 0 0 0 0 0 0 0 0 0 0 0 0 0 10 0 0 0 0 9 0 0 0 0 0 0 0 0 0 0 0 0 0 0 0 0 0 0 10 10 0 0 9 0 0 0 0 0 0 0 0 0 0 0 0 9 14 11 13 11 12 12 11 12 13 9 10 0 9 9 0 0 9 0 9 10 10 11 11 11 10 9 9 12 9 9 10 12 12 14 21 18 19 17 18 18 18 18 19 15 18 15 20 21 16 15 18 19 20 21 22 20 -193 -209 22 -193 18 17 16 15 18 19 15 19 24 25 28 29 33 39 29 30 28 -177 -177 -193 -193 -193 -193 -193 -193 -209 20 26 37 42 42 43 44 47 47 46 47 43 42 41 40 38 35 34 33 28 34 32 32 36 41 45 47 48 48 48 48 47 47 48 0 0 0 0 0
    0 0 0 0 0 0 0 0 0 0 0 0 0 0 0 0 0 0 0 0 0 0 0 0 0 0 0 0 0 0 0 0 0 0 0 0 0 0 0 0 0 0 0 0 0 0 0 0 0 0 0 0 0 0 0 0 0 0 0 0 0 0 0 0 0 0 0 0 0 0 0 0 -193 0 9 9 10 11 14 15 14 13 14 12 12 13 12 13 13 18 17 17 19 18 18 19 16 18 13 15 13 11 13 13 13 16 13 17 13 17 22 11 0 0 0 0 0 0 0 0 10 12 13 12 14 10 9 9 0 0 0 0 0 0 9 0 0 0 0 0 0 0 0 0 0 0 0 0 0 0 0 0 0 9 0 0 0 0 9 0 0 0 0 0 9 9 0 0 0 0 0 0 0 0 0 0 0 10 9 0 0 9 0 0 0 0 0 0 0 0 0 0 0 0 0 13 11 13 11 12 12 12 13 14 10 11 9 10 11 9 10 10 10 9 11 11 11 11 11 10 10 10 12 9 9 11 12 12 15 21 18 19 17 18 17 18 19 19 15 18 14 20 21 16 14 18 18 20 20 22 20 -193 -193 22 -193 18 17 16 15 18 19 14 20 24 25 29 30 35 41 33 33 31 -193 -177 -209 -193 -193 -193 -193 -193 -209 23 30 40 43 43 43 44 47 46 46 46 44 42 41 40 39 37 37 36 32 39 38 39 41 43 46 49 48 48 48 48 48 47 48 0 0 0 0 0
    0 0 0 0 0 0 0 0 0 0 0 0 0 0 0 0 0 0 0 0 0 0 0 0 0 0 0 0 0 0 0 0 0 0 0 0 0 0 0 0 0 0 0 0 0 0 0 0 0 0 0 0 0 0 0 0 0 0 0 0 0 0 0 0 0 0 0 0 0 0 0 0 -193 0 9 9 10 11 14 14 14 13 15 13 12 13 13 14 14 18 17 17 19 18 18 19 16 18 13 15 13 12 14 14 14 18 16 22 19 23 24 19 9 0 0 0 0 0 0 0 10 12 12 11 13 10 8 9 0 0 0 0 0 0 9 0 0 0 0 0 0 0 0 0 0 0 0 0 0 0 0 0 0 9 0 0 0 0 9 0 9 9 0 9 10 9 0 0 0 0 0 0 0 0 0 0 0 9 9 0 0 -193 0 0 0 0 0 0 0 0 0 0 0 0 0 14 12 13 12 12 13 12 14 15 11 13 10 13 13 11 12 12 12 10 12 12 11 11 11 10 10 9 12 9 9 11 12 12 15 21 18 19 17 18 18 19 19 19 16 19 14 21 21 16 -193 18 17 19 20 22 -193 -193 -193 21 -193 18 17 16 15 18 18 13 20 24 25 29 31 37 42 37 37 36 -193 -177 -209 -193 -193 -193 25 -209 -209 28 37 41 44 44 44 44 47 45 46 46 44 42 41 41 41 38 39 39 38 41 42 42 43 44 46 48 48 48 48 48 48 48 49 0 0 0 0 0
    0 0 0 0 0 0 0 0 0 0 0 0 0 0 0 0 0 0 0 0 0 0 0 0 0 0 0 0 0 0 0 0 0 0 0 0 0 0 0 0 0 0 0 0 0 0 0 0 0 0 0 0 0 0 0 0 0 0 0 0 0 0 0 0 0 0 0 0 0 0 9 0 -193 0 9 9 9 11 13 14 13 12 14 12 12 13 12 13 13 17 18 17 19 18 18 19 17 18 14 15 14 13 16 17 17 21 21 25 24 26 25 21 12 9 0 0 9 9 0 0 10 11 11 10 11 9 0 0 0 0 0 0 0 0 9 0 0 0 0 0 0 0 0 0 0 0 0 0 0 0 0 0 0 10 0 0 0 0 10 9 9 9 0 9 10 10 0 0 0 0 0 0 0 0 0 0 0 9 -193 0 -193 -193 0 0 0 0 0 0 0 0 0 0 0 0 0 14 12 14 12 12 13 13 15 15 12 16 11 16 18 17 16 17 17 12 14 13 12 12 11 11 10 10 11 9 9 11 11 11 16 21 18 19 17 18 17 18 19 18 15 18 13 21 20 14 -193 17 17 19 19 21 -193 -193 -177 20 -193 18 18 16 16 19 19 13 22 25 26 28 32 38 43 39 39 38 38 -193 -193 35 27 28 32 30 -209 40 40 42 44 45 44 45 47 45 46 46 44 42 42 41 42 41 42 42 41 43 43 43 44 45 46 47 47 48 48 48 48 48 49 0 0 0 0 0
    0 0 0 0 0 0 0 0 0 0 0 0 0 0 0 0 0 0 0 0 0 0 0 0 0 0 0 0 0 0 0 0 0 0 0 0 0 0 0 0 0 0 0 0 0 0 0 0 0 0 0 0 0 0 0 0 0 0 0 0 0 0 0 0 0 0 0 0 0 0 9 9 -193 0 9 9 9 10 12 13 12 12 15 13 12 13 13 14 13 16 18 17 20 18 18 19 17 19 15 16 16 15 19 20 21 23 -209 28 28 28 26 22 15 10 0 0 10 10 0 9 10 11 10 10 10 0 0 0 0 0 0 0 0 0 9 0 0 0 0 0 0 0 0 0 0 0 0 0 0 0 0 0 0 10 0 0 -177 0 10 9 9 9 0 9 10 10 0 0 0 0 0 0 0 0 0 0 0 -193 -193 -193 -193 394 0 0 0 0 0 0 0 0 0 0 0 0 0 14 11 13 11 12 12 12 14 14 12 16 -193 18 21 22 21 20 20 15 16 14 12 12 12 12 10 10 12 10 10 11 11 11 16 20 19 19 17 18 17 19 20 17 15 17 12 20 18 13 -193 16 16 18 18 20 -193 17 -193 20 -193 18 18 17 17 20 20 14 24 27 28 29 33 38 42 39 40 39 39 41 39 40 40 35 38 38 42 41 41 43 45 45 44 45 47 45 46 46 44 42 42 42 42 42 44 44 44 44 45 44 45 45 46 47 47 48 48 49 49 48 50 0 0 0 0 0
    0 0 0 0 0 0 0 0 0 0 0 0 0 0 0 0 0 0 0 0 0 0 0 0 0 0 0 0 0 0 0 0 0 0 0 0 0 0 0 0 0 0 0 0 0 0 0 0 0 0 0 0 0 0 0 0 0 0 0 0 0 0 0 0 0 0 0 0 0 0 9 9 0 0 9 9 9 10 11 13 13 12 16 13 13 13 13 14 13 16 19 16 20 18 18 19 17 19 17 17 17 17 21 22 22 25 28 31 -193 29 26 21 16 11 0 0 10 10 0 9 10 11 10 10 10 0 0 0 0 0 0 0 0 0 0 0 0 0 0 0 0 0 0 0 0 0 0 0 0 0 0 0 0 11 0 0 -177 0 10 9 9 9 0 9 10 9 0 0 0 0 0 0 0 0 0 0 0 -193 -193 -193 -193 394 -193 0 0 0 0 0 0 0 0 0 0 0 0 12 10 12 10 11 11 11 13 12 12 18 -193 21 23 25 24 23 22 18 18 15 13 13 12 12 11 11 12 10 11 11 11 11 16 19 19 19 17 18 17 19 20 16 15 16 12 18 16 13 -193 15 15 17 17 20 16 17 -193 19 16 18 19 18 18 20 21 16 25 29 30 29 34 38 41 40 40 39 40 42 41 42 42 40 41 41 43 42 42 43 44 45 44 45 47 45 46 46 44 43 44 44 45 44 46 46 45 45 45 45 46 45 46 46 47 48 49 49 49 49 51 0 0 0 0 0
    0 0 0 0 0 0 0 0 0 0 0 0 0 0 0 0 0 0 0 0 0 0 0 0 0 0 0 0 0 0 0 0 0 0 0 0 0 0 0 0 0 0 0 0 0 0 0 0 0 0 0 0 0 0 0 0 0 0 0 0 0 0 0 0 0 0 0 0 0 0 9 9 0 9 9 9 9 10 11 14 13 12 16 13 13 13 13 14 13 15 19 16 20 18 18 19 18 19 19 18 20 20 24 25 25 28 30 32 33 31 28 24 20 13 9 10 10 10 9 9 11 12 10 9 9 0 0 0 0 0 0 0 0 9 0 0 0 0 0 0 0 0 0 0 0 0 0 0 0 0 0 0 0 12 0 0 -177 9 10 10 9 9 0 10 10 10 9 0 0 0 0 0 0 0 0 0 0 -193 -193 -193 -193 394 -193 0 0 0 0 0 0 0 0 0 0 0 0 10 9 10 9 9 -193 11 11 11 12 20 -209 23 25 27 26 25 23 21 19 15 14 13 12 12 11 11 12 10 11 11 11 11 16 18 18 18 16 17 17 20 20 16 16 16 12 18 16 14 11 15 15 17 17 20 16 17 23 18 16 18 19 18 19 21 22 18 26 31 31 30 35 38 40 40 41 40 40 42 43 43 43 41 42 42 44 43 42 43 44 44 44 44 47 44 45 45 45 44 48 48 49 46 48 48 47 46 46 45 46 44 46 46 47 48 49 50 50 49 52 0 0 0 0 0
    0 0 0 0 0 0 0 0 0 0 0 0 0 0 0 0 0 0 0 0 0 0 0 0 0 0 0 0 0 0 0 0 0 0 0 0 0 0 0 0 0 0 0 0 0 0 0 0 0 0 0 0 0 0 0 0 0 0 0 0 0 0 0 0 0 0 0 0 0 0 0 0 0 8 9 9 9 9 10 14 12 12 16 13 13 13 14 14 13 15 19 16 19 18 18 19 18 20 20 19 22 23 26 27 27 30 31 33 34 32 28 24 22 18 12 12 11 12 10 11 12 13 12 10 10 0 0 0 0 0 0 0 0 9 0 0 0 0 0 0 0 0 0 0 0 0 0 0 0 0 0 0 0 13 9 9 9 9 10 10 10 10 0 10 11 11 10 0 0 0 0 0 0 0 -193 -193 -193 -177 -193 -193 -193 -193 -193 0 0 0 0 0 0 0 0 0 0 0 0 -193 0 9 -193 -193 -193 10 11 11 13 22 -209 25 26 29 27 27 24 22 20 16 14 13 12 12 11 11 12 10 10 10 10 10 16 16 17 18 15 16 17 20 19 15 17 16 13 19 16 15 12 16 16 17 18 20 16 18 -193 18 16 18 19 19 19 22 22 20 27 31 31 31 36 38 40 41 42 41 41 43 43 43 43 42 43 42 45 43 43 44 44 44 44 44 46 43 45 44 44 45 51 50 51 47 49 49 48 47 47 45 47 44 47 47 48 49 49 50 51 50 52 0 0 0 0 0
    0 0 0 0 0 0 0 0 0 0 0 0 0 0 0 0 0 0 0 0 0 0 0 0 0 0 0 0 0 0 0 0 0 0 0 0 0 0 0 0 0 0 0 0 0 0 0 0 0 0 0 0 0 0 0 0 0 0 0 0 0 0 0 0 0 0 0 0 0 0 0 9 0 9 9 9 9 9 10 15 13 13 17 14 14 14 15 15 13 16 20 16 20 19 20 20 20 22 22 21 24 25 30 31 29 31 33 35 34 31 26 22 20 18 14 13 12 13 10 12 13 14 12 10 10 0 0 0 0 0 0 0 0 9 0 0 0 0 0 0 0 0 0 0 0 0 0 0 0 0 0 9 0 13 9 9 9 9 10 10 10 10 9 11 13 14 12 11 11 12 23 19 -209 -193 -193 -193 395 -177 -193 -193 -193 -193 -193 -209 9 9 0 10 13 13 11 10 0 0 0 0 0 -209 -193 -193 9 11 12 11 15 23 24 27 29 32 30 30 26 24 21 16 15 14 12 12 11 11 12 10 10 10 10 9 16 15 16 17 14 16 17 20 19 15 18 16 13 18 16 16 13 17 17 18 19 20 17 19 -193 18 16 19 19 19 20 22 22 20 26 31 31 31 36 39 41 41 42 41 42 43 44 44 43 43 43 43 45 44 44 44 43 44 43 44 46 43 45 44 43 45 52 50 51 48 50 49 49 48 48 46 48 45 49 48 48 49 50 50 51 51 53 0 0 0 0 0
    0 0 0 0 0 0 0 0 0 0 0 0 0 0 0 0 0 0 0 0 0 0 0 0 0 0 0 0 0 0 0 0 0 0 0 0 0 0 0 0 0 0 0 0 0 0 0 0 0 0 0 0 0 0 0 0 0 0 0 0 0 0 0 0 0 0 0 0 0 9 9 9 9 9 10 9 9 10 10 16 14 14 18 15 15 15 16 16 13 15 20 16 20 20 20 22 22 23 23 23 26 27 31 31 29 31 33 34 34 32 27 25 23 22 16 14 13 15 11 13 15 17 13 12 13 11 10 11 11 0 0 0 0 9 0 0 0 0 0 0 0 0 0 0 0 0 0 0 0 9 0 10 9 13 10 9 9 -177 10 11 11 11 10 13 17 19 18 18 26 25 28 28 28 -209 -193 -177 -177 -193 -193 -193 -193 394 394 -193 11 13 12 17 24 24 -193 -193 -193 0 0 0 0 -209 -193 -193 9 11 12 12 18 25 27 29 33 35 33 34 29 28 23 18 16 14 12 12 11 11 12 11 10 10 9 9 15 14 15 17 14 15 17 20 18 15 18 17 13 18 17 18 14 18 18 19 20 21 18 19 22 17 16 19 19 19 20 22 22 20 26 30 30 31 37 39 41 41 42 41 42 43 43 43 43 43 43 43 45 44 44 44 43 44 43 44 45 43 44 43 43 46 52 50 52 48 50 50 49 48 48 46 48 45 50 48 49 49 50 50 51 51 53 0 0 0 0 0
    0 0 0 0 0 0 0 0 0 0 0 0 0 0 0 0 0 0 0 0 0 0 0 0 0 0 0 0 0 0 0 0 0 0 0 0 0 0 0 0 0 0 0 0 0 0 0 0 0 0 0 0 0 0 0 0 0 0 0 0 0 0 0 0 0 0 0 0 0 9 9 9 9 9 10 9 9 10 10 17 14 14 18 15 15 16 16 16 13 15 20 16 21 20 21 22 23 24 24 24 27 29 31 31 29 31 33 33 33 31 28 26 25 25 20 18 15 17 13 17 19 21 16 17 20 18 20 19 21 12 0 9 9 11 0 0 0 0 0 0 0 -193 -193 -193 0 0 9 0 0 9 0 11 10 17 12 11 12 13 13 14 14 14 13 17 22 22 23 23 27 27 29 29 29 28 -209 -177 -177 -193 -193 394 -193 -193 -193 -193 15 19 19 24 27 27 -193 -193 -193 0 0 0 0 -193 0 0 9 11 13 13 19 26 30 32 35 37 36 37 35 37 -193 18 16 14 12 12 12 11 12 11 10 10 9 9 16 13 15 17 13 15 17 20 18 15 19 17 14 18 18 19 15 19 19 19 21 21 19 19 21 17 16 19 19 19 20 22 22 20 26 30 30 31 37 39 40 41 42 -193 -193 42 43 43 42 43 43 43 45 43 45 44 43 44 43 44 45 43 44 43 43 45 52 49 51 48 50 49 49 48 48 46 48 44 50 48 50 49 50 50 51 51 52 0 0 0 0 0
    0 0 0 0 0 0 0 0 0 0 0 0 0 0 0 0 0 0 0 0 0 0 0 0 0 0 0 0 0 0 0 0 0 0 0 0 0 0 0 0 0 0 0 0 0 0 0 0 0 0 0 0 0 0 0 0 0 0 0 0 0 0 0 0 0 0 0 0 0 9 9 9 9 9 10 10 9 9 10 17 14 14 17 15 15 16 17 17 13 15 20 16 21 20 21 23 23 25 26 26 29 30 33 32 30 33 34 34 34 32 29 27 28 27 24 22 20 20 18 21 22 23 20 22 25 23 25 24 25 24 12 17 23 19 -193 12 -209 0 0 0 -209 -193 -177 -193 -193 0 10 11 0 10 9 11 11 21 19 16 17 19 19 21 21 20 19 22 24 25 25 24 28 29 29 30 30 29 27 -193 -193 -193 -193 -193 -193 -193 -193 15 19 23 24 26 28 28 27 -193 -209 -193 0 0 0 0 0 0 9 12 15 15 21 27 33 32 35 37 37 38 37 39 -209 19 18 15 12 12 12 11 12 12 11 10 10 9 16 14 15 17 13 16 18 20 18 15 19 18 14 18 19 20 16 20 20 20 21 21 19 19 21 16 16 19 18 19 -193 -193 22 21 26 30 30 31 37 39 39 40 41 -193 -193 41 42 42 42 43 43 42 44 43 45 44 43 44 43 44 44 43 44 43 43 45 52 49 51 47 49 48 48 47 47 45 48 44 50 48 50 49 50 50 51 51 52 0 0 0 0 0
    0 0 0 0 0 0 0 0 0 0 0 0 0 0 0 0 0 0 0 0 0 0 0 0 0 0 0 0 0 0 0 0 0 0 0 0 0 0 0 0 0 0 0 0 0 0 0 0 0 0 0 0 0 0 0 0 0 0 0 0 0 0 0 0 0 0 0 0 0 9 9 9 9 9 11 10 10 9 10 18 14 14 18 15 15 16 17 17 13 16 20 16 -193 21 22 -209 -193 26 27 27 30 32 33 33 31 35 35 34 34 31 29 29 30 28 25 23 22 23 22 23 24 25 24 25 27 26 27 26 27 27 22 25 26 24 28 23 29 -193 9 -209 -193 -177 -177 -193 11 10 12 13 10 12 10 14 21 25 25 24 23 24 24 25 25 24 24 25 26 26 26 26 29 29 30 30 30 30 28 27 28 -193 -193 -193 9 11 15 20 23 25 27 28 30 29 28 -193 -193 -193 0 0 0 0 0 0 9 12 20 20 24 28 35 34 36 38 38 38 38 40 33 20 19 17 13 13 13 11 12 12 11 10 10 10 16 13 15 17 13 16 18 21 19 16 21 19 -193 -193 20 21 18 21 21 21 21 21 20 20 20 16 16 19 18 19 -193 -177 23 -193 27 30 30 32 37 39 38 39 40 40 40 41 42 42 -193 43 43 42 44 43 45 44 43 43 42 43 44 43 44 42 42 46 51 48 51 47 49 48 48 47 47 45 48 44 50 48 50 49 50 50 51 51 51 0 0 0 0 0
    0 0 0 0 0 0 0 0 0 0 0 0 0 0 0 0 0 0 0 0 0 0 0 0 0 0 0 0 0 0 0 0 0 0 0 0 0 0 0 0 0 0 0 0 0 0 0 0 0 0 0 0 0 0 0 0 0 0 0 0 0 0 0 0 0 0 0 0 0 10 10 10 9 10 14 12 12 11 12 20 15 15 18 15 15 17 18 18 14 17 21 17 -193 22 23 -209 25 27 29 29 31 33 34 34 32 35 34 33 33 31 29 29 30 28 26 25 25 25 25 25 26 27 26 28 29 28 28 27 28 28 25 26 27 27 33 32 36 34 -193 28 -193 -177 -177 -193 12 11 12 12 10 12 10 16 26 27 29 27 26 27 26 27 27 26 26 26 27 28 27 27 30 31 30 31 31 31 30 30 30 26 21 16 13 16 20 24 25 27 29 29 31 29 28 -193 -193 -193 0 9 -193 9 9 0 11 16 24 25 26 29 36 35 36 37 38 38 37 39 36 22 20 18 14 13 13 11 12 12 11 11 10 10 17 13 15 17 13 16 18 21 19 17 21 20 -177 -177 21 22 19 22 22 21 22 21 20 20 20 16 17 20 18 19 -177 -177 23 -193 27 31 30 33 37 38 37 39 40 39 40 41 -193 41 -209 43 43 42 44 43 45 44 43 43 42 44 44 43 44 42 42 47 52 49 51 48 50 48 48 47 47 45 47 45 50 48 49 48 49 50 50 50 50 0 0 0 0 0
    0 0 0 0 0 0 0 0 0 0 0 0 0 0 0 0 0 0 0 0 0 0 0 0 0 0 0 0 0 0 0 0 0 0 0 0 0 0 0 0 0 0 0 0 0 0 0 0 0 0 0 0 0 0 0 0 0 0 0 0 0 0 0 0 0 0 0 0 0 11 11 11 10 11 20 16 16 14 14 21 16 15 19 16 16 18 19 19 14 19 21 18 -193 -193 23 -193 27 30 31 30 33 34 35 35 32 35 34 33 33 31 30 31 31 30 28 26 26 26 27 27 28 29 28 30 31 29 30 29 29 29 26 28 28 30 35 36 37 37 31 33 -193 -193 -177 -193 14 11 12 11 10 11 9 18 29 29 33 31 29 29 28 29 29 28 28 28 29 30 29 29 32 32 31 32 32 32 32 32 32 28 25 22 21 22 23 25 26 29 31 31 32 30 29 -193 -193 -193 10 11 10 10 11 10 15 22 26 27 28 30 35 35 36 37 38 37 37 39 37 -209 22 20 14 13 14 11 13 12 12 11 11 11 17 14 15 17 14 16 18 21 19 17 22 21 -193 -177 21 23 19 22 21 21 22 21 20 20 19 16 17 20 18 18 -177 -177 -193 -209 27 30 29 33 37 38 37 38 39 39 40 40 41 41 -209 43 43 43 44 44 45 44 43 44 42 44 44 43 44 42 43 48 53 50 51 48 50 49 48 47 47 45 47 45 49 47 48 47 48 49 49 50 48 0 0 0 0 0</data></disparity>
</opencv_storage>
