<?xml version="1.0"?>
<opencv_storage>
<gps_time_stamp>29442</gps_time_stamp>
<gps_x>-7.4150290489196777e+000</gps_x>
<gps_y>1.0427439212799072e+000</gps_y>
<gps_z>-1.9970885515213013e+000</gps_z>
<image_time_stamp>17364</image_time_stamp>
<disparity type_id="opencv-matrix">
  <rows>91</rows>
  <cols>320</cols>
  <dt>s</dt>
  <data>
    0 0 0 0 0 0 0 0 0 0 0 0 0 0 0 0 0 0 0 0 0 0 0 0 0 0 0 0 0 0 0 0 0 0 0 0 0 0 0 0 0 0 0 0 0 0 0 0 0 0 0 0 0 0 0 0 0 0 0 0 0 0 0 0 0 0 0 0 0 -225 -225 -225 -225 -225 -225 -225 -225 -225 -225 -225 -225 16 16 16 16 16 16 16 18 9 9 10 10 10 0 0 0 0 0 0 0 0 0 0 0 0 0 0 0 0 0 9 0 0 11 9 11 10 10 0 0 0 0 0 0 0 0 0 0 -209 -209 19 20 16 12 10 9 9 0 0 0 0 0 0 0 0 0 0 0 0 10 11 11 12 11 13 10 9 10 9 9 10 9 10 9 10 12 10 -193 -177 10 12 0 0 0 -193 0 0 0 0 0 9 9 0 0 0 0 0 0 0 0 0 -209 9 0 0 9 9 9 10 10 10 9 9 9 9 9 9 9 15 12 16 16 16 16 16 16 16 -225 -225 -225 -225 -225 -225 -225 -225 -225 -225 -225 -225 -225 13 12 12 11 12 13 13 14 14 15 17 17 19 20 19 20 19 20 20 20 20 19 20 21 20 21 20 21 21 20 22 24 24 24 25 26 26 27 28 28 27 29 31 34 33 35 36 36 36 37 36 36 35 36 36 36 36 37 36 37 37 39 40 41 40 42 42 42 45 44 43 45 48 46 46 48 48 47 50 49 49 50 50 50 0 0 0 0 0
    0 0 0 0 0 0 0 0 0 0 0 0 0 0 0 0 0 0 0 0 0 0 0 0 0 0 0 0 0 0 0 0 0 0 0 0 0 0 0 0 0 0 0 0 0 0 0 0 0 0 0 0 0 0 0 0 0 0 0 0 0 0 0 0 0 0 0 0 0 -225 -225 -225 -225 -225 -225 -225 -225 -225 -225 -225 -225 16 16 16 16 16 16 16 18 9 10 10 10 10 0 0 0 0 0 0 0 0 0 0 0 0 0 0 0 0 0 0 0 0 12 10 11 10 10 0 0 0 0 0 0 0 0 0 0 -209 -209 -209 -209 17 12 10 9 9 0 0 0 0 0 0 0 0 0 0 0 0 10 10 11 12 12 13 11 10 10 9 9 10 9 10 9 9 11 -193 -193 610 10 13 0 0 0 9 0 0 0 0 0 9 9 0 0 0 0 0 0 9 0 9 9 9 0 0 9 9 9 9 9 9 9 9 9 9 9 9 9 14 12 14 14 14 14 14 14 14 -225 -225 -225 -225 -225 -225 -225 -225 -225 -225 -225 -225 14 13 13 14 13 14 14 15 15 16 17 17 17 19 19 18 20 19 20 19 20 20 20 20 21 20 21 21 22 22 21 23 24 24 24 26 26 26 27 29 29 27 30 31 33 33 34 35 35 35 37 36 36 35 36 36 36 36 37 36 37 37 39 40 41 41 42 43 42 45 44 44 45 47 47 47 49 48 47 51 50 49 50 50 50 0 0 0 0 0
    0 0 0 0 0 0 0 0 0 0 0 0 0 0 0 0 0 0 0 0 0 0 0 0 0 0 0 0 0 0 0 0 0 0 0 0 0 0 0 0 0 0 0 0 0 0 0 0 0 0 0 0 0 0 0 0 0 0 0 0 0 0 0 0 0 0 0 0 0 -225 -225 -225 -225 -225 -225 -225 -225 -225 -225 -225 -225 16 16 16 16 16 16 16 18 9 10 10 10 10 0 0 0 0 0 0 0 0 0 0 0 0 0 0 0 0 0 0 0 0 12 10 11 10 10 0 0 0 0 0 0 0 0 0 0 -209 -209 -209 -209 16 12 10 9 9 0 0 0 0 0 0 0 0 0 0 0 0 10 10 10 12 11 13 11 10 10 9 9 9 9 9 0 0 10 -209 -193 609 -193 13 0 0 0 9 0 0 0 0 0 9 9 0 0 0 9 0 0 9 0 9 9 0 0 0 0 9 0 9 9 9 9 9 9 9 9 9 9 12 11 13 13 13 13 13 13 13 -225 -225 -225 -225 -225 -225 -225 -225 -225 -225 -225 14 13 13 13 14 14 15 15 16 16 17 18 18 17 19 19 18 20 20 20 19 20 21 20 21 21 20 21 21 21 22 21 23 24 24 24 26 27 27 28 29 29 28 31 32 33 34 35 35 35 35 36 36 36 35 36 36 36 36 37 36 37 37 39 40 41 41 42 43 42 45 43 43 44 47 46 47 49 49 47 51 50 50 49 50 50 0 0 0 0 0
    0 0 0 0 0 0 0 0 0 0 0 0 0 0 0 0 0 0 0 0 0 0 0 0 0 0 0 0 0 0 0 0 0 0 0 0 0 0 0 0 0 0 0 0 0 0 0 0 0 0 0 0 0 0 0 0 0 0 0 0 0 0 0 0 0 0 0 0 0 0 -225 -225 -225 -225 -225 -225 -225 -225 -225 -225 -225 16 16 16 16 16 16 16 18 9 10 10 10 10 0 0 0 0 0 0 0 0 0 0 0 0 0 0 0 0 0 8 9 0 13 11 11 11 11 0 0 0 0 0 0 0 0 0 0 -209 9 18 16 14 10 9 0 0 0 0 0 0 0 0 0 0 0 0 0 0 9 10 10 11 11 12 11 9 9 0 0 9 0 0 0 0 0 -209 -193 -193 9 13 0 0 0 -193 0 0 0 0 0 9 0 0 0 0 9 9 9 10 9 10 9 0 8 0 0 9 0 9 0 9 9 9 9 9 9 9 9 11 10 11 11 11 11 11 11 -225 -225 -225 -225 -225 -225 -225 -225 -225 -225 -225 -225 12 13 13 13 15 15 16 17 18 17 19 19 18 18 19 18 19 20 20 20 20 21 21 20 21 21 21 21 21 22 22 22 23 24 24 24 26 26 26 27 29 29 29 31 32 33 34 35 35 35 35 36 36 36 35 35 36 36 36 37 36 37 37 39 40 41 41 42 43 41 45 43 43 44 48 47 47 49 49 48 51 50 50 49 50 50 0 0 0 0 0
    0 0 0 0 0 0 0 0 0 0 0 0 0 0 0 0 0 0 0 0 0 0 0 0 0 0 0 0 0 0 0 0 0 0 0 0 0 0 0 0 0 0 0 0 0 0 0 0 0 0 0 0 0 0 0 0 0 0 0 0 0 0 0 0 0 0 0 0 0 8 0 -225 -225 -225 -225 -225 -225 -225 -225 -225 -225 16 16 16 16 16 16 16 18 9 10 10 10 10 0 0 0 0 0 0 0 0 0 0 0 0 0 0 0 0 0 0 9 0 12 10 11 10 11 0 0 0 0 0 0 0 0 0 0 -209 9 15 14 12 10 9 0 0 0 0 0 0 0 0 0 0 0 0 0 0 0 9 9 11 11 12 11 9 9 0 0 0 0 0 0 0 0 -193 -193 -209 9 15 0 0 9 9 0 0 0 0 0 0 0 0 0 0 0 9 9 10 9 10 0 0 0 0 0 0 0 0 0 9 9 9 9 9 9 9 9 9 9 9 9 9 9 9 9 -225 -225 -225 -225 -225 -225 -225 -225 -225 -225 -225 13 13 15 15 15 16 16 17 18 19 19 19 19 18 18 19 17 18 19 19 19 19 20 21 20 21 21 21 22 22 22 22 22 24 24 24 24 26 26 26 27 29 29 29 31 32 33 34 35 34 34 34 35 36 36 35 35 36 36 36 37 36 36 36 39 40 41 41 42 43 40 45 43 43 44 48 47 47 50 49 48 51 50 50 49 50 49 0 0 0 0 0
    0 0 0 0 0 0 0 0 0 0 0 0 0 0 0 0 0 0 0 0 0 0 0 0 0 0 0 0 0 0 0 0 0 0 0 0 0 0 0 0 0 0 0 0 0 0 0 0 0 0 0 0 0 0 0 0 0 0 0 0 0 0 0 0 0 0 0 0 0 9 9 0 -225 -225 -225 -225 -225 -225 -225 -225 -225 16 16 16 16 16 16 16 18 9 10 9 9 9 0 0 0 0 0 0 0 0 0 0 0 0 0 0 0 0 0 0 0 0 12 10 10 10 11 0 0 0 0 0 0 0 0 0 0 0 9 13 12 10 0 0 0 0 0 0 0 0 0 0 0 0 0 0 0 0 0 9 9 11 11 12 11 9 10 0 0 0 0 0 0 0 0 0 0 -209 10 16 9 9 10 10 9 9 0 0 0 0 0 0 0 9 9 9 9 10 9 10 0 0 0 0 0 0 0 0 0 0 0 0 0 9 9 9 9 0 0 0 0 0 0 0 0 -225 -225 -225 -225 -225 -225 -225 -225 -225 -225 14 13 15 15 15 15 16 16 17 18 19 18 18 18 18 17 18 17 18 19 19 19 19 20 21 20 22 21 21 22 22 22 22 22 24 24 25 24 26 27 27 28 29 29 30 31 32 32 33 34 34 34 34 35 36 36 35 35 35 36 35 37 36 36 36 38 39 40 41 41 41 40 44 42 42 44 47 46 47 50 49 48 51 50 49 49 49 49 0 0 0 0 0
    0 0 0 0 0 0 0 0 0 0 0 0 0 0 0 0 0 0 0 0 0 0 0 0 0 0 0 0 0 0 0 0 0 0 0 0 0 0 0 0 0 0 0 0 0 0 0 0 0 0 0 0 0 0 0 0 0 0 0 0 0 0 0 0 0 0 0 0 0 9 9 0 -225 -225 -225 -225 -225 -225 -225 -225 -225 16 16 16 16 16 16 16 18 9 9 0 0 0 0 0 0 0 0 0 0 0 0 0 0 0 0 0 0 0 0 0 0 0 11 10 10 10 11 0 0 0 0 0 0 0 0 0 0 0 9 13 11 10 0 0 0 0 0 0 0 0 0 0 0 0 0 0 0 0 0 9 9 10 10 11 12 10 11 9 9 9 0 0 0 0 0 0 0 -209 9 16 10 10 10 11 9 9 9 9 0 0 0 0 0 0 9 9 0 10 9 -193 0 0 0 0 0 0 0 0 0 0 0 0 0 9 8 8 0 0 0 0 0 0 0 0 0 -225 -225 -225 -225 -225 -225 -225 -225 -225 14 13 15 17 16 16 15 16 17 18 19 19 17 18 18 18 18 17 17 18 19 19 20 20 21 21 21 22 21 21 22 22 22 22 22 24 23 24 24 26 26 27 28 29 29 30 32 32 33 34 35 34 34 34 35 36 36 35 35 35 36 35 37 35 35 35 37 39 39 40 39 40 39 42 41 42 43 46 46 47 50 49 48 51 50 49 49 49 48 0 0 0 0 0
    0 0 0 0 0 0 0 0 0 0 0 0 0 0 0 0 0 0 0 0 0 0 0 0 0 0 0 0 0 0 0 0 0 0 0 0 0 0 0 0 0 0 0 0 0 0 0 0 0 0 0 0 0 0 0 0 0 0 0 0 0 0 0 0 0 0 0 0 0 9 0 0 0 -225 -225 -225 -225 -225 -225 -225 -225 16 16 16 16 16 16 16 17 0 0 0 0 0 0 0 0 0 0 0 0 0 0 0 0 0 0 0 0 0 0 0 0 0 11 9 10 9 11 0 0 0 0 0 0 0 0 0 0 0 9 13 10 9 0 0 0 0 0 0 0 0 0 0 0 0 0 0 0 0 0 0 8 10 10 11 13 10 12 10 10 9 0 0 0 0 0 0 0 -209 9 17 11 11 11 11 10 10 10 10 0 0 0 0 0 9 10 10 9 10 10 10 0 0 0 0 0 0 0 0 0 0 0 0 0 9 0 0 0 0 0 0 0 0 0 0 0 -225 -225 -225 -225 -225 -225 -225 -225 -225 12 12 16 17 17 17 16 17 18 19 19 19 18 18 18 19 18 17 18 18 19 19 19 19 20 20 21 22 22 23 23 23 23 23 24 24 23 24 23 25 26 26 28 29 30 31 33 32 32 34 35 34 34 33 35 36 36 36 35 36 36 36 37 37 37 37 37 39 39 39 39 39 39 40 40 41 43 44 45 47 50 49 48 50 49 48 49 48 47 0 0 0 0 0
    0 0 0 0 0 0 0 0 0 0 0 0 0 0 0 0 0 0 0 0 0 0 0 0 0 0 0 0 0 0 0 0 0 0 0 0 0 0 0 0 0 0 0 0 0 0 0 0 0 0 0 0 0 0 0 0 0 0 0 0 0 0 0 0 0 0 0 0 0 0 0 0 0 0 -225 -225 -225 -225 -225 -225 -225 16 16 16 16 16 16 16 17 0 0 0 0 0 0 0 0 0 0 0 0 0 0 0 0 0 0 0 0 0 0 0 0 0 11 9 9 9 11 0 0 0 0 0 0 0 0 0 0 0 8 12 0 0 0 0 0 0 0 0 0 0 -193 0 0 0 0 0 0 0 0 0 0 0 0 10 13 11 14 11 11 10 9 9 0 0 0 0 0 -209 9 17 12 11 12 12 10 10 10 11 0 0 0 0 0 10 11 11 10 10 10 10 0 0 0 0 0 0 0 0 0 0 0 0 0 9 0 0 0 0 0 0 0 0 0 0 0 -225 -225 -225 -225 -225 -225 -225 -225 13 12 13 17 17 18 18 17 18 18 19 19 18 18 17 18 19 18 18 18 19 20 20 20 20 20 22 22 23 23 24 24 24 24 25 25 25 24 24 24 26 26 27 29 30 31 32 34 34 33 35 35 34 34 34 35 36 36 36 35 36 37 36 38 37 38 38 38 39 39 39 39 39 38 39 39 40 41 42 43 45 48 48 48 49 48 47 47 47 46 0 0 0 0 0
    0 0 0 0 0 0 0 0 0 0 0 0 0 0 0 0 0 0 0 0 0 0 0 0 0 0 0 0 0 0 0 0 0 0 0 0 0 0 0 0 0 0 0 0 0 0 0 0 0 0 0 0 0 0 0 0 0 0 0 0 0 0 0 0 0 0 0 0 0 0 0 0 0 0 0 -225 -225 -225 -225 -225 -225 16 16 16 16 16 16 17 17 0 0 0 0 0 0 0 0 0 0 0 0 0 0 0 8 0 0 0 0 0 0 0 0 0 10 9 0 0 11 9 9 0 0 0 0 0 0 0 0 0 0 10 0 0 0 0 0 0 0 0 0 -209 -193 0 0 0 0 0 0 0 0 0 0 0 0 0 12 10 13 11 11 10 9 10 9 0 0 0 0 -193 9 18 12 12 12 12 11 10 10 11 0 0 0 0 0 9 9 10 9 10 9 11 0 0 0 0 0 0 0 0 0 0 0 0 0 9 0 0 0 0 0 0 0 0 0 0 0 -225 -225 -225 -225 -225 -225 -225 14 14 13 14 17 18 18 18 17 17 18 18 18 18 17 16 18 18 18 18 18 19 20 19 20 20 21 21 22 24 24 25 26 26 26 26 26 26 25 25 25 26 26 28 30 31 32 33 34 34 34 35 35 34 35 34 35 36 37 37 36 36 37 37 38 38 39 38 38 39 39 40 39 39 38 39 39 39 40 40 40 42 45 46 45 46 45 45 44 45 44 0 0 0 0 0
    0 0 0 0 0 0 0 0 0 0 0 0 0 0 0 0 0 0 0 0 0 0 0 0 0 0 0 0 0 0 0 0 0 0 0 0 0 0 0 0 0 0 0 0 0 0 0 0 0 0 0 0 0 0 0 0 0 0 0 0 0 0 0 0 0 0 0 0 0 0 0 0 0 0 0 -225 -225 -225 -225 -225 -225 16 16 16 16 16 16 17 16 0 0 0 0 0 0 0 0 0 0 0 0 0 0 9 10 9 -193 0 0 0 0 0 0 0 10 9 0 0 12 10 10 0 0 0 0 0 0 0 0 0 0 0 0 0 0 0 0 0 0 0 0 0 -193 0 0 0 -225 0 0 0 0 0 0 0 0 0 10 9 13 11 11 10 9 10 9 0 0 0 0 -193 9 18 13 13 13 12 11 10 10 11 0 0 0 0 0 0 0 9 0 9 9 11 0 0 0 0 0 0 0 0 0 0 0 0 0 9 0 0 0 0 0 0 0 0 0 0 0 -225 -225 -225 -225 -225 -225 14 13 13 14 14 17 18 19 18 17 17 18 18 18 17 17 16 16 18 18 18 18 19 19 19 19 20 21 21 21 24 24 25 26 26 26 26 26 27 25 26 27 27 27 29 31 31 32 33 35 35 35 36 36 35 36 35 36 36 37 37 36 36 37 36 38 38 39 38 38 39 39 40 39 39 38 38 39 39 39 39 39 40 42 44 43 43 43 44 43 43 42 0 0 0 0 0
    0 0 0 0 0 0 0 0 0 0 0 0 0 0 0 0 0 0 0 0 0 0 0 0 0 0 0 0 0 0 0 0 0 0 0 0 0 0 0 0 0 0 0 0 0 0 0 0 0 0 0 0 0 0 0 0 0 0 0 0 0 0 0 0 0 0 0 0 0 0 0 0 0 0 0 0 -225 -225 -225 -225 -225 16 16 16 16 16 16 17 15 0 0 0 0 0 0 0 0 0 0 0 0 0 0 9 11 9 -193 -193 0 0 0 0 0 0 10 9 0 9 13 11 11 9 9 0 0 9 9 0 0 0 0 0 0 0 0 0 0 0 0 0 0 0 -193 0 0 0 0 0 0 0 0 0 0 0 0 0 0 0 12 11 10 10 9 10 9 0 0 0 0 0 9 18 13 13 13 12 11 10 10 11 0 0 0 0 0 0 9 9 0 9 9 11 0 0 0 0 0 0 0 0 0 0 0 0 0 9 0 0 9 0 0 0 0 0 0 0 0 -225 -225 -225 -225 -225 -225 13 12 13 13 13 17 18 19 19 17 17 19 19 19 18 18 17 16 19 19 19 19 19 19 19 20 21 21 22 22 25 25 25 27 27 27 27 28 28 27 28 28 28 28 30 31 31 32 33 34 34 35 36 36 35 36 35 36 36 37 36 36 36 37 36 38 38 39 39 39 39 39 40 39 39 38 38 39 39 39 39 39 40 42 42 43 42 42 43 43 43 42 0 0 0 0 0
    0 0 0 0 0 0 0 0 0 0 0 0 0 0 0 0 0 0 0 0 0 0 0 0 0 0 0 0 0 0 0 0 0 0 0 0 0 0 0 0 0 0 0 0 0 0 0 0 0 0 0 0 0 0 0 0 0 0 0 0 0 0 0 0 0 0 0 0 0 0 0 0 0 0 0 0 0 -225 -225 -225 -225 15 15 15 15 15 15 16 14 0 0 0 0 0 0 0 0 0 0 0 0 0 0 10 12 9 -193 -193 0 0 0 0 0 0 9 8 9 9 14 12 12 10 9 9 9 9 9 0 0 0 0 0 0 0 0 0 0 0 0 0 0 0 -193 0 0 0 0 0 0 0 0 0 0 0 0 0 0 9 11 11 11 10 10 11 10 9 0 0 0 0 9 18 13 13 12 12 -193 10 10 11 0 0 0 0 0 9 10 10 8 9 9 11 0 0 0 0 0 0 0 0 0 0 0 0 0 9 9 9 10 0 0 0 0 0 0 0 0 -225 -225 -225 -225 -225 14 13 13 14 14 15 18 19 20 20 17 18 19 19 19 18 17 16 16 19 19 19 19 18 19 19 20 20 21 21 22 25 25 26 27 28 28 28 29 29 28 29 30 29 30 31 31 31 33 32 35 34 35 36 36 35 36 35 36 35 36 36 36 36 37 36 38 37 39 38 39 39 39 39 39 39 38 38 39 39 40 39 39 40 40 41 41 42 41 42 42 42 41 0 0 0 0 0
    0 0 0 0 0 0 0 0 0 0 0 0 0 0 0 0 0 0 0 0 0 0 0 0 0 0 0 0 0 0 0 0 0 0 0 0 0 0 0 0 0 0 0 0 0 0 0 0 0 0 0 0 0 0 0 0 0 0 0 0 0 0 0 0 0 0 0 0 0 0 0 0 0 0 0 0 0 0 -225 -225 -225 14 14 14 14 14 14 15 12 0 0 0 0 0 0 0 0 0 0 0 0 0 0 10 12 9 9 -193 0 0 0 0 0 0 9 9 9 9 15 12 13 10 10 9 9 10 10 0 0 0 0 0 0 0 0 0 0 0 0 0 0 0 -193 0 0 0 0 0 0 0 0 0 0 -193 0 0 9 10 12 11 11 11 11 11 11 10 9 0 0 0 0 -177 12 13 12 12 -193 10 10 11 0 0 0 0 0 10 10 10 9 10 9 11 9 9 0 9 0 0 0 0 0 9 9 9 0 10 10 10 12 0 0 0 0 0 0 0 0 -225 -225 -225 -225 14 14 13 14 14 14 14 19 19 19 20 17 18 19 19 18 17 17 17 16 19 18 19 18 18 19 19 19 20 20 21 22 25 26 26 28 29 29 29 30 29 29 29 30 29 30 31 32 31 34 32 35 34 36 36 36 35 36 34 36 36 37 36 36 36 37 36 38 38 39 38 39 39 39 40 39 39 38 39 39 39 40 39 39 39 39 41 40 41 40 40 41 41 41 0 0 0 0 0
    0 0 0 0 0 0 0 0 0 0 0 0 0 0 0 0 0 0 0 0 0 0 0 0 0 0 0 0 0 0 0 0 0 0 0 0 0 0 0 0 0 0 0 0 0 0 0 0 0 0 0 0 0 0 0 0 0 0 0 0 0 0 0 0 0 0 0 0 0 0 0 0 0 0 0 0 0 0 0 -225 -225 12 13 13 13 13 13 13 11 0 0 0 0 0 0 0 0 0 0 0 0 0 0 10 13 10 10 -193 0 0 0 0 9 0 9 9 9 9 15 13 13 10 10 10 10 10 10 0 0 0 0 0 0 0 0 0 0 0 0 0 0 0 0 0 0 0 0 0 0 0 0 0 0 -209 0 0 10 10 11 11 11 11 11 11 11 10 9 0 8 0 0 -177 12 12 12 12 11 10 11 11 0 0 0 0 0 10 10 10 9 10 10 11 9 9 0 10 0 0 0 0 0 10 10 10 9 10 11 10 13 0 0 0 0 0 0 0 0 -225 -225 -225 14 13 14 13 13 13 13 14 19 18 19 20 17 19 19 19 18 17 17 17 16 19 18 18 18 18 19 19 19 19 20 20 21 25 25 26 28 30 30 31 32 31 31 31 31 30 30 32 33 32 34 32 35 34 36 36 36 36 37 35 37 36 37 36 37 36 37 37 38 37 39 38 39 40 40 41 40 40 39 39 40 40 40 39 39 39 39 40 39 40 40 39 40 40 41 0 0 0 0 0
    0 0 0 0 0 0 0 0 0 0 0 0 0 0 0 0 0 0 0 0 0 0 0 0 0 0 0 0 0 0 0 0 0 0 0 0 0 0 0 0 0 0 0 0 0 0 0 0 0 0 0 0 0 0 0 0 0 0 0 0 0 0 0 0 0 0 0 0 0 0 0 0 0 0 0 0 0 0 0 -225 -225 11 11 12 12 12 12 13 10 0 0 0 0 0 0 0 0 0 0 0 0 0 0 10 12 9 -193 -193 0 0 0 0 9 0 9 9 9 9 15 12 13 10 10 9 9 10 10 0 0 0 0 0 0 0 0 0 0 0 0 0 0 0 0 0 0 0 0 0 0 0 -193 0 0 -209 0 9 10 10 10 11 11 11 10 11 10 10 10 9 9 0 0 -177 12 13 12 12 11 11 11 12 0 0 0 0 0 10 9 10 9 9 9 11 9 9 0 12 9 9 9 9 9 12 11 11 9 11 12 11 14 9 0 0 0 0 0 0 8 -225 -225 -225 13 13 14 13 13 13 13 14 20 18 18 19 17 18 19 19 18 16 17 17 16 19 18 18 18 18 20 19 18 19 19 19 20 24 25 26 29 31 31 31 32 31 31 32 31 31 31 32 33 32 34 32 34 34 36 36 36 36 37 35 37 37 37 37 37 36 36 36 38 38 39 39 40 41 41 42 41 41 40 40 41 40 40 40 39 39 39 40 39 40 40 38 40 40 42 0 0 0 0 0
    0 0 0 0 0 0 0 0 0 0 0 0 0 0 0 0 0 0 0 0 0 0 0 0 0 0 0 0 0 0 0 0 0 0 0 0 0 0 0 0 0 0 0 0 0 0 0 0 0 0 0 0 0 0 0 0 0 0 0 0 0 0 0 0 0 0 0 0 0 0 0 0 0 0 0 0 0 0 0 0 12 10 10 11 11 11 11 12 10 0 0 0 0 0 0 0 0 0 0 0 0 0 0 9 12 9 9 -193 0 0 0 0 9 0 9 0 0 0 14 12 12 9 9 9 9 10 10 0 0 0 0 0 0 0 0 0 0 0 0 0 0 0 0 0 0 0 0 0 0 0 0 0 0 -193 0 0 0 9 9 10 10 10 10 11 10 10 10 9 9 0 0 16 12 13 12 12 11 11 11 12 9 9 0 0 0 9 0 9 9 0 9 10 9 9 9 13 11 10 10 10 10 13 12 12 10 11 12 12 16 10 9 10 10 10 10 10 11 -225 -225 14 14 14 15 14 14 14 14 17 20 18 18 19 17 18 18 18 17 16 18 18 16 19 17 18 18 18 20 19 18 19 20 20 20 24 25 26 29 31 31 31 31 31 31 31 31 31 31 32 33 32 35 33 35 35 36 36 36 36 37 36 37 37 37 36 37 36 36 36 38 37 38 39 40 41 41 42 42 42 40 41 41 41 41 40 40 40 39 41 40 40 40 39 41 41 42 0 0 0 0 0
    0 0 0 0 0 0 0 0 0 0 0 0 0 0 0 0 0 0 0 0 0 0 0 0 0 0 0 0 0 0 0 0 0 0 0 0 0 0 0 0 0 0 0 0 0 0 0 0 0 0 0 0 0 0 0 0 0 0 0 0 0 0 0 0 0 0 0 0 0 0 0 0 0 0 9 0 0 0 0 0 9 9 9 9 9 9 9 11 9 0 0 0 0 0 0 0 0 0 0 0 0 0 0 0 11 0 9 -193 9 9 0 0 9 0 9 9 0 0 14 12 12 9 9 9 9 10 10 0 0 0 0 0 0 0 0 0 0 0 0 0 0 0 0 0 0 0 0 0 0 0 -209 -225 -209 -193 0 10 9 10 9 10 10 11 10 11 10 11 10 10 10 0 0 15 12 12 12 12 11 11 12 12 9 9 0 0 0 9 0 8 0 0 0 9 9 9 0 14 11 11 11 11 11 14 13 12 10 11 12 12 17 11 10 11 12 12 12 12 13 -225 11 14 15 15 14 14 14 14 16 17 19 17 17 20 17 18 18 17 17 17 18 18 16 19 18 18 18 18 20 19 18 19 20 20 20 23 24 25 28 31 31 31 31 31 32 32 31 31 31 32 33 32 35 32 34 34 36 36 36 36 37 35 37 37 37 36 37 36 36 36 38 37 38 38 39 41 41 43 42 42 41 41 42 42 41 41 40 40 40 41 41 41 41 40 41 41 42 0 0 0 0 0
    0 0 0 0 0 0 0 0 0 0 0 0 0 0 0 0 0 0 0 0 0 0 0 0 0 0 0 0 0 0 0 0 0 0 0 0 0 0 0 0 0 0 0 0 0 0 0 0 0 0 0 0 0 0 0 0 0 0 0 0 0 0 0 0 0 0 0 0 0 0 0 0 0 0 0 0 0 0 0 0 0 0 0 0 0 0 0 9 0 0 0 0 0 0 0 0 0 0 0 0 0 0 0 0 10 0 9 -193 9 9 9 0 9 0 9 9 0 0 13 12 12 9 9 9 9 10 10 0 0 0 0 0 0 0 0 0 0 0 0 0 0 0 0 0 0 0 0 0 0 0 -193 -225 -225 -193 9 13 10 11 9 10 10 10 10 11 10 10 9 9 10 0 0 15 11 12 11 11 11 11 12 13 9 10 0 9 9 10 9 9 9 0 9 9 9 0 0 14 12 11 12 11 11 15 13 12 9 11 12 11 17 12 11 13 14 14 14 14 14 9 12 16 16 13 13 13 13 13 17 16 18 16 17 20 17 18 18 17 18 17 18 18 16 19 18 19 19 18 20 19 19 20 21 20 20 22 23 24 27 30 30 32 32 31 32 32 32 31 31 32 33 32 34 32 34 34 35 36 36 36 37 35 37 36 36 36 37 36 36 36 38 37 38 38 39 41 41 43 42 43 42 42 42 42 41 41 40 40 40 41 41 41 41 41 41 41 42 0 0 0 0 0
    0 0 0 0 0 0 0 0 0 0 0 0 0 0 0 0 0 0 0 0 0 0 0 0 0 0 0 0 0 0 0 0 0 0 0 0 0 0 0 0 0 0 0 0 0 0 0 0 0 0 0 0 0 0 0 0 0 0 0 0 0 0 0 0 0 0 0 0 0 0 0 0 0 0 0 0 0 0 0 0 0 0 0 0 0 0 0 0 0 0 0 0 0 0 0 0 0 0 0 0 0 0 0 0 9 0 0 -193 9 9 9 0 9 0 9 9 0 0 12 11 12 9 9 9 9 10 11 0 0 0 0 0 0 0 0 0 0 0 0 0 0 0 0 0 0 0 0 10 9 10 -225 -225 -225 -193 10 12 9 10 9 10 10 10 10 10 10 10 9 10 10 0 0 14 11 12 11 11 11 11 12 13 9 10 9 10 10 10 9 10 9 9 9 9 9 0 0 14 12 11 12 12 12 15 13 12 9 11 12 11 18 13 12 14 15 16 16 16 15 10 14 17 16 14 14 13 14 15 17 16 17 16 17 19 17 18 17 18 18 17 18 18 16 19 19 19 18 19 21 20 19 20 20 18 20 21 22 24 27 31 31 32 32 32 33 32 32 32 31 32 33 32 34 33 34 34 35 35 35 35 36 35 36 36 36 36 37 36 36 36 38 37 38 38 40 41 41 43 42 43 42 42 43 42 41 41 41 41 40 41 41 41 41 41 41 41 42 0 0 0 0 0
    0 0 0 0 0 0 0 0 0 0 0 0 0 0 0 0 0 0 0 0 0 0 0 0 0 0 0 0 0 0 0 0 0 0 0 0 0 0 0 0 0 0 0 0 0 0 0 0 0 0 0 0 0 0 0 0 0 0 0 0 0 0 0 0 0 0 0 0 0 0 0 0 0 0 0 0 0 0 0 0 0 0 0 0 0 0 0 0 0 0 0 0 0 0 0 0 0 0 0 0 0 0 0 0 9 0 0 9 9 9 9 0 9 0 9 0 0 0 11 10 11 9 9 9 9 10 11 0 0 0 0 0 0 0 0 0 0 0 0 0 0 0 0 0 0 10 0 11 11 11 -225 -225 -225 -193 11 13 10 11 9 9 10 10 10 10 9 10 9 9 10 0 0 14 11 12 11 11 11 11 12 13 10 10 9 10 10 10 10 10 10 9 10 10 9 0 0 15 12 12 12 12 12 16 13 13 9 11 12 11 18 13 12 15 16 17 17 16 16 10 16 18 16 15 14 14 16 16 17 16 17 16 17 19 17 17 17 17 17 16 18 18 16 18 19 18 18 18 20 19 18 18 19 16 19 20 21 22 26 31 31 33 32 32 32 32 32 32 31 32 34 33 34 34 34 34 34 35 35 35 36 35 36 36 36 36 37 37 36 36 37 37 38 38 39 41 40 42 42 42 41 42 43 42 41 41 41 41 40 41 41 41 41 41 41 41 42 0 0 0 0 0
    0 0 0 0 0 0 0 0 0 0 0 0 0 0 0 0 0 0 0 0 0 0 0 0 0 0 0 0 0 0 0 0 0 0 0 0 0 0 0 0 0 0 0 0 0 0 0 0 0 0 0 0 0 0 0 0 0 0 0 0 0 0 0 0 0 0 0 0 0 0 0 0 0 0 0 0 0 0 0 0 0 0 0 0 0 0 0 0 0 0 0 0 0 0 0 0 0 0 0 0 0 0 0 0 8 0 0 9 9 9 9 9 9 0 0 0 0 0 11 10 11 9 9 9 9 10 11 0 0 0 0 0 0 0 0 0 0 0 0 0 0 0 0 0 0 10 8 11 11 10 11 11 9 -193 9 11 9 9 0 8 9 9 9 10 9 9 9 9 11 0 0 14 11 12 11 11 11 11 12 13 10 10 10 10 10 10 9 10 10 9 10 9 10 0 9 15 13 12 12 13 12 16 13 13 9 11 11 11 18 13 12 15 17 17 16 16 16 11 16 16 16 14 14 15 16 16 16 15 17 15 16 18 15 16 17 16 17 16 17 17 16 18 19 18 18 18 21 19 18 18 18 16 19 19 21 21 26 32 32 33 32 33 32 33 32 33 31 33 34 33 34 34 33 35 34 35 35 35 36 35 36 37 36 36 37 36 36 37 38 38 38 38 40 41 40 42 42 42 42 42 43 42 41 42 41 41 40 41 41 41 41 41 41 42 42 0 0 0 0 0
    0 0 0 0 0 0 0 0 0 0 0 0 0 0 0 0 0 0 0 0 0 0 0 0 0 0 0 0 0 0 0 0 0 0 0 0 0 0 0 0 0 0 0 0 0 0 0 0 0 0 0 0 0 0 0 0 0 0 0 0 0 0 0 0 0 0 0 0 0 0 0 0 0 0 0 0 0 0 0 9 0 0 0 0 0 0 0 0 0 0 0 0 0 0 0 0 0 0 0 0 0 0 0 0 0 0 0 9 9 9 9 9 9 0 0 0 0 0 10 9 10 9 0 9 9 11 11 0 0 0 0 0 0 0 0 0 0 0 0 0 0 0 0 0 0 9 0 9 9 9 9 9 0 9 0 10 0 9 0 0 0 9 9 9 0 9 0 9 -193 0 0 14 11 12 11 11 11 11 12 13 10 10 10 10 10 10 9 9 9 9 9 9 10 0 9 16 13 13 13 13 12 16 13 12 9 10 11 10 17 13 12 15 17 17 16 16 15 11 15 16 15 14 15 16 16 16 16 16 16 16 17 17 15 16 17 16 17 16 17 17 17 18 20 17 18 18 21 19 18 18 19 15 19 19 21 18 26 34 32 34 32 33 32 33 32 34 31 33 34 33 34 34 33 35 33 35 35 35 36 35 36 36 36 36 36 35 36 36 37 37 38 38 40 42 41 42 42 43 42 42 44 42 42 42 41 41 41 42 41 41 42 42 42 42 42 0 0 0 0 0
    0 0 0 0 0 0 0 0 0 0 0 0 0 0 0 0 0 0 0 0 0 0 0 0 0 0 0 0 0 0 0 0 0 0 0 0 0 0 0 0 0 0 0 0 0 0 0 0 0 0 0 0 0 0 0 0 0 0 0 0 0 0 0 0 0 0 0 0 0 0 0 0 0 0 0 0 0 0 0 9 0 0 0 0 0 0 0 0 0 0 0 0 0 0 0 0 0 0 0 0 0 0 0 0 0 0 0 0 9 9 9 9 0 0 0 0 0 0 9 9 10 0 0 9 9 11 12 0 0 0 0 0 0 0 0 0 0 0 0 0 0 0 0 0 0 9 0 9 10 9 10 10 9 10 9 10 0 0 0 0 0 9 0 9 0 9 0 0 -193 0 0 14 11 11 11 11 11 10 12 13 10 10 10 10 11 11 10 9 9 9 9 10 10 9 9 17 14 14 14 14 12 15 13 12 9 10 10 10 17 13 13 16 17 16 16 16 16 11 15 16 15 15 15 15 15 15 17 16 16 16 17 17 16 16 18 16 16 17 17 17 17 18 20 17 18 18 21 19 19 19 19 16 20 20 21 18 25 31 31 33 32 32 32 32 32 34 32 33 34 34 34 34 34 35 33 34 35 34 36 35 35 35 35 35 36 35 36 36 37 37 38 38 40 41 41 42 42 43 43 43 44 43 42 43 42 42 41 42 42 42 42 43 42 42 42 0 0 0 0 0
    0 0 0 0 0 0 0 0 0 0 0 0 0 0 0 0 0 0 0 0 0 0 0 0 0 0 0 0 0 0 0 0 0 0 0 0 0 0 0 0 0 0 0 0 0 0 0 0 0 0 0 0 0 0 0 0 0 0 0 0 0 0 0 0 0 0 0 0 0 0 0 0 0 0 0 0 0 0 0 9 0 0 0 0 0 0 0 0 0 0 0 0 0 0 0 0 0 0 0 0 0 0 0 0 0 0 0 9 10 10 10 9 0 0 0 0 0 0 9 9 10 0 0 9 9 11 12 0 0 0 0 0 0 0 0 0 0 0 0 0 0 0 0 0 0 10 9 10 11 10 11 12 10 11 9 11 9 9 0 0 0 9 9 9 0 9 9 9 14 0 0 14 11 11 10 -193 10 10 12 13 9 10 10 10 11 11 11 10 10 10 10 11 11 9 10 17 14 14 14 15 13 15 13 12 9 10 10 10 16 13 13 16 17 16 16 16 16 12 16 16 16 17 16 15 15 16 17 16 15 16 16 17 16 16 17 16 17 17 17 16 17 18 20 17 18 18 20 19 19 19 19 16 21 21 21 19 25 30 31 33 32 31 33 32 33 34 32 33 34 34 35 35 35 35 33 35 35 33 35 34 34 34 34 35 36 35 36 37 38 38 39 38 40 42 41 42 42 43 43 43 44 43 42 43 42 42 41 42 42 42 43 43 42 42 42 0 0 0 0 0
    0 0 0 0 0 0 0 0 0 0 0 0 0 0 0 0 0 0 0 0 0 0 0 0 0 0 0 0 0 0 0 0 0 0 0 0 0 0 0 0 0 0 0 0 0 0 0 0 0 0 0 0 0 0 0 0 0 0 0 0 0 0 0 0 0 0 0 0 0 0 0 0 0 0 0 0 0 0 0 9 0 0 0 0 0 0 0 0 0 0 0 0 0 0 0 0 0 0 0 0 0 0 0 0 0 0 0 9 10 10 10 9 9 0 0 0 0 0 9 9 10 0 0 9 9 11 12 0 0 0 0 0 0 0 0 0 0 0 0 0 0 0 0 0 0 10 9 10 11 11 -193 12 11 11 9 11 9 9 9 0 8 9 9 9 8 10 10 10 17 0 0 14 11 11 10 -193 -193 10 12 12 9 9 10 10 11 12 12 10 11 11 11 11 11 9 10 17 14 14 14 14 13 14 12 12 0 9 9 9 16 13 14 17 17 16 17 17 16 13 16 16 17 17 15 15 15 16 16 15 16 15 16 17 16 15 17 16 17 16 17 16 17 19 20 17 18 18 20 19 19 19 19 17 21 21 21 18 24 29 29 33 31 30 32 31 33 33 31 33 33 33 34 34 35 35 33 35 34 33 35 35 34 34 34 36 35 35 36 37 38 38 38 38 40 42 41 42 42 43 43 42 43 42 42 43 42 42 41 42 42 42 42 43 42 42 42 0 0 0 0 0
    0 0 0 0 0 0 0 0 0 0 0 0 0 0 0 0 0 0 0 0 0 0 0 0 0 0 0 0 0 0 0 0 0 0 0 0 0 0 0 0 0 0 0 0 0 0 0 0 0 0 0 0 0 0 0 0 0 0 0 0 0 0 0 0 0 0 0 0 0 0 0 0 0 0 0 0 0 0 0 0 0 0 0 0 0 0 0 0 0 0 0 0 0 0 0 0 0 0 0 0 0 0 0 0 9 0 0 9 10 10 10 9 0 0 0 0 0 0 9 0 10 0 0 9 9 11 12 0 0 0 0 0 0 0 0 0 0 0 0 0 0 0 0 0 0 10 9 10 10 -193 -209 11 9 10 9 10 0 9 9 0 9 9 9 9 9 10 10 11 17 0 0 13 10 11 10 -193 -193 9 12 12 9 9 10 11 12 13 12 11 11 12 12 12 12 10 10 18 14 14 14 14 13 13 12 12 0 9 9 9 16 13 14 17 17 17 17 16 17 14 16 16 18 16 15 15 16 16 15 15 16 15 17 17 16 16 18 17 17 16 17 16 17 19 20 17 18 17 20 19 18 19 19 17 22 21 21 19 25 28 28 31 30 29 31 31 33 33 31 33 33 33 34 35 35 35 34 36 35 34 36 35 35 35 35 36 36 35 36 38 37 38 39 38 40 42 41 42 41 43 42 42 42 42 41 42 41 42 40 41 42 42 42 42 42 42 41 0 0 0 0 0
    0 0 0 0 0 0 0 0 0 0 0 0 0 0 0 0 0 0 0 0 0 0 0 0 0 0 0 0 0 0 0 0 0 0 0 0 0 0 0 0 0 0 0 0 0 0 0 0 0 0 0 0 0 0 0 0 0 0 0 0 0 0 0 0 0 0 0 0 0 0 0 0 0 0 0 0 0 0 0 0 0 0 0 0 0 0 0 0 0 0 0 0 0 0 0 0 0 0 0 0 0 0 0 0 9 0 0 9 10 10 10 9 0 0 0 0 0 0 0 0 10 0 0 9 9 10 11 0 0 0 0 0 0 0 0 0 0 0 0 0 0 0 0 9 0 9 8 9 0 -209 -193 9 0 9 0 9 0 9 9 0 8 9 9 9 0 10 10 11 17 0 0 11 10 10 9 -193 -193 9 11 12 9 10 10 10 11 13 12 10 11 12 12 12 12 10 11 19 14 14 14 14 13 13 12 12 0 9 9 9 17 13 14 17 18 17 17 16 17 14 16 16 17 16 15 16 16 15 14 16 16 15 17 17 15 16 18 17 17 16 17 15 16 19 20 16 17 17 20 18 19 19 19 18 23 23 23 22 26 27 28 30 30 28 31 30 33 33 31 33 33 34 34 35 36 35 34 36 36 35 36 36 36 36 36 37 37 36 37 38 37 38 39 39 40 41 41 41 41 42 42 41 42 41 41 41 41 41 40 41 42 42 42 41 41 41 40 0 0 0 0 0
    0 0 0 0 0 0 0 0 0 0 0 0 0 0 0 0 0 0 0 0 0 0 0 0 0 0 0 0 0 0 0 0 0 0 0 0 0 0 0 0 0 0 0 0 0 0 0 0 0 0 0 0 0 0 0 0 0 0 0 0 0 0 0 0 0 0 0 0 0 0 0 0 0 0 0 0 0 0 0 0 0 0 0 0 0 0 0 0 0 0 0 0 0 0 0 0 0 0 0 0 0 0 0 0 9 0 9 9 10 10 10 9 0 0 0 0 0 0 0 0 9 0 0 0 0 10 10 0 0 0 0 0 0 0 0 0 0 0 0 0 0 0 0 10 0 10 9 9 9 -193 0 10 0 10 0 10 9 10 9 9 9 9 9 9 0 9 9 11 17 0 0 10 9 10 9 -193 -193 9 11 11 9 10 10 10 11 12 12 10 11 11 11 12 12 11 11 19 14 15 14 15 14 13 12 12 0 9 9 9 14 11 13 15 15 15 15 14 15 13 15 15 15 14 15 15 15 14 15 16 16 16 17 17 16 16 18 16 17 16 16 15 16 20 20 16 18 18 20 19 20 20 20 19 24 23 24 24 26 27 27 29 30 28 31 29 33 33 32 33 34 34 35 35 36 35 35 36 36 36 37 37 36 36 36 37 37 36 37 37 37 37 38 38 39 40 41 40 41 42 41 41 41 41 40 40 41 41 40 41 42 42 41 41 41 41 39 0 0 0 0 0
    0 0 0 0 0 0 0 0 0 0 0 0 0 0 0 0 0 0 0 0 0 0 0 0 0 0 0 0 0 0 0 0 0 0 0 0 0 0 0 0 0 0 0 0 0 0 0 0 0 0 0 0 0 0 0 0 0 0 0 0 0 0 0 0 0 0 0 0 0 0 0 0 0 0 0 0 0 0 0 0 0 0 0 0 0 0 0 0 0 0 0 0 0 0 0 0 0 0 0 0 0 0 0 0 0 0 0 0 10 10 10 9 0 0 0 0 0 0 0 0 9 0 0 0 0 9 9 0 0 0 0 0 0 0 0 0 0 0 0 0 0 0 0 10 10 11 10 10 10 10 -193 11 10 11 9 12 11 11 10 10 10 9 10 10 9 9 9 10 16 0 0 9 9 9 9 -193 -193 9 11 11 10 11 10 10 11 12 11 10 11 11 11 12 12 11 11 19 14 15 14 15 14 13 12 12 0 0 0 0 12 10 12 13 14 14 13 14 14 13 15 15 15 14 15 15 14 14 15 16 16 16 17 17 16 17 18 17 17 16 17 15 16 20 20 17 18 18 20 20 20 21 20 20 24 24 25 25 27 27 28 29 30 28 30 29 32 33 31 33 34 34 35 35 37 36 36 37 37 36 37 38 37 36 37 37 38 36 38 37 36 37 38 38 38 40 40 40 41 42 42 41 41 41 40 40 40 41 40 41 41 41 41 41 41 41 39 0 0 0 0 0
    0 0 0 0 0 0 0 0 0 0 0 0 0 0 0 0 0 0 0 0 0 0 0 0 0 0 0 0 0 0 0 0 0 0 0 0 0 0 0 0 0 0 0 0 0 0 0 0 0 0 0 0 0 0 0 0 0 0 0 0 0 0 0 0 0 0 0 0 0 0 0 0 0 0 0 0 0 0 0 0 0 0 0 0 0 0 0 0 0 0 0 0 0 0 0 0 0 0 0 0 0 0 0 0 0 0 0 0 10 9 10 0 0 0 0 0 0 0 0 0 9 0 0 0 0 9 0 0 0 0 0 0 0 0 0 0 0 0 0 0 0 9 0 11 11 12 11 10 11 12 -193 16 13 12 12 13 13 12 11 11 10 10 10 10 9 9 9 10 15 0 0 0 9 9 9 -193 -193 0 11 11 10 11 10 10 11 12 12 10 11 11 11 12 12 11 11 19 14 15 15 15 14 13 12 12 0 0 0 0 8 9 10 12 12 12 12 14 14 13 15 15 15 15 15 15 14 15 15 16 16 15 18 18 17 17 18 17 17 16 18 15 16 21 20 17 18 19 20 20 20 21 20 21 25 25 25 26 27 28 29 29 30 28 30 29 31 32 31 33 34 34 35 36 37 36 36 37 37 37 38 38 37 37 38 38 39 37 38 37 36 37 37 37 38 39 40 39 41 42 42 41 41 42 40 40 40 41 41 41 41 41 41 41 41 41 38 0 0 0 0 0
    0 0 0 0 0 0 0 0 0 0 0 0 0 0 0 0 0 0 0 0 0 0 0 0 0 0 0 0 0 0 0 0 0 0 0 0 0 0 0 0 0 0 0 0 0 0 0 0 0 0 0 0 0 0 0 0 0 0 0 0 0 0 0 0 0 0 0 0 0 0 0 0 0 0 0 0 0 0 0 0 0 0 0 0 0 0 0 0 0 0 0 0 0 0 0 0 0 0 0 0 0 0 0 0 0 0 0 0 10 9 10 0 0 0 0 0 0 0 0 0 0 0 0 0 0 0 0 0 0 0 0 0 0 0 0 0 0 0 0 0 0 0 0 11 12 12 11 11 13 14 13 17 14 14 14 15 14 13 13 11 11 10 10 10 9 9 9 10 14 0 0 0 0 9 9 -193 -193 0 11 11 10 10 9 10 11 12 12 10 11 11 11 13 12 11 11 18 14 15 15 15 14 12 11 11 0 0 0 0 0 9 11 12 12 13 13 14 14 13 15 15 15 15 14 15 14 15 16 16 16 15 18 18 17 17 17 17 16 16 18 15 16 21 20 18 19 20 20 20 20 21 21 22 25 25 25 26 27 28 29 29 30 29 29 29 31 32 31 33 34 34 35 36 37 36 37 38 38 38 38 38 38 38 38 39 39 38 39 38 37 37 37 37 37 38 39 39 40 41 41 41 41 42 40 40 40 41 40 41 41 41 40 41 40 40 37 0 0 0 0 0
    0 0 0 0 0 0 0 0 0 0 0 0 0 0 0 0 0 0 0 0 0 0 0 0 0 0 0 0 0 0 0 0 0 0 0 0 0 0 0 0 0 0 0 0 0 0 0 0 0 0 0 0 0 0 0 0 0 0 0 0 0 0 0 0 0 0 0 0 0 0 0 0 0 0 0 0 0 0 0 0 0 0 0 0 0 0 0 0 0 0 0 0 0 0 0 0 0 0 0 0 0 0 0 0 0 0 0 0 10 9 10 0 0 0 0 0 0 0 0 0 0 0 0 0 0 0 0 0 0 0 0 0 0 0 0 0 0 0 0 0 0 0 0 11 12 12 12 12 14 14 13 16 14 14 14 16 14 13 12 11 11 10 10 10 9 9 9 10 13 0 0 0 0 9 9 -193 -193 0 11 11 10 10 9 10 11 12 12 10 11 11 11 13 12 11 11 17 14 15 15 15 14 12 11 11 0 0 0 0 0 9 11 11 12 13 13 13 13 13 15 15 15 14 14 15 15 15 16 16 16 16 18 19 17 17 17 17 16 16 19 16 15 22 21 20 20 20 20 20 20 21 21 22 24 24 25 26 27 28 29 30 30 29 29 29 31 32 31 33 34 34 35 36 37 37 37 38 38 39 39 39 39 39 39 39 40 38 39 38 37 37 37 37 37 36 38 38 39 40 40 40 40 41 39 40 40 40 40 40 40 39 39 40 38 38 35 0 0 0 0 0
    0 0 0 0 0 0 0 0 0 0 0 0 0 0 0 0 0 0 0 0 0 0 0 0 0 0 0 0 0 0 0 0 0 0 0 0 0 0 0 0 0 0 0 0 0 0 0 0 0 0 0 0 0 0 0 0 0 0 0 0 0 0 0 0 0 0 0 0 0 9 9 9 9 0 9 -193 0 0 0 0 0 0 0 0 0 0 0 0 0 0 0 0 0 0 0 0 0 0 0 0 0 0 0 0 0 0 0 0 9 9 9 0 0 0 0 0 0 0 0 0 0 0 0 0 0 0 0 0 0 0 0 0 0 0 0 0 0 0 0 0 0 0 0 11 11 12 12 12 14 13 13 15 14 13 13 15 12 12 12 11 10 10 10 10 9 9 10 10 13 0 0 0 0 9 8 -193 -193 0 10 11 10 11 9 10 11 13 13 11 12 11 11 13 13 11 11 17 14 15 15 15 14 12 11 11 0 0 0 0 8 9 10 11 12 12 12 12 12 12 14 15 15 14 14 15 15 16 16 17 16 16 18 19 17 17 17 17 16 18 20 17 15 22 21 20 20 20 20 20 21 21 21 22 23 24 25 26 27 28 29 30 30 30 29 29 31 31 30 33 34 34 35 36 37 37 37 38 38 39 39 39 39 39 39 39 40 38 39 38 37 37 37 37 36 35 37 35 37 38 38 38 39 40 39 39 39 39 39 39 39 38 36 37 36 36 33 0 0 0 0 0
    0 0 0 0 0 0 0 0 0 0 0 0 0 0 0 0 0 0 0 0 0 0 0 0 0 0 0 0 0 0 0 0 0 0 0 0 0 0 0 0 0 0 0 0 0 0 0 0 0 0 0 0 0 0 0 0 0 0 0 0 0 0 0 0 0 0 0 0 0 9 9 9 9 0 8 -193 0 0 0 0 0 0 0 0 0 0 0 0 0 0 0 0 0 0 0 0 0 0 0 0 0 0 0 0 0 0 0 0 0 0 0 0 0 0 0 0 0 0 0 0 0 0 0 0 0 0 0 0 0 0 0 0 0 0 0 0 0 0 0 0 0 0 0 11 12 12 12 12 13 13 12 13 13 12 12 14 11 11 11 10 9 9 9 9 0 9 9 9 12 0 0 0 0 0 0 -193 -193 0 10 11 10 11 9 9 11 13 13 11 12 11 11 14 13 11 11 17 14 15 14 14 14 12 11 11 0 0 0 0 10 9 10 11 12 12 12 12 12 13 14 15 15 14 14 15 15 16 15 17 16 16 18 19 17 17 18 18 16 18 19 17 15 21 21 20 20 20 20 20 20 21 21 22 23 23 25 26 27 28 30 31 32 31 31 31 32 33 32 33 35 34 35 36 37 37 37 38 38 38 39 39 38 39 38 39 40 38 38 38 37 37 37 37 36 34 36 34 36 37 37 37 38 39 38 38 38 38 38 38 38 36 35 35 35 34 33 0 0 0 0 0
    0 0 0 0 0 0 0 0 0 0 0 0 0 0 0 0 0 0 0 0 0 0 0 0 0 0 0 0 0 0 0 0 0 0 0 0 0 0 0 0 0 0 0 0 0 0 0 0 0 0 0 0 0 0 0 0 0 0 0 0 0 0 0 0 0 0 0 0 0 10 10 10 9 9 9 -193 0 0 0 0 0 0 0 0 0 0 0 0 0 0 0 0 0 0 0 0 0 0 0 0 0 0 0 0 0 0 0 0 0 0 0 0 0 0 0 0 0 0 0 0 0 0 0 0 0 0 0 0 0 0 0 0 0 0 0 0 0 0 0 0 0 0 0 11 12 12 11 12 12 11 11 12 11 11 11 12 9 10 10 9 9 0 9 9 0 0 9 9 12 0 0 0 0 0 0 -193 -193 0 10 10 10 11 10 9 11 13 13 11 11 11 11 14 13 11 11 17 15 15 14 14 14 12 11 11 0 0 0 0 11 9 10 12 13 12 12 12 12 12 14 14 14 13 14 15 15 16 15 17 16 16 18 18 17 17 18 17 15 19 19 17 16 21 20 20 20 21 20 20 21 21 21 22 23 24 25 26 27 28 31 31 32 32 31 31 32 33 32 33 35 34 35 36 36 37 36 37 38 38 39 39 38 39 38 39 40 38 38 37 37 37 37 37 36 34 36 35 37 36 38 37 38 38 37 38 38 37 38 36 37 35 34 35 34 33 34 0 0 0 0 0
    0 0 0 0 0 0 0 0 0 0 0 0 0 0 0 0 0 0 0 0 0 0 0 0 0 0 0 0 0 0 0 0 0 0 0 0 0 0 0 0 0 0 0 0 0 0 0 0 0 0 0 0 0 0 0 0 0 0 0 0 0 0 0 0 0 0 0 0 0 10 10 10 9 9 9 9 0 0 0 0 0 0 0 0 0 0 0 0 0 0 0 0 0 0 0 0 0 0 0 0 0 0 0 0 0 0 0 0 0 0 0 0 0 0 0 0 0 0 0 0 0 0 0 0 0 0 0 0 0 0 0 0 0 0 0 0 0 0 0 0 0 0 0 10 11 11 10 11 11 10 10 11 11 10 10 11 9 9 9 9 0 0 9 0 0 9 9 9 14 0 0 0 0 0 0 -193 -193 0 9 10 10 10 9 9 11 13 13 11 11 11 11 14 13 11 11 17 15 15 14 14 14 12 12 12 9 9 0 0 11 9 10 13 12 12 12 13 12 12 14 14 14 14 15 15 15 16 16 17 16 16 18 18 17 17 18 17 15 18 19 17 15 20 19 18 19 20 18 19 19 19 20 21 22 22 23 25 27 29 32 31 31 32 32 31 32 33 32 33 35 34 35 36 36 37 36 37 37 37 38 38 37 38 37 38 39 38 38 37 36 36 36 36 35 33 35 35 37 36 38 37 38 38 37 37 37 36 37 35 36 33 32 34 33 32 33 0 0 0 0 0
    0 0 0 0 0 0 0 0 0 0 0 0 0 0 0 0 0 0 0 0 0 0 0 0 0 0 0 0 0 0 0 0 0 0 0 0 0 0 0 0 0 0 0 0 0 0 0 0 0 0 0 0 0 0 0 0 0 0 0 0 0 0 0 0 0 0 0 0 0 10 10 10 10 9 10 9 0 9 0 0 0 0 0 0 0 0 0 0 0 0 0 0 0 0 0 0 0 0 0 0 0 0 0 0 0 0 0 0 0 0 0 0 0 0 0 0 0 0 0 0 0 0 0 0 0 0 0 0 0 0 0 0 0 0 0 0 0 0 0 0 0 0 0 9 0 0 0 9 10 0 9 10 10 10 10 10 0 0 0 0 0 0 0 0 0 9 10 10 15 0 0 0 0 0 0 -193 -193 0 9 9 9 10 9 9 11 13 13 11 11 11 11 14 13 12 11 17 14 14 14 13 13 12 11 11 9 9 0 0 15 10 12 14 13 13 13 14 13 13 14 14 15 15 15 15 15 17 15 18 16 15 18 19 17 17 17 17 15 18 19 16 15 19 17 16 17 18 17 17 18 18 19 21 21 22 22 25 27 29 32 31 31 33 32 31 31 33 32 33 35 34 35 36 36 37 36 37 37 37 38 38 38 38 37 39 39 38 37 36 36 36 36 36 35 33 33 35 36 35 36 36 37 37 36 36 36 35 36 34 35 31 32 32 32 31 32 0 0 0 0 0
    0 0 0 0 0 0 0 0 0 0 0 0 0 0 0 0 0 0 0 0 0 0 0 0 0 0 0 0 0 0 0 0 0 0 0 0 0 0 0 0 0 0 0 0 0 0 0 0 0 0 0 0 0 0 0 0 0 0 0 0 0 0 0 0 0 0 0 0 0 10 10 10 10 9 9 9 0 0 0 0 0 0 0 0 0 0 0 9 0 0 0 0 0 0 0 0 0 0 0 0 0 0 0 0 0 0 0 0 0 0 0 0 0 0 0 0 0 0 0 0 0 0 0 0 0 0 0 0 9 0 0 0 0 9 0 0 0 0 0 0 0 0 0 0 0 0 0 0 0 0 0 0 9 0 9 0 0 0 0 0 0 0 0 0 0 9 10 10 15 0 0 0 0 0 0 0 0 0 0 0 9 9 0 0 10 13 12 11 11 11 11 13 13 11 11 17 14 14 14 13 13 11 11 11 0 8 0 0 -177 12 14 15 15 14 14 15 14 13 14 14 15 15 15 15 15 17 15 18 16 16 18 18 16 17 17 16 15 18 19 17 15 18 16 15 15 17 15 15 15 17 19 20 20 22 21 24 27 28 31 31 30 33 33 32 31 33 33 33 34 34 34 35 36 37 36 37 37 37 38 38 37 38 37 39 39 38 37 36 37 36 36 36 35 33 33 35 35 34 35 35 36 36 35 35 35 34 35 33 34 30 32 32 31 32 33 0 0 0 0 0
    0 0 0 0 0 0 0 0 0 0 0 0 0 0 0 0 0 0 0 0 0 0 0 0 0 0 0 0 0 0 0 0 0 0 0 0 0 0 0 0 0 0 0 0 0 0 0 0 0 0 0 0 0 0 0 0 0 0 0 0 0 0 0 0 0 0 0 0 0 10 10 10 9 9 9 9 0 0 0 0 0 0 0 0 0 0 0 0 0 0 0 0 0 0 0 0 0 0 0 0 0 0 0 0 0 0 0 0 0 0 0 0 0 0 0 0 0 0 0 0 0 0 0 0 0 0 0 0 9 0 0 9 0 9 9 9 9 0 0 0 0 0 0 0 0 0 0 0 0 0 0 0 0 0 0 0 0 0 0 0 0 0 0 0 0 9 10 10 14 -193 0 0 0 0 0 0 0 0 0 0 9 9 0 0 10 13 12 10 10 10 11 12 12 11 10 16 14 13 13 13 13 11 11 11 9 9 9 -177 19 13 16 17 15 15 15 15 14 14 14 14 15 15 15 16 15 17 15 18 16 15 17 18 16 16 17 16 16 18 19 17 14 18 16 17 17 -193 -209 -209 -193 -193 -193 21 21 22 22 26 27 30 30 32 31 33 34 33 31 34 33 34 35 35 35 36 36 37 36 37 37 37 38 38 37 38 36 38 39 38 36 36 36 36 36 36 35 34 32 35 35 34 35 34 35 35 34 34 34 33 33 32 32 30 31 31 32 33 34 0 0 0 0 0
    0 0 0 0 0 0 0 0 0 0 0 0 0 0 0 0 0 0 0 0 0 0 0 0 0 0 0 0 0 0 0 0 0 0 0 0 0 0 0 0 0 0 0 0 0 0 0 0 0 0 0 0 0 0 0 0 0 0 0 0 0 0 0 0 0 0 0 0 0 10 9 10 9 9 9 0 0 0 0 0 0 0 0 0 0 0 0 0 0 0 0 0 0 0 0 0 0 0 0 0 0 0 0 0 0 0 0 0 0 0 0 0 0 0 0 0 0 0 0 0 0 0 0 0 0 0 0 0 0 0 9 10 9 10 9 9 9 9 9 0 0 0 0 0 0 0 0 0 0 0 0 0 0 0 0 0 0 0 0 0 0 0 0 0 0 9 10 11 14 -193 0 0 0 0 0 0 0 0 0 0 0 0 0 0 10 12 12 10 10 10 11 12 11 10 10 15 13 13 12 12 13 12 12 12 9 10 10 9 19 13 15 16 15 15 15 15 14 14 14 14 15 15 15 16 15 17 14 18 16 15 16 18 16 16 17 17 17 19 19 18 16 19 18 -193 -209 -209 -209 77 81 83 -193 -209 23 24 24 29 29 33 32 33 32 34 35 34 32 34 33 34 35 34 35 35 35 37 36 36 36 36 38 38 37 38 36 38 38 38 36 36 36 36 36 35 35 34 32 35 35 35 35 34 35 35 34 34 33 33 33 31 32 30 31 31 31 33 34 0 0 0 0 0
    0 0 0 0 0 0 0 0 0 0 0 0 0 0 0 0 0 0 0 0 0 0 0 0 0 0 0 0 0 0 0 0 0 0 0 0 0 0 0 0 0 0 0 0 0 0 0 0 0 0 0 0 0 0 0 0 0 0 0 0 0 0 0 0 0 0 0 0 0 9 0 0 0 0 0 0 0 0 0 0 0 0 0 0 0 0 0 0 0 0 0 0 0 0 0 0 0 0 0 0 0 0 0 0 0 0 0 0 0 0 0 0 0 0 0 0 0 0 0 0 0 0 0 0 0 0 0 0 0 0 9 11 10 11 10 10 9 9 9 9 0 0 0 0 0 0 0 0 0 0 0 0 0 0 0 0 0 0 0 0 0 0 0 0 0 9 10 10 14 0 0 0 0 0 0 0 0 0 0 0 0 0 0 0 9 11 11 10 10 10 10 11 11 10 9 14 12 12 11 12 13 12 12 12 10 10 10 10 19 13 15 16 15 15 15 15 14 15 14 14 15 15 15 16 15 16 14 18 16 15 16 18 15 16 17 17 17 19 19 19 17 20 -193 -209 -209 -209 75 79 83 85 83 83 -193 30 29 35 35 37 33 34 32 34 35 35 33 34 33 35 36 35 35 35 35 36 35 36 36 36 37 37 36 37 36 38 38 38 36 36 36 36 36 35 35 35 32 36 35 35 35 35 35 35 34 34 33 33 33 31 32 30 31 31 31 33 35 0 0 0 0 0
    0 0 0 0 0 0 0 0 0 0 0 0 0 0 0 0 0 0 0 0 0 0 0 0 0 0 0 0 0 0 0 0 0 0 0 0 0 0 0 0 0 0 0 0 0 0 0 0 0 0 0 0 0 0 0 0 0 0 0 0 0 0 0 0 0 0 0 0 0 0 0 0 0 0 0 0 0 0 0 0 0 0 0 0 0 0 0 0 0 0 0 0 0 0 0 0 0 0 0 0 0 0 0 0 0 0 0 0 0 0 0 0 0 0 0 0 0 0 0 0 0 0 0 0 0 0 0 0 0 0 9 10 10 10 9 9 9 9 0 8 0 0 0 0 0 0 0 0 0 0 0 0 0 0 0 0 0 0 0 0 0 0 0 0 0 0 9 10 13 0 0 0 0 0 0 0 0 0 0 0 0 0 0 0 9 9 9 9 9 9 10 10 10 9 9 14 11 11 11 11 12 12 11 12 10 11 11 11 18 13 15 16 15 15 15 15 14 15 14 14 15 15 15 16 15 16 14 17 16 14 16 18 15 16 17 17 17 18 19 20 17 20 -209 -209 -193 -193 77 82 85 86 85 86 88 -209 -209 -193 38 40 36 35 33 35 36 35 34 35 34 35 36 36 35 35 35 36 35 35 36 35 37 37 36 37 36 37 37 38 36 36 36 36 36 35 35 35 33 36 35 35 35 35 35 35 35 35 34 33 34 31 32 31 31 32 31 32 34 0 0 0 0 0
    0 0 0 0 0 0 0 0 0 0 0 0 0 0 0 0 0 0 0 0 0 0 0 0 0 0 0 0 0 0 0 0 0 0 0 0 0 0 0 0 0 0 0 0 0 0 0 0 0 0 0 0 0 0 0 0 0 0 0 0 0 0 0 0 0 0 0 0 0 0 0 0 0 0 0 0 0 0 0 0 0 0 0 0 0 0 0 0 0 0 0 0 0 0 0 0 0 0 0 0 0 0 0 0 0 0 0 0 0 0 0 0 0 0 0 0 0 0 0 0 0 0 0 0 0 0 0 0 0 0 0 9 9 9 0 0 0 0 0 0 0 0 0 0 0 0 0 0 0 0 0 0 0 0 0 0 0 0 0 0 0 0 0 0 0 0 0 9 12 0 0 0 0 0 0 0 0 0 0 0 0 0 0 0 0 0 0 0 0 0 9 9 9 9 9 12 11 11 11 11 12 11 11 13 12 12 12 12 18 14 16 16 14 14 15 15 14 15 14 14 15 15 15 16 15 17 14 17 16 15 17 18 15 16 16 16 18 18 20 20 -193 -209 -209 78 78 78 80 85 87 87 86 88 90 -193 75 -209 -193 48 38 37 35 37 37 36 34 36 35 36 36 36 36 35 35 37 35 36 36 36 36 37 36 36 35 37 37 38 35 35 36 36 36 35 35 34 32 36 35 35 35 35 36 35 35 35 34 34 34 32 32 31 31 32 31 32 33 0 0 0 0 0
    0 0 0 0 0 0 0 0 0 0 0 0 0 0 0 0 0 0 0 0 0 0 0 0 0 0 0 0 0 0 0 0 0 0 0 0 0 0 0 0 0 0 0 0 0 0 0 0 0 0 0 0 0 0 0 0 0 0 0 0 0 0 0 0 0 0 0 0 0 0 0 0 0 0 0 0 0 0 0 0 0 0 0 0 0 0 0 0 0 0 0 0 0 0 0 0 0 0 0 0 0 0 0 0 0 0 0 0 0 0 0 0 0 0 0 0 0 0 0 0 0 0 0 0 0 0 0 0 0 0 0 9 0 9 0 0 0 0 0 0 0 0 0 9 0 9 9 0 0 0 0 0 0 0 0 0 0 0 0 0 0 0 0 0 0 0 0 0 11 0 0 0 0 0 0 0 0 0 0 0 0 0 0 0 0 0 0 0 0 0 9 9 9 9 9 11 10 10 10 10 12 11 11 13 13 13 13 13 18 14 16 16 14 14 15 15 14 15 14 14 14 15 14 16 15 17 13 16 16 15 16 18 15 16 16 16 19 19 20 21 -209 -177 -193 77 79 80 81 86 87 87 85 87 89 -209 73 71 68 70 78 -193 38 38 39 37 35 37 36 37 36 37 36 35 36 37 34 35 35 36 35 36 36 36 35 37 36 39 36 36 36 36 36 35 35 34 32 36 35 35 35 35 36 35 35 35 34 34 33 32 32 31 31 32 31 32 33 0 0 0 0 0
    0 0 0 0 0 0 0 0 0 0 0 0 0 0 0 0 0 0 0 0 0 0 0 0 0 0 0 0 0 0 0 0 0 0 0 0 0 0 0 0 0 0 0 0 0 0 0 0 0 0 0 0 0 0 0 0 0 0 0 0 0 0 0 0 0 0 0 0 0 0 0 0 0 0 0 0 0 0 0 0 0 0 0 0 0 0 0 0 0 0 0 0 0 0 0 0 0 0 0 0 0 0 0 0 0 0 0 0 0 0 0 0 0 0 0 0 9 9 0 0 0 0 0 0 0 0 0 0 0 0 0 0 0 0 0 0 0 0 0 0 0 0 0 9 9 10 9 0 0 0 0 0 0 0 0 0 0 0 0 0 0 0 0 0 0 0 0 0 9 0 0 0 0 0 0 0 0 0 0 0 0 0 0 0 0 0 0 0 0 0 0 0 0 0 0 10 9 10 10 10 11 11 11 14 14 14 14 13 17 14 16 15 14 14 15 15 14 15 14 14 14 14 15 15 15 17 13 16 16 16 18 18 15 17 16 17 19 19 21 22 -177 -177 -193 76 79 79 80 85 86 86 81 83 -209 -209 73 72 70 72 78 86 88 80 84 -209 -193 -209 -193 38 37 37 37 35 36 36 32 35 35 36 35 36 36 36 36 37 37 39 36 36 36 37 36 35 35 35 33 36 35 36 35 35 36 35 35 35 34 34 33 32 31 31 30 32 31 33 33 0 0 0 0 0
    0 0 0 0 0 0 0 0 0 0 0 0 0 0 0 0 0 0 0 0 0 0 0 0 0 0 0 0 0 0 0 0 0 0 0 0 0 0 0 0 0 0 0 0 0 0 0 0 0 0 0 0 0 0 0 0 0 0 0 0 0 0 0 0 0 0 0 0 0 0 0 0 0 0 0 0 0 0 0 0 0 0 0 0 0 0 0 0 0 0 0 0 0 0 0 0 0 0 0 0 0 0 0 0 0 0 0 0 0 0 0 0 0 0 0 9 9 9 0 0 0 0 0 0 0 0 0 0 0 0 0 0 0 0 0 0 0 0 0 0 0 0 0 9 0 9 0 0 0 0 0 0 0 0 0 0 0 0 0 0 0 0 0 0 0 0 0 0 0 0 0 0 0 0 0 0 0 0 0 0 0 0 0 0 0 0 0 0 0 0 0 0 0 0 0 9 9 9 9 9 10 10 10 13 14 14 13 13 17 14 16 15 14 13 16 15 14 15 14 14 15 15 15 15 16 17 13 16 16 16 18 18 16 17 17 18 20 20 22 -209 -177 -177 -193 76 79 -193 79 84 -193 -209 -209 -209 -177 57 72 72 72 74 80 87 90 84 87 89 91 92 91 -193 -193 37 37 35 36 36 31 34 35 37 35 36 37 37 36 37 37 38 36 37 36 37 36 35 36 35 34 36 35 36 36 36 36 36 36 36 34 34 33 32 32 31 30 32 31 33 33 0 0 0 0 0
    0 0 0 0 0 0 0 0 0 0 0 0 0 0 0 0 0 0 0 0 0 0 0 0 0 0 0 0 0 0 0 0 0 0 0 0 0 0 0 0 0 0 0 0 0 0 0 0 0 0 0 0 0 0 0 0 0 0 0 0 0 0 0 0 0 0 0 0 0 0 0 0 0 0 0 0 0 0 0 0 0 0 0 0 0 0 0 0 0 0 0 0 0 0 0 0 0 0 0 0 0 0 0 0 0 0 0 0 0 0 0 0 0 0 0 9 9 9 0 0 0 0 0 0 0 0 0 0 0 0 0 0 0 0 0 0 0 0 0 0 0 0 0 9 0 0 0 0 0 0 0 0 0 0 0 0 0 0 0 0 0 0 0 0 0 0 0 0 0 0 0 0 0 0 0 0 0 0 0 0 9 9 0 0 9 0 0 0 0 0 0 0 0 0 0 9 9 9 9 8 9 9 9 12 13 14 13 13 17 15 16 15 14 13 17 15 14 15 15 15 15 15 15 15 16 17 13 17 16 16 18 18 16 17 18 19 20 21 21 -209 -177 -209 74 75 78 -193 -209 -209 -209 -209 -209 -209 -177 -209 72 72 72 73 80 86 87 82 85 88 89 90 91 90 91 -193 -193 36 36 37 32 35 35 37 36 37 37 37 36 37 37 38 37 37 37 37 36 36 36 35 35 37 36 36 37 37 37 37 36 36 34 35 34 32 32 31 31 32 31 33 32 0 0 0 0 0
    0 0 0 0 0 0 0 0 0 0 0 0 0 0 0 0 0 0 0 0 0 0 0 0 0 0 0 0 0 0 0 0 0 0 0 0 0 0 0 0 0 0 0 0 0 0 0 0 0 0 0 0 0 0 0 0 0 0 0 0 0 0 0 0 0 0 0 0 0 0 0 0 0 0 0 0 0 0 0 0 0 0 0 9 0 0 0 0 0 0 0 0 0 0 0 0 0 0 0 0 0 0 0 0 0 0 0 0 0 0 0 0 0 0 0 9 9 9 0 0 0 0 0 0 0 0 0 0 0 0 0 0 0 0 0 0 0 0 0 0 0 0 0 0 0 0 0 0 0 0 0 0 0 0 0 0 0 0 9 0 0 0 0 0 0 0 0 0 0 0 0 0 0 0 0 0 0 0 0 0 9 10 0 9 9 9 0 0 0 0 8 9 9 0 9 9 9 9 0 0 9 9 9 11 13 13 13 13 17 15 15 15 14 14 18 14 14 15 15 15 15 15 15 14 16 16 12 16 16 16 19 18 17 18 18 19 21 21 22 -209 -177 -209 71 74 77 -177 -177 -177 -193 -209 -209 -209 -209 -209 68 69 71 73 78 83 85 83 85 87 89 90 90 90 93 97 99 100 -193 -193 33 34 36 37 36 37 37 37 36 37 37 38 37 38 37 37 36 36 36 35 35 37 36 37 37 37 37 37 37 36 35 35 34 32 33 32 31 33 32 33 33 0 0 0 0 0
    0 0 0 0 0 0 0 0 0 0 0 0 0 0 0 0 0 0 0 0 0 0 0 0 0 0 0 0 0 0 0 0 0 0 0 0 0 0 0 0 0 0 0 0 0 0 0 0 0 0 0 0 0 0 0 0 0 0 0 0 0 0 0 0 0 0 0 0 0 0 0 0 0 0 0 0 0 0 0 0 0 0 0 0 0 0 0 0 0 0 0 0 0 0 0 0 0 0 0 0 0 0 0 0 0 0 0 0 0 0 0 0 0 0 0 9 9 9 0 0 0 0 0 0 0 0 0 0 0 0 0 0 0 0 0 0 0 0 0 0 0 0 0 0 0 0 0 0 0 0 0 0 0 0 0 0 0 0 9 0 0 0 0 0 0 0 0 0 0 0 0 0 0 0 0 0 0 0 0 0 10 11 9 9 10 9 9 0 0 0 9 9 9 0 9 0 0 9 0 0 0 0 0 11 13 13 13 13 17 15 15 15 14 14 17 14 14 15 15 16 16 15 15 14 16 16 12 16 16 17 19 19 17 18 18 19 21 22 21 -209 -209 -193 71 73 76 -193 -193 -177 -177 -193 -193 -193 -209 -209 -209 -209 72 73 78 80 83 82 85 87 89 90 91 90 94 99 100 99 99 97 96 35 37 38 36 37 37 37 36 37 37 38 37 38 36 36 36 36 36 35 36 37 36 37 38 37 37 37 37 36 35 35 34 32 33 32 31 33 31 33 32 0 0 0 0 0
    0 0 0 0 0 0 0 0 0 0 0 0 0 0 0 0 0 0 0 0 0 0 0 0 0 0 0 0 0 0 0 0 0 0 0 0 0 0 0 0 0 0 0 0 0 0 0 0 0 0 0 0 0 0 0 0 0 0 0 0 0 0 0 0 0 0 0 0 0 0 0 0 0 0 0 0 0 0 0 0 0 0 0 0 0 0 0 0 0 0 0 0 0 0 0 0 0 0 0 0 0 0 0 0 0 0 0 0 0 0 0 0 0 0 0 10 9 10 0 0 0 0 0 0 0 0 0 0 0 0 0 0 0 0 0 0 0 0 0 0 0 0 0 0 0 0 0 0 0 0 0 0 0 0 0 0 0 0 9 0 0 0 0 0 0 0 0 0 0 0 0 0 0 0 0 0 0 0 9 0 10 11 10 9 10 10 9 9 9 9 9 9 9 0 9 0 0 9 0 0 0 0 0 10 13 13 13 13 18 15 16 16 15 14 18 15 15 15 15 16 16 15 16 14 16 16 12 16 15 18 20 19 18 18 18 20 22 23 19 -193 -209 -193 71 73 75 -209 -193 -177 -193 -193 -193 -177 -209 -209 -209 -209 67 73 78 79 80 80 83 86 88 89 90 90 93 98 100 98 98 97 96 98 -193 -209 38 38 38 37 36 37 37 38 36 38 36 36 35 36 36 35 36 37 35 37 38 37 37 37 37 36 34 35 34 32 33 32 31 33 32 33 32 0 0 0 0 0
    0 0 0 0 0 0 0 0 0 0 0 0 0 0 0 0 0 0 0 0 0 0 0 0 0 0 0 0 0 0 0 0 0 0 0 0 0 0 0 0 0 0 0 0 0 0 0 0 0 0 0 0 0 0 0 0 0 0 0 0 0 0 0 0 0 0 0 0 0 0 0 0 0 0 0 0 0 0 0 0 0 0 0 0 0 0 0 0 0 0 0 0 0 0 0 0 0 0 0 0 0 0 0 0 0 0 0 0 0 0 0 0 0 0 0 10 9 10 0 0 0 0 0 0 0 0 0 0 0 0 0 0 0 0 0 0 0 0 0 0 0 0 0 0 0 0 0 0 0 0 0 0 0 0 0 0 0 0 9 0 9 0 0 0 0 0 0 0 0 0 9 0 0 0 9 9 9 9 10 0 9 10 9 9 10 10 9 9 9 9 9 9 9 9 10 0 0 9 0 0 0 0 0 9 12 13 12 12 18 15 16 16 15 14 19 16 16 15 16 17 16 16 16 14 16 16 13 17 16 19 20 19 18 19 19 20 23 24 17 -193 -209 -193 72 74 74 -209 -209 -209 -193 -193 -177 -193 -193 -209 -209 -209 -209 73 78 78 80 81 84 85 87 89 89 90 93 99 99 97 97 98 97 97 100 101 96 -193 38 38 36 37 37 38 36 37 35 35 35 35 36 35 36 37 35 38 38 37 37 37 37 36 34 35 34 32 33 33 32 33 32 34 32 0 0 0 0 0
    0 0 0 0 0 0 0 0 0 0 0 0 0 0 0 0 0 0 0 0 0 0 0 0 0 0 0 0 0 0 0 0 0 0 0 0 0 0 0 0 0 0 0 0 0 0 0 0 0 0 0 0 0 0 0 0 0 0 0 0 0 0 0 0 0 0 0 0 0 0 0 0 0 0 0 0 0 0 0 0 0 0 0 0 0 0 0 0 0 0 0 0 0 0 0 0 0 0 0 0 0 0 0 0 0 0 0 0 0 0 0 0 0 0 0 9 9 11 0 0 0 0 0 0 0 0 0 0 0 0 0 0 0 0 0 0 0 0 0 0 9 0 0 0 0 0 0 0 0 0 0 0 0 0 0 0 -193 0 -193 -193 9 9 0 0 0 0 0 0 0 0 10 9 9 9 10 10 11 11 11 9 9 10 9 9 10 10 9 10 9 10 10 10 10 9 10 0 0 0 0 0 0 0 0 0 12 12 11 11 17 14 16 16 15 14 19 16 15 15 15 17 16 16 16 14 16 17 13 18 18 19 20 18 18 19 18 20 23 23 16 -209 -209 -177 71 74 -209 -193 -209 -209 -193 -209 -193 -193 -193 -193 -193 -209 -209 64 76 75 77 77 82 84 87 89 89 90 94 99 100 97 97 99 98 99 100 101 98 98 -193 -193 37 37 38 38 35 37 34 35 35 35 35 35 36 37 35 38 38 37 37 37 37 36 34 35 34 33 34 33 33 33 32 35 33 0 0 0 0 0
    0 0 0 0 0 0 0 0 0 0 0 0 0 0 0 0 0 0 0 0 0 0 0 0 0 0 0 0 0 0 0 0 0 0 0 0 0 0 0 0 0 0 0 0 0 0 0 0 0 0 0 0 0 0 0 0 0 0 0 0 0 0 0 0 0 0 0 0 0 0 0 0 0 0 0 0 0 0 0 0 0 0 0 0 0 0 0 0 0 0 0 0 0 0 0 0 0 0 0 0 0 0 0 0 0 0 0 0 0 0 0 0 0 9 0 9 9 11 0 0 0 0 0 0 0 0 0 0 0 0 0 0 0 0 0 9 9 9 0 0 9 0 -193 -193 0 0 0 0 -193 0 0 0 0 0 0 -193 -193 9 -193 -193 10 10 10 10 0 0 0 0 0 0 11 9 10 11 11 -193 12 12 13 9 9 10 9 9 10 10 10 10 10 10 10 10 10 9 11 0 0 9 0 0 0 0 0 0 10 10 10 10 16 14 15 15 14 13 18 15 15 14 15 17 17 16 17 14 17 17 14 18 19 19 21 18 18 18 18 20 23 23 16 -209 -193 -177 72 74 -209 -193 -209 -193 -193 -193 37 -193 27 29 -193 -193 36 -193 -209 -209 71 74 78 78 83 85 87 89 92 96 97 95 94 97 98 97 98 99 97 96 103 -209 -193 -193 -193 37 34 36 33 35 35 36 36 36 36 37 35 38 38 36 36 37 36 36 34 35 34 33 34 33 33 33 32 35 33 0 0 0 0 0
    0 0 0 0 0 0 0 0 0 0 0 0 0 0 0 0 0 0 0 0 0 0 0 0 0 0 0 0 0 0 0 0 0 0 0 0 0 0 0 0 0 0 0 0 0 0 0 0 0 0 0 0 0 0 0 0 0 0 0 0 0 0 0 0 0 0 0 0 0 0 0 0 0 0 0 0 0 0 0 0 0 0 0 0 0 0 0 0 0 0 0 0 0 0 0 0 0 0 0 0 0 0 0 0 0 0 0 0 0 0 0 0 0 9 0 0 0 11 9 9 0 0 0 0 0 0 0 0 0 9 9 0 0 0 0 9 9 9 0 0 10 -193 -209 -209 0 0 0 0 -193 0 0 0 0 0 0 -209 -209 9 -193 10 11 11 -193 -193 -193 -193 0 0 -193 -193 12 10 11 11 -193 -193 11 12 12 9 9 10 9 10 10 11 10 11 10 11 11 11 10 10 12 9 0 9 0 0 0 0 0 0 9 10 9 9 15 13 14 14 14 13 17 15 15 13 15 17 16 16 16 14 17 17 14 19 18 19 21 18 18 18 18 20 23 24 -193 -209 -193 -193 73 75 -209 -193 -209 -193 -193 -193 37 -193 25 26 27 26 31 -193 35 39 41 -209 -193 76 78 82 86 89 91 94 94 94 95 97 98 99 100 101 101 101 104 105 108 110 117 -193 34 36 33 36 36 36 36 36 36 37 35 38 38 36 36 37 36 36 34 36 34 33 35 34 34 34 33 36 34 0 0 0 0 0
    0 0 0 0 0 0 0 0 0 0 0 0 0 0 0 0 0 0 0 0 0 0 0 0 0 0 0 0 0 0 0 0 0 0 0 0 0 0 0 0 0 0 0 0 0 0 0 0 0 0 0 0 0 0 0 0 0 0 0 0 0 0 0 0 0 0 0 0 0 0 0 0 0 0 0 0 0 0 0 0 0 0 0 0 0 0 0 0 0 0 0 0 0 0 0 0 0 0 0 0 0 0 0 0 0 0 0 0 0 0 0 0 0 9 0 0 0 11 9 9 0 0 0 0 0 0 0 0 0 10 10 9 9 9 0 9 10 -193 0 0 -193 -193 -193 -209 -193 0 0 -193 126 0 0 0 0 -193 -193 -209 -209 10 -193 10 12 -193 -193 127 -193 -193 -193 -209 -193 -193 12 10 11 10 -193 -193 11 12 13 9 9 10 10 10 10 12 11 11 11 11 13 11 11 10 13 9 9 10 9 0 0 0 0 0 10 10 10 10 15 13 14 14 14 13 17 15 15 13 15 17 16 16 16 14 17 17 15 19 18 19 21 18 18 18 17 20 23 -209 -193 -193 -177 -209 74 75 -193 -209 -209 -193 -193 -209 34 24 25 25 26 25 28 29 31 33 34 37 -193 -209 -209 75 82 87 90 92 93 93 98 96 98 99 101 102 102 102 104 105 108 110 116 117 -193 -193 -193 -193 -193 37 36 37 37 37 35 38 38 36 37 37 37 36 35 36 34 34 35 34 34 34 34 36 35 0 0 0 0 0
    0 0 0 0 0 0 0 0 0 0 0 0 0 0 0 0 0 0 0 0 0 0 0 0 0 0 0 0 0 0 0 0 0 0 0 0 0 0 0 0 0 0 0 0 0 0 0 0 0 0 0 0 0 0 0 0 0 0 0 0 0 0 0 0 0 0 0 0 0 0 0 0 0 0 0 0 0 0 0 0 0 0 0 0 0 0 0 0 0 0 0 0 0 0 0 0 0 0 0 0 0 0 0 0 0 0 0 0 0 0 0 0 0 9 0 0 0 12 9 9 0 0 0 0 0 9 0 0 0 10 10 9 9 9 0 10 10 10 0 -177 -193 130 -193 -209 -209 -193 -193 129 126 -193 -193 0 0 -193 -193 128 124 -193 -193 -193 -193 -193 129 127 126 128 127 127 126 -193 13 10 11 10 11 11 11 12 12 9 9 9 9 10 9 11 10 11 10 11 13 11 10 10 13 9 9 10 10 9 0 0 9 0 11 11 10 10 14 13 13 13 13 12 15 14 14 12 15 16 15 16 16 15 17 17 15 19 18 19 21 18 17 17 17 20 23 -209 -193 -209 -177 -209 74 76 -193 -209 -209 -177 -177 -209 30 24 25 25 25 25 26 26 27 27 28 30 30 31 36 -209 79 88 91 91 92 94 99 97 99 101 102 103 103 103 104 105 107 109 113 115 112 110 114 114 -193 -193 37 37 37 38 36 39 39 36 37 38 37 36 35 36 35 33 34 34 34 35 34 36 35 0 0 0 0 0
    0 0 0 0 0 0 0 0 0 0 0 0 0 0 0 0 0 0 0 0 0 0 0 0 0 0 0 0 0 0 0 0 0 0 0 0 0 0 0 0 0 0 0 0 0 0 0 0 0 0 0 0 0 0 0 0 0 0 0 0 0 0 0 0 0 0 0 0 0 0 0 0 0 0 0 0 0 0 0 0 0 0 0 0 0 0 0 0 0 0 0 0 0 0 0 0 0 0 0 0 0 0 0 0 0 0 0 0 0 0 0 0 0 9 0 0 0 12 9 10 9 0 0 0 0 9 0 0 0 10 10 9 9 10 9 10 11 10 9 -193 -193 130 -193 -193 -209 -193 -193 129 126 -193 -193 0 -193 -193 126 128 124 -193 -193 -193 -193 128 129 127 126 128 127 127 127 -193 13 10 11 10 10 11 11 11 12 0 9 0 0 9 0 9 9 9 9 10 13 11 10 10 13 9 10 10 10 9 9 9 10 0 11 10 10 10 14 12 12 12 13 11 14 13 13 12 14 16 15 16 17 15 17 18 17 20 19 19 21 17 17 17 17 19 23 -209 -177 -209 -193 -209 74 77 -193 -193 -209 -177 -177 -209 29 24 24 24 24 24 25 25 24 24 25 26 26 27 28 32 38 -209 -209 -209 90 94 97 95 99 102 102 103 103 103 104 105 107 109 111 113 112 110 114 114 113 116 -193 -209 -209 38 36 40 40 37 38 38 37 37 36 36 35 34 34 34 34 35 34 36 35 0 0 0 0 0
    0 0 0 0 0 0 0 0 0 0 0 0 0 0 0 0 0 0 0 0 0 0 0 0 0 0 0 0 0 0 0 0 0 0 0 0 0 0 0 0 0 0 0 0 0 0 0 0 0 0 0 0 0 0 0 0 0 0 0 0 0 0 0 0 0 0 0 0 0 10 9 9 0 0 0 0 0 0 0 0 0 0 0 0 0 0 0 0 0 0 0 0 0 0 0 0 0 0 0 0 0 0 0 0 0 0 0 0 0 0 0 0 0 0 0 0 0 13 10 11 10 10 9 9 9 10 0 0 0 10 10 9 9 10 -193 11 11 11 9 -193 -193 130 -193 -193 -209 -193 -193 129 127 -193 -193 0 -193 -193 -193 127 123 -193 -193 -193 -193 128 129 127 126 128 128 127 127 -193 13 10 11 -193 10 11 11 11 12 0 9 0 9 9 0 9 9 9 9 10 12 11 10 11 14 10 10 10 10 9 0 0 9 0 11 10 10 10 14 12 12 12 13 11 13 13 13 12 14 15 15 16 16 16 16 18 18 20 19 18 20 17 17 17 16 19 22 -209 -209 -209 -193 671 75 77 -193 -193 -209 -177 -177 -209 28 24 24 24 24 24 24 24 23 23 23 23 24 24 25 27 32 38 37 -209 -209 -193 95 94 99 102 102 103 -193 103 105 106 108 109 110 114 112 110 114 114 113 114 114 109 110 117 -209 -193 -209 38 39 38 37 37 36 37 35 33 34 34 35 36 36 37 36 0 0 0 0 0
    0 0 0 0 0 0 0 0 0 0 0 0 0 0 0 0 0 0 0 0 0 0 0 0 0 0 0 0 0 0 0 0 0 0 0 0 0 0 0 0 0 0 0 0 0 0 0 0 0 0 0 0 0 0 0 0 0 0 0 0 0 0 0 0 0 0 0 0 0 11 10 9 9 9 0 0 0 0 0 0 0 0 0 0 0 0 0 0 0 0 0 0 0 0 0 0 0 0 0 0 0 0 0 0 0 0 0 0 0 0 0 0 0 0 0 0 0 13 11 12 11 11 11 11 10 12 0 0 0 10 10 9 9 10 9 11 12 11 10 9 -193 -193 -193 -193 -193 -193 -193 129 127 -193 -193 0 0 -193 126 128 124 -193 -193 -193 -193 129 129 127 126 128 127 127 -193 -193 -193 10 11 10 10 11 11 11 12 9 9 9 9 10 0 9 9 9 10 10 12 10 10 11 13 10 10 10 10 9 0 0 9 0 11 10 10 10 13 12 12 12 12 11 13 13 13 12 14 14 15 16 15 16 16 17 19 20 19 17 20 17 17 17 16 18 22 -209 -209 -209 -193 -193 75 77 -193 -193 -209 -177 -177 -209 28 24 24 24 24 24 24 24 22 22 22 22 22 22 23 25 27 35 35 -209 -209 -193 94 92 98 103 -193 -193 -193 -209 105 106 109 110 110 113 112 110 114 114 113 114 115 113 114 119 121 116 117 116 -209 39 38 37 37 37 36 34 34 34 36 36 36 37 36 0 0 0 0 0
    0 0 0 0 0 0 0 0 0 0 0 0 0 0 0 0 0 0 0 0 0 0 0 0 0 0 0 0 0 0 0 0 0 0 0 0 0 0 0 0 0 0 0 0 0 0 0 0 0 0 0 0 0 0 0 0 0 0 0 0 0 0 0 0 0 0 0 0 0 12 10 9 9 9 0 0 0 0 0 0 0 0 0 0 0 0 0 0 0 0 0 0 0 0 0 0 0 0 0 0 0 0 0 0 0 0 0 0 0 0 0 0 0 0 0 0 0 13 11 12 11 11 11 11 11 12 0 0 0 9 9 0 9 9 9 11 12 11 10 9 12 -193 10 -193 -193 0 -193 -193 -193 0 0 0 0 -193 -193 -193 124 -177 -193 -193 -193 -193 130 127 127 129 128 -193 -193 -193 13 10 11 10 10 11 11 12 12 9 10 9 10 10 9 9 0 9 9 9 11 10 10 10 13 10 10 10 10 9 0 0 9 0 11 10 10 10 13 11 12 12 12 11 12 13 13 12 14 14 14 15 15 16 15 16 19 19 18 16 20 17 17 16 16 18 22 -177 -209 -209 -209 -177 75 78 -193 -193 -193 -193 -193 -209 28 24 24 23 23 23 24 23 21 21 22 21 22 21 22 23 26 32 34 39 -193 523 -193 90 98 -193 -193 -177 -177 -209 -193 -193 108 109 108 110 111 109 112 113 112 113 114 114 115 119 120 116 118 119 121 122 -193 -193 38 38 37 35 35 35 37 38 37 37 36 0 0 0 0 0
    0 0 0 0 0 0 0 0 0 0 0 0 0 0 0 0 0 0 0 0 0 0 0 0 0 0 0 0 0 0 0 0 0 0 0 0 0 0 0 0 0 0 0 0 0 0 0 0 0 0 0 0 0 0 0 0 0 0 0 0 0 0 0 0 0 0 0 0 0 13 11 10 10 10 9 0 0 0 0 0 0 0 0 0 0 0 0 0 0 0 0 0 0 0 0 0 0 0 0 0 0 0 0 0 0 0 0 0 0 0 0 0 0 0 0 0 0 13 11 12 11 10 11 11 11 12 0 0 0 0 9 0 0 9 9 10 11 11 10 9 12 10 11 10 9 0 0 10 0 0 0 0 0 9 -193 -193 -193 11 12 12 12 12 -193 -193 -193 -193 -193 -193 -193 -193 13 10 11 10 10 11 11 12 12 9 10 9 10 10 0 0 0 0 0 0 10 9 9 10 12 9 10 10 11 9 9 9 10 0 10 9 9 9 12 11 11 11 12 11 12 13 13 12 13 13 12 13 13 14 13 13 17 18 17 16 20 16 16 16 16 18 22 -177 -177 -193 -177 -177 75 78 -193 -193 -193 -193 -193 -209 28 23 23 23 23 23 23 22 21 21 21 21 21 21 21 23 25 29 32 39 -193 523 -193 -193 -193 -177 -177 -177 -177 -177 -209 -193 108 109 107 109 109 108 112 113 113 114 115 114 115 118 119 108 114 115 117 121 122 129 -209 -209 38 36 36 36 38 40 39 39 38 0 0 0 0 0
    0 0 0 0 0 0 0 0 0 0 0 0 0 0 0 0 0 0 0 0 0 0 0 0 0 0 0 0 0 0 0 0 0 0 0 0 0 0 0 0 0 0 0 0 0 0 0 0 0 0 0 0 0 0 0 0 0 0 0 0 0 0 0 0 0 0 0 0 0 14 12 11 11 11 10 0 0 0 0 0 0 0 0 0 0 0 0 0 0 0 0 0 0 0 0 0 0 0 0 0 0 0 0 0 0 0 0 0 0 0 0 0 0 0 0 0 0 12 11 12 10 10 11 11 11 11 0 0 0 0 0 0 0 0 0 9 11 10 9 9 11 10 10 10 9 9 9 10 9 0 9 9 9 11 11 11 10 11 12 11 12 11 12 11 11 11 11 10 -193 0 13 10 11 10 10 10 10 11 12 9 10 0 10 10 0 0 0 0 0 0 0 0 0 9 11 9 10 10 11 9 9 9 10 0 10 10 10 9 11 10 11 11 12 11 12 13 13 12 13 12 12 13 12 13 12 13 16 17 16 16 20 16 16 16 16 18 22 -177 -177 -177 -177 -177 75 78 -193 -193 -193 -193 -193 -209 28 23 23 22 22 22 23 22 20 21 21 20 21 20 22 22 25 28 30 37 -193 523 -177 -177 -177 -177 -177 -177 -177 -177 -209 -193 108 109 106 108 108 108 112 115 114 116 117 117 117 119 119 108 114 113 115 120 121 127 136 -193 -209 -209 36 38 40 42 41 40 40 0 0 0 0 0
    0 0 0 0 0 0 0 0 0 0 0 0 0 0 0 0 0 0 0 0 0 0 0 0 0 0 0 0 0 0 0 0 0 0 0 0 0 0 0 0 0 0 0 0 0 0 0 0 0 0 0 0 0 0 0 0 0 0 0 0 0 0 0 0 0 0 0 0 0 15 13 11 12 12 11 0 0 0 0 0 0 0 0 0 0 0 0 0 0 0 0 0 0 0 0 0 0 0 0 0 0 0 0 0 0 0 0 0 0 0 0 0 0 0 0 0 0 12 10 12 10 10 10 11 11 11 0 0 0 0 0 0 0 0 9 9 10 10 9 10 10 9 9 9 9 -193 -193 11 9 9 11 11 11 12 11 11 10 11 11 10 10 10 10 9 10 10 10 9 0 0 13 10 11 9 10 10 10 11 12 9 10 9 10 10 0 0 0 0 0 0 0 0 0 0 10 0 10 10 10 9 9 9 10 0 10 9 9 9 10 0 11 10 11 11 11 12 12 12 12 12 11 12 12 12 12 13 16 16 15 16 20 16 16 16 16 17 22 -177 -177 -177 -177 -177 75 78 -193 -193 -193 -193 -209 -193 28 23 23 22 22 22 23 22 20 21 21 21 21 21 22 23 25 27 30 35 -193 -193 -177 -177 -177 -177 -177 -177 -177 -177 -193 -193 107 108 106 107 108 108 113 116 115 118 119 119 118 119 118 109 114 112 114 120 122 127 135 134 -193 -193 -209 -209 41 47 50 44 42 0 0 0 0 0
    0 0 0 0 0 0 0 0 0 0 0 0 0 0 0 0 0 0 0 0 0 0 0 0 0 0 0 0 0 0 0 0 0 0 0 0 0 0 0 0 0 0 0 0 0 0 0 0 0 0 0 0 0 0 0 0 0 0 0 0 0 0 0 0 0 0 0 0 0 16 13 12 13 13 12 0 0 -209 -193 -193 -193 -193 0 0 -193 0 0 0 0 0 0 0 0 0 0 0 0 0 0 0 0 0 0 0 0 0 0 0 0 0 0 0 0 0 0 0 0 12 10 12 10 10 10 10 10 11 0 0 -177 0 0 0 0 0 0 9 10 10 9 10 10 -193 9 -209 -209 -209 -209 298 309 -193 -193 -209 -193 -209 10 8 0 9 0 0 0 0 0 0 0 0 0 0 0 0 13 11 11 10 10 11 11 11 12 9 10 9 11 10 9 0 0 0 0 0 0 0 0 0 10 0 9 10 9 9 9 9 9 0 9 0 0 0 0 0 11 10 11 12 12 13 12 13 12 12 12 12 12 12 12 13 15 16 15 15 20 16 16 16 16 17 23 -177 -177 -177 -177 -177 75 78 -209 -193 -193 -209 -209 27 29 23 23 22 23 22 23 21 20 20 21 21 21 20 22 22 24 27 30 36 -193 -177 -193 -177 -177 -177 -177 -177 -177 -209 -193 614 107 107 106 107 108 108 113 117 116 120 121 121 120 120 118 108 111 110 112 117 119 124 133 133 133 135 135 -193 133 132 -209 -209 118 0 0 0 0 0
    0 0 0 0 0 0 0 0 0 0 0 0 0 0 0 0 0 0 0 0 0 0 0 0 0 0 0 0 0 0 0 0 0 0 0 0 0 0 0 0 0 0 0 0 0 0 0 0 0 0 0 0 0 0 0 0 0 0 0 0 0 0 0 0 0 0 0 0 0 18 14 13 14 14 13 -193 -193 -177 -193 -209 -209 -209 -209 -209 -209 -193 0 0 0 0 0 0 0 0 0 0 0 0 0 0 0 0 0 0 0 0 0 0 0 0 0 0 0 0 0 0 0 -209 11 12 10 9 10 10 10 10 0 0 0 0 0 0 0 0 0 8 9 9 10 10 -209 -209 -209 -209 -209 -193 -209 -209 -193 79 83 82 84 86 -209 87 -209 -193 0 0 0 0 0 0 0 0 0 0 0 0 -193 11 11 10 10 11 11 12 13 10 13 11 13 11 10 9 0 0 0 0 0 0 0 0 9 0 0 9 0 0 0 0 0 0 0 0 0 0 0 10 12 12 12 14 14 14 14 15 13 12 12 12 12 12 12 13 15 16 16 16 20 16 16 16 15 16 23 -177 -177 -177 -177 -177 76 78 -209 -193 -209 -209 -209 28 29 23 23 23 23 22 23 21 20 20 21 20 20 20 21 21 24 25 30 37 -209 -177 -193 -177 -177 -177 -193 -177 -193 -193 -193 613 106 107 106 108 109 109 113 117 116 121 122 122 121 121 121 114 115 114 116 120 121 126 133 132 132 135 133 134 130 130 128 122 123 0 0 0 0 0
    0 0 0 0 0 0 0 0 0 0 0 0 0 0 0 0 0 0 0 0 0 0 0 0 0 0 0 0 0 0 0 0 0 0 0 0 0 0 0 0 0 0 0 0 0 0 0 0 0 0 0 0 0 0 0 0 0 0 0 0 0 0 0 0 0 0 0 0 0 20 15 14 15 17 17 -193 -177 -177 -193 -209 -209 -177 -209 -209 -209 -209 0 0 0 0 0 0 0 0 0 0 -193 -193 -193 0 0 0 0 0 0 0 0 0 0 0 0 0 0 0 -193 -193 -209 -209 11 12 10 -209 -209 -193 10 10 0 0 0 0 0 0 0 -209 9 0 9 9 9 10 -209 -177 -209 -193 -209 -209 -209 73 76 78 80 80 81 84 84 85 87 -209 -209 0 0 0 0 0 0 0 0 0 0 0 -193 10 11 10 -193 -193 -193 13 15 11 15 13 15 13 12 10 9 9 0 0 0 0 0 0 0 0 0 0 0 0 0 0 9 0 0 0 0 9 9 15 16 15 14 17 16 15 14 15 12 12 12 12 12 11 12 13 15 16 16 16 21 16 16 16 16 17 -193 -177 -177 -177 -177 -177 76 78 -193 -209 -209 -209 -209 28 29 24 24 24 24 23 24 22 20 20 21 20 20 20 21 21 24 25 31 -209 -177 -177 -177 -177 -177 -177 607 0 0 -193 -193 612 106 106 -177 107 108 -193 113 117 -193 -209 123 123 120 122 123 117 118 118 120 123 123 127 131 129 130 134 128 130 125 126 127 123 126 0 0 0 0 0
    0 0 0 0 0 0 0 0 0 0 0 0 0 0 0 0 0 0 0 0 0 0 0 0 0 0 0 0 0 0 0 0 0 0 0 0 0 0 0 0 0 0 0 0 0 0 0 0 0 0 0 0 0 0 0 0 0 0 0 0 0 0 0 0 0 0 0 0 0 20 14 14 15 18 19 -209 -177 -177 -209 -209 -209 -209 -209 -209 -193 74 -193 -193 -209 -193 0 0 -209 -209 -209 -209 -193 -209 -209 0 0 0 0 0 0 9 9 0 0 0 -193 0 0 -209 -193 -193 -209 -209 -193 12 -209 -209 -209 -209 -209 -209 -177 0 0 0 0 9 0 -209 -193 0 0 0 -209 -209 -209 -209 260 265 -209 -193 73 74 76 78 79 79 80 82 82 83 85 87 -193 -209 -209 0 -209 -193 0 0 0 0 0 0 -193 11 12 11 -209 -209 -209 -209 -193 -193 -193 -209 16 13 12 10 9 9 0 0 0 0 0 0 0 0 0 0 0 0 0 0 9 0 0 0 9 9 9 15 15 14 13 14 14 13 13 14 12 12 12 12 12 12 13 14 16 16 17 16 21 16 16 16 15 16 22 -177 -177 -177 -177 -177 76 78 -193 -193 -209 -209 -209 28 29 24 24 24 -193 23 24 22 20 21 22 21 20 21 22 23 25 25 33 -209 -177 -177 -177 -177 -177 -177 606 0 0 99 100 611 105 105 -177 106 108 -193 112 117 -177 -177 -209 127 -209 -209 -193 -193 120 120 122 126 127 131 127 126 129 132 124 125 122 124 126 124 125 0 0 0 0 0
    0 0 0 0 0 0 0 0 0 0 0 0 0 0 0 0 0 0 0 0 0 0 0 0 0 0 0 0 0 0 0 0 0 0 0 0 0 0 0 0 0 0 0 0 0 0 0 0 0 0 0 0 0 0 0 0 0 0 0 0 0 0 0 0 0 0 0 0 0 -209 13 13 15 19 -209 -209 -209 -209 -209 -209 -209 -209 -209 74 74 75 76 -193 -193 -193 -193 -193 -209 -209 -209 -209 -209 -209 -209 -193 -209 -193 0 0 9 10 -209 -209 -209 74 77 -193 -193 81 84 -209 -209 -209 710 12 -209 -209 -209 -209 -209 -209 -193 -177 -193 0 0 10 -193 -193 -193 -193 0 -209 -209 -209 -209 -209 260 263 -209 75 74 74 77 78 79 79 80 82 81 82 84 85 -193 -209 -209 -209 -209 -193 -193 0 -193 -209 -193 0 -193 -193 12 -209 -177 -177 -193 -209 -193 -209 -193 -209 -209 13 11 10 9 9 0 0 0 0 0 0 0 0 0 0 0 0 0 0 0 0 0 0 9 9 10 14 15 14 13 13 13 12 12 14 11 11 11 12 12 12 13 16 16 17 18 16 20 16 16 16 16 17 23 -177 -177 -193 -177 -193 77 79 80 0 -209 -209 -193 -193 29 24 24 -193 -209 24 24 22 21 21 22 21 21 21 23 23 25 25 32 -177 -177 -177 -177 -177 -177 -177 -193 0 0 99 100 -193 104 104 -177 106 107 108 112 117 -177 -193 -209 -209 -177 -177 -177 -209 121 121 123 128 131 134 130 132 131 132 125 126 123 124 127 124 126 0 0 0 0 0
    0 0 0 0 0 0 0 0 0 0 0 0 0 0 0 0 0 0 0 0 0 0 0 0 0 0 0 0 0 0 0 0 0 0 0 0 0 0 0 0 0 0 0 0 0 0 0 0 0 0 0 0 0 0 0 0 0 0 0 0 0 0 0 0 0 0 0 0 0 74 -193 14 17 21 -209 -209 -209 -193 415 -193 -209 -209 76 75 75 75 77 77 76 78 79 77 78 79 -193 -209 -209 -209 -209 -209 -209 -209 -193 0 -209 -209 -209 -209 75 75 77 78 77 80 83 84 -209 -209 711 -209 -209 -209 -209 -209 -209 -209 -209 -209 -193 -193 -209 -193 -209 78 84 -209 -209 -193 257 258 -209 -209 260 -209 -209 75 74 75 78 78 80 79 80 81 81 81 83 84 87 -193 -209 -209 -209 -177 -193 -209 -209 -193 -193 -193 615 -209 -193 -209 -177 -177 -209 -209 -193 -193 -193 -193 -209 -209 -209 -209 -209 -209 -209 0 0 0 0 0 0 0 0 0 0 0 0 0 0 0 0 0 10 10 11 15 17 15 13 13 13 12 11 14 11 11 11 12 13 12 14 19 17 17 19 16 20 16 15 16 15 16 -193 -177 -193 -193 -209 78 78 79 81 -193 -209 -209 995 -193 30 24 -193 -193 -177 23 24 21 21 21 23 22 21 22 23 23 26 25 31 -209 -177 -177 -177 -177 -177 -193 -177 0 0 100 101 103 104 104 -177 107 108 109 111 116 -177 -193 -193 -193 38 -177 -177 39 39 -193 122 128 132 137 131 134 132 134 127 127 123 125 128 126 127 0 0 0 0 0
    0 0 0 0 0 0 0 0 0 0 0 0 0 0 0 0 0 0 0 0 0 0 0 0 0 0 0 0 0 0 0 0 0 0 0 0 0 0 0 0 0 0 0 0 0 0 0 0 0 0 0 0 0 0 0 0 0 0 0 0 0 0 0 0 0 0 0 0 0 75 78 -193 -209 -209 -209 -209 -209 417 -209 -209 -193 76 77 76 76 76 77 78 78 80 81 79 79 80 80 78 78 -193 77 -193 78 -193 -193 80 78 78 79 -193 77 77 77 79 78 80 82 83 85 -193 -193 85 82 83 82 -193 -193 77 78 76 76 78 76 76 77 81 84 86 85 -193 -193 -209 -209 -209 -209 -209 -193 76 75 78 80 79 80 80 80 81 80 81 82 82 86 85 86 87 -209 -177 -193 -209 -209 -193 -193 -193 -209 -193 -193 -193 -193 -177 -209 -209 -193 -193 -193 -193 -209 -209 -209 60 70 -193 -209 -209 -209 -209 0 0 0 -193 -193 0 0 0 0 0 0 0 0 0 10 11 12 16 18 15 14 13 14 11 11 -193 -193 11 13 14 15 14 17 21 19 17 19 16 20 15 14 16 -193 -193 -209 -193 -193 -193 77 78 78 79 81 -193 -193 -209 -209 29 31 25 -193 -193 998 -193 23 21 20 21 22 22 21 21 22 23 26 24 -193 -177 -177 -177 -177 -177 -177 -193 0 0 0 -193 101 103 104 -177 -177 108 109 109 111 116 -193 121 131 38 38 39 -177 37 37 -177 -209 128 134 140 135 138 136 137 132 130 127 127 130 129 130 0 0 0 0 0
    0 0 0 0 0 0 0 0 0 0 0 0 0 0 0 0 0 0 0 0 0 0 0 0 0 0 0 0 0 0 0 0 0 0 0 0 0 0 0 0 0 0 0 0 0 0 0 0 0 0 0 0 0 0 0 0 0 0 0 0 0 0 0 0 0 0 0 0 0 76 78 78 77 75 76 78 79 81 80 81 79 77 78 77 76 77 78 79 80 81 82 80 80 81 80 79 79 78 79 80 80 82 81 81 79 78 80 79 78 79 78 79 79 80 81 80 83 83 83 84 81 82 80 79 78 77 78 76 77 79 78 79 80 83 84 84 84 83 81 82 80 79 79 78 76 77 77 80 82 80 81 80 80 81 80 80 82 80 84 83 85 85 86 -193 -209 -209 -193 -193 -193 -193 75 75 79 -193 -193 -193 -209 -209 -193 -193 -209 -209 -193 73 73 64 72 75 75 -193 75 75 -209 -209 -209 -177 -177 -193 -193 -193 0 0 0 0 -193 0 11 12 12 17 18 -209 -209 -193 -209 -193 -193 -193 -193 -193 14 17 18 16 19 21 20 14 19 -193 18 15 13 -193 -209 -209 -209 -193 -193 -193 79 79 79 80 81 77 77 -209 -209 -193 31 -193 -193 -209 -193 -209 -193 -193 21 -193 -209 -193 -193 -193 -193 -193 -193 -193 -209 -209 -177 -177 -209 -193 -209 -193 -193 -177 0 -193 102 103 104 104 107 109 110 110 110 115 107 119 119 -193 37 38 36 37 37 -209 -193 -193 -209 -193 87 -193 145 143 135 132 126 127 132 132 131 0 0 0 0 0
    0 0 0 0 0 0 0 0 0 0 0 0 0 0 0 0 0 0 0 0 0 0 0 0 0 0 0 0 0 0 0 0 0 0 0 0 0 0 0 0 0 0 0 0 0 0 0 0 0 0 0 0 0 0 0 0 0 0 0 0 0 0 0 0 0 0 0 0 0 77 79 79 79 78 79 79 80 80 80 80 79 77 78 77 76 78 79 80 80 81 82 81 80 81 80 79 79 79 80 80 80 82 80 80 79 78 81 79 79 79 79 79 80 80 81 79 81 82 82 83 80 80 78 78 77 77 77 76 79 79 79 80 81 83 84 83 84 82 81 82 80 80 79 79 78 78 79 83 84 81 82 82 81 81 81 80 81 79 83 81 83 84 84 82 80 79 76 77 78 77 77 76 79 81 -193 -193 82 -193 -209 -193 74 73 73 74 74 69 73 76 76 74 79 83 -193 -209 -177 -177 -177 -193 -193 -193 -193 -193 -193 -209 -209 -209 -193 -193 -193 18 -193 -193 -193 -193 -193 -193 -193 -193 -177 -177 16 20 21 20 23 -209 -193 -209 -209 -209 76 -193 -209 -209 -209 -209 -209 -209 78 81 80 79 81 81 81 77 78 -177 -209 -209 32 -193 -193 -209 -209 -193 77 79 -209 -209 -193 317 317 318 319 317 -193 -209 319 -209 -209 -177 -177 -209 102 -193 -193 -177 -177 -177 102 -193 105 105 107 110 110 110 110 114 106 115 118 -193 35 37 35 37 -193 -209 -193 -209 -209 -193 83 78 82 -209 -209 -209 123 126 132 133 133 0 0 0 0 0
    0 0 0 0 0 0 0 0 0 0 0 0 0 0 0 0 0 0 0 0 0 0 0 0 0 0 0 0 0 0 0 0 0 0 0 0 0 0 0 0 0 0 0 0 0 0 0 0 0 0 0 0 0 0 0 0 0 0 0 0 0 0 0 0 0 0 0 0 0 79 80 79 80 79 79 79 80 80 80 80 79 77 78 77 77 79 80 81 82 82 83 82 82 82 80 79 79 79 79 79 79 81 80 80 79 79 82 80 79 80 80 81 80 80 81 79 82 82 82 82 80 80 78 78 77 77 77 76 81 80 80 81 81 83 83 83 84 82 81 82 81 81 80 80 80 80 81 86 86 83 84 83 82 82 81 80 80 78 81 79 79 80 82 80 79 79 77 78 78 79 79 78 80 80 78 79 80 76 74 75 75 75 75 75 75 74 75 78 77 77 82 84 85 79 -193 -177 -193 78 77 76 76 76 76 75 75 76 75 76 -193 76 80 79 82 80 79 80 79 79 -193 -177 -193 -209 -209 -209 -209 -193 -193 -193 78 76 78 79 82 78 78 -193 79 78 79 81 80 79 82 82 82 78 81 82 -177 -177 -209 -209 -209 74 79 77 81 82 83 -193 -209 315 315 317 318 -193 -193 -209 -193 -209 -209 -209 812 -193 103 97 -193 -177 -177 -177 -193 -193 105 105 108 111 111 111 110 113 106 110 116 -193 34 36 33 37 -193 -193 -193 -209 -209 79 82 78 78 81 83 86 -209 125 135 136 135 0 0 0 0 0
    0 0 0 0 0 0 0 0 0 0 0 0 0 0 0 0 0 0 0 0 0 0 0 0 0 0 0 0 0 0 0 0 0 0 0 0 0 0 0 0 0 0 0 0 0 0 0 0 0 0 0 0 0 0 0 0 0 0 0 0 0 0 0 0 0 0 0 0 0 79 80 79 81 80 79 79 81 80 80 79 80 77 80 77 78 81 81 82 83 84 84 83 83 83 80 80 80 79 80 80 79 81 81 82 82 81 84 82 81 81 81 82 81 81 82 79 82 83 83 82 81 82 80 80 79 79 79 78 83 81 81 82 82 83 83 83 84 81 81 82 81 81 80 80 81 81 83 86 87 84 85 84 83 82 82 80 80 77 80 78 78 79 81 79 79 79 77 79 79 80 80 79 81 81 79 81 82 78 77 77 78 77 77 77 77 75 77 79 77 80 83 84 85 82 82 81 79 79 77 77 77 76 76 76 76 76 76 76 77 77 81 80 82 81 80 81 81 81 82 80 80 77 77 77 78 82 82 81 81 79 80 80 82 79 79 79 80 79 80 81 81 80 83 83 82 80 83 84 83 84 79 -193 83 81 82 79 83 83 83 85 84 -193 -193 -177 -193 -209 -209 75 -193 -209 -193 -177 -209 99 104 100 -193 -177 -177 -177 -193 106 106 106 109 112 112 111 109 112 105 107 111 112 32 35 32 36 -193 -209 -193 -193 81 82 83 -193 81 82 83 84 -209 -209 133 139 137 0 0 0 0 0
    0 0 0 0 0 0 0 0 0 0 0 0 0 0 0 0 0 0 0 0 0 0 0 0 0 0 0 0 0 0 0 0 0 0 0 0 0 0 0 0 0 0 0 0 0 0 0 0 0 0 0 0 0 0 0 0 0 0 0 0 0 0 0 0 0 0 0 0 0 80 80 79 81 80 78 79 80 79 80 78 80 77 81 79 79 84 83 83 85 85 85 84 84 84 80 82 82 81 82 82 82 84 83 84 84 83 85 83 82 82 82 82 81 81 82 78 81 83 82 82 80 83 82 83 81 82 82 81 85 83 82 83 82 84 83 83 83 81 81 83 82 82 81 81 82 83 85 88 88 86 86 85 84 83 82 81 81 77 79 77 77 78 81 78 79 79 78 80 80 82 82 80 83 83 81 82 83 79 77 78 78 77 77 78 77 76 78 80 78 82 83 84 86 83 83 83 80 80 78 77 77 76 76 76 76 77 77 77 77 78 82 81 82 81 81 81 81 81 81 79 79 76 77 79 79 83 83 84 84 82 83 82 84 80 81 81 82 81 82 82 82 80 85 84 83 81 84 85 85 85 83 79 85 82 82 83 84 84 84 85 85 85 86 84 84 81 80 81 79 81 84 -209 -209 -193 106 102 -193 -177 -177 -177 -193 107 107 107 109 113 112 111 109 112 105 107 108 107 90 89 88 89 88 86 85 86 85 85 84 83 86 85 -209 -193 -209 -209 -209 141 -209 0 0 0 0 0
    0 0 0 0 0 0 0 0 0 0 0 0 0 0 0 0 0 0 0 0 0 0 0 0 0 0 0 0 0 0 0 0 0 0 0 0 0 0 0 0 0 0 0 0 0 0 0 0 0 0 0 0 0 0 0 0 0 0 0 0 0 0 0 0 0 0 0 0 0 81 81 80 82 81 78 81 82 80 81 79 80 78 83 80 81 85 83 84 85 85 85 84 85 84 80 83 84 82 82 83 83 84 84 85 85 84 85 84 82 83 83 83 82 81 82 78 81 83 82 82 80 85 82 83 81 83 83 83 86 84 83 84 83 84 84 83 84 81 82 83 82 83 82 83 84 85 87 89 90 86 86 86 84 84 83 82 81 76 79 77 77 77 80 78 80 80 79 82 82 84 84 83 84 85 83 84 84 81 78 79 79 78 77 78 78 76 79 80 78 83 84 84 86 84 84 83 81 81 78 78 78 76 77 77 77 77 77 77 77 78 82 82 82 81 81 82 82 81 81 79 78 77 78 79 81 83 85 85 86 84 85 85 85 83 83 83 83 82 83 83 83 81 85 83 83 80 83 84 83 83 83 80 85 83 84 85 86 86 86 86 86 86 87 86 85 84 84 85 84 85 87 96 -177 105 107 103 -193 -193 -177 -177 -193 108 108 107 110 113 112 111 110 112 105 107 107 106 90 90 89 89 89 88 88 89 87 86 85 85 88 87 85 -193 -209 -193 -193 151 -209 0 0 0 0 0
    0 0 0 0 0 0 0 0 0 0 0 0 0 0 0 0 0 0 0 0 0 0 0 0 0 0 0 0 0 0 0 0 0 0 0 0 0 0 0 0 0 0 0 0 0 0 0 0 0 0 0 0 0 0 0 0 0 0 0 0 0 0 0 0 0 0 0 0 0 82 82 81 83 82 79 82 83 82 83 80 82 81 85 83 83 86 84 84 86 85 85 85 85 85 81 85 85 83 83 83 83 83 83 84 85 84 85 84 83 83 83 84 83 82 83 79 81 84 82 82 79 85 82 82 80 84 83 84 86 84 84 84 84 85 84 83 84 81 83 84 84 84 84 85 86 87 88 89 90 87 87 86 85 84 83 82 82 77 80 78 77 78 80 78 80 80 80 83 83 86 85 85 86 86 85 85 84 83 79 80 79 79 77 79 78 77 79 80 78 84 84 84 86 85 85 84 82 83 79 80 79 77 77 77 77 78 78 77 77 78 82 83 82 82 82 82 82 82 82 80 79 78 79 80 82 84 85 87 87 86 86 86 86 84 85 85 84 83 84 84 84 82 85 84 83 81 84 85 85 84 83 81 85 83 84 86 87 86 87 87 87 88 88 87 86 85 86 86 86 87 89 97 -209 104 107 104 104 -193 -177 -177 -193 108 108 107 110 113 112 111 109 111 105 106 106 105 91 91 90 89 89 89 89 90 89 87 87 86 89 89 86 87 -193 157 159 -209 -193 0 0 0 0 0
    0 0 0 0 0 0 0 0 0 0 0 0 0 0 0 0 0 0 0 0 0 0 0 0 0 0 0 0 0 0 0 0 0 0 0 0 0 0 0 0 0 0 0 0 0 0 0 0 0 0 0 0 0 0 0 0 0 0 0 0 0 0 0 0 0 0 0 0 0 82 82 81 83 82 80 83 84 84 84 83 85 85 87 85 85 87 84 85 86 86 86 85 85 85 81 86 86 84 83 83 83 83 84 84 86 85 86 85 84 84 84 84 84 83 84 81 83 85 82 83 80 85 83 82 81 85 85 86 87 85 84 84 84 85 83 83 83 81 84 85 85 85 85 86 88 88 88 89 90 87 86 86 85 84 84 83 82 76 79 77 77 77 80 78 81 81 82 85 85 86 -193 86 87 87 86 85 84 84 80 80 80 79 78 79 79 79 80 82 80 86 85 86 86 86 86 85 84 84 81 82 81 78 77 78 78 79 79 77 78 79 83 84 83 83 83 83 83 83 83 81 79 80 80 81 83 84 86 87 87 86 87 87 87 86 86 86 85 85 85 84 85 84 86 84 84 83 85 85 85 85 84 82 84 83 83 84 87 86 86 87 87 88 88 87 87 86 87 87 88 89 91 98 102 103 106 104 104 -193 -193 -177 107 109 109 108 110 113 112 110 109 110 104 104 104 102 92 91 91 90 90 90 90 91 90 88 88 88 90 90 88 88 89 91 -193 -209 -209 0 0 0 0 0
    0 0 0 0 0 0 0 0 0 0 0 0 0 0 0 0 0 0 0 0 0 0 0 0 0 0 0 0 0 0 0 0 0 0 0 0 0 0 0 0 0 0 0 0 0 0 0 0 0 0 0 0 0 0 0 0 0 0 0 0 0 0 0 0 0 0 0 0 0 83 82 81 83 83 80 83 85 84 85 85 86 87 88 87 87 87 85 85 86 85 85 85 85 85 81 87 86 86 84 84 83 83 85 86 87 87 87 85 84 85 85 85 84 84 85 82 85 87 84 84 82 86 85 83 82 86 85 86 88 85 84 85 84 85 83 83 84 81 84 86 85 86 86 88 89 89 89 89 91 87 87 87 85 85 84 83 83 76 80 78 77 78 81 80 83 84 85 87 -193 -193 -193 -193 -193 -193 -193 85 -193 85 81 80 80 80 79 80 81 82 82 84 83 87 87 86 87 86 86 86 85 85 82 83 82 78 77 79 80 80 80 78 79 80 83 85 83 83 84 84 84 83 84 82 79 82 82 83 84 84 87 87 87 87 87 87 87 87 87 87 87 87 87 87 87 87 88 87 86 85 86 86 86 86 85 84 86 85 85 85 87 86 86 87 87 88 88 88 87 86 87 88 90 90 93 98 101 103 106 104 105 105 -193 -177 107 109 109 108 110 112 111 110 109 110 103 103 103 100 92 92 91 91 91 91 91 91 91 89 90 89 91 91 90 90 90 90 91 90 92 0 0 0 0 0
    0 0 0 0 0 0 0 0 0 0 0 0 0 0 0 0 0 0 0 0 0 0 0 0 0 0 0 0 0 0 0 0 0 0 0 0 0 0 0 0 0 0 0 0 0 0 0 0 0 0 0 0 0 0 0 0 0 0 0 0 0 0 0 0 0 0 0 0 0 83 83 81 83 83 79 84 86 86 87 87 88 89 89 88 88 88 85 85 85 85 85 84 85 85 82 88 87 88 86 87 85 85 87 88 89 88 87 86 85 86 86 85 85 84 85 84 86 89 86 86 85 87 86 85 84 86 85 87 88 86 85 85 85 85 84 84 84 82 85 87 86 87 87 89 90 90 91 90 92 88 87 87 86 86 85 84 84 77 82 81 78 80 84 84 85 86 87 88 86 -193 -193 -193 -193 -193 86 85 84 85 82 82 82 81 80 82 83 84 84 85 84 87 87 86 87 86 86 -193 85 85 83 84 83 79 78 81 82 82 82 80 81 82 84 86 84 84 85 84 84 84 84 83 80 83 83 84 84 85 87 87 86 87 88 87 88 88 89 89 89 89 89 89 89 89 89 88 87 86 87 87 87 87 87 85 88 88 88 88 89 88 88 88 89 89 89 88 88 87 88 89 91 91 94 99 101 103 106 104 105 105 107 -193 108 110 110 108 110 112 111 109 108 109 102 102 102 100 93 93 92 91 91 92 91 92 91 90 90 90 91 91 90 91 90 91 91 90 91 0 0 0 0 0
    0 0 0 0 0 0 0 0 0 0 0 0 0 0 0 0 0 0 0 0 0 0 0 0 0 0 0 0 0 0 0 0 0 0 0 0 0 0 0 0 0 0 0 0 0 0 0 0 0 0 0 0 0 0 0 0 0 0 0 0 0 0 0 0 0 0 0 0 0 84 84 83 84 84 79 86 89 89 89 91 90 90 91 90 90 89 86 86 86 86 85 85 86 86 84 89 90 90 90 91 88 88 90 90 91 90 88 87 86 87 87 86 85 85 86 86 87 90 88 88 87 88 -193 87 85 87 87 88 88 87 86 86 86 87 85 85 85 83 86 88 88 88 88 90 91 92 91 91 93 89 88 88 87 87 86 85 85 79 84 84 81 83 86 87 87 89 89 89 87 88 -193 86 87 87 86 86 85 86 84 84 84 83 82 83 84 85 85 86 85 88 87 87 87 87 87 -193 86 86 84 85 85 83 83 84 84 84 84 82 84 84 86 87 85 85 86 85 85 85 86 85 82 86 85 85 86 86 87 87 87 87 88 88 88 89 89 89 90 90 90 90 90 90 90 89 89 88 89 88 88 88 88 87 89 89 89 89 90 90 90 89 90 89 89 88 88 87 89 90 93 92 95 99 101 103 106 105 106 106 108 -193 108 111 110 108 110 112 110 109 108 109 102 102 102 101 95 95 94 93 93 94 92 93 92 91 92 92 92 92 92 93 91 93 93 91 92 0 0 0 0 0
    0 0 0 0 0 0 0 0 0 0 0 0 0 0 0 0 0 0 0 0 0 0 0 0 0 0 0 0 0 0 0 0 0 0 0 0 0 0 0 0 0 0 0 0 0 0 0 0 0 0 0 0 0 0 0 0 0 0 0 0 0 0 0 0 0 0 0 0 0 85 85 84 85 86 82 89 93 92 90 93 91 91 91 91 90 90 87 87 86 86 86 86 86 86 86 90 91 92 93 94 92 90 93 91 92 91 89 88 87 88 87 86 86 85 87 87 88 90 89 89 89 89 -193 87 86 87 88 89 89 88 88 88 88 88 87 86 86 85 87 89 89 90 90 91 92 92 92 92 94 90 89 89 88 87 87 87 87 81 87 87 84 85 88 90 89 91 92 91 89 89 90 88 88 89 87 87 87 88 86 86 86 83 83 84 86 86 86 87 87 89 88 87 88 87 87 87 87 87 86 87 87 86 87 86 86 86 86 84 85 85 86 87 85 85 86 86 85 86 86 85 83 87 87 87 87 88 88 87 87 87 89 88 88 89 90 90 90 91 91 91 91 92 92 91 90 90 90 89 89 89 90 89 90 90 90 90 91 90 91 90 91 90 91 90 89 89 91 92 94 93 96 99 101 103 107 105 106 106 109 109 108 111 110 108 110 112 110 108 108 109 102 102 102 101 96 96 95 94 95 96 93 94 92 92 94 93 94 94 93 95 94 97 97 93 95 0 0 0 0 0
    0 0 0 0 0 0 0 0 0 0 0 0 0 0 0 0 0 0 0 0 0 0 0 0 0 0 0 0 0 0 0 0 0 0 0 0 0 0 0 0 0 0 0 0 0 0 0 0 0 0 0 0 0 0 0 0 0 0 0 0 0 0 0 0 0 0 0 0 0 87 86 87 87 -193 86 91 95 92 90 94 92 91 91 92 91 90 89 89 87 87 87 87 86 86 87 90 91 92 93 94 92 90 94 91 92 91 89 89 88 88 88 -193 -193 86 87 88 89 91 89 90 90 89 -209 -209 86 88 90 90 90 89 89 88 88 89 88 87 87 86 88 90 90 91 91 93 93 93 93 93 94 91 90 90 89 89 88 88 88 83 88 89 86 86 89 92 91 93 94 92 90 91 91 89 89 90 88 88 88 89 88 87 87 84 86 87 88 88 87 89 89 90 88 88 88 88 88 88 88 88 88 89 89 89 89 89 88 89 87 86 87 87 87 88 85 85 86 86 86 86 87 87 85 88 88 89 89 89 88 87 88 88 89 89 89 90 90 90 91 91 92 91 92 93 93 93 92 92 94 92 92 90 92 91 91 91 90 90 91 91 92 91 91 91 93 92 91 91 93 94 96 95 98 100 101 103 107 106 106 107 109 109 108 112 111 108 110 111 110 108 108 108 102 102 102 101 96 97 96 95 96 97 94 95 93 93 96 95 96 95 96 98 97 100 101 98 100 0 0 0 0 0
    0 0 0 0 0 0 0 0 0 0 0 0 0 0 0 0 0 0 0 0 0 0 0 0 0 0 0 0 0 0 0 0 0 0 0 0 0 0 0 0 0 0 0 0 0 0 0 0 0 0 0 0 0 0 0 0 0 0 0 0 0 0 0 0 0 0 0 0 0 89 88 89 89 91 90 93 96 92 91 95 93 92 92 93 92 91 90 90 88 88 87 88 86 87 87 90 91 92 92 93 92 90 93 91 91 90 89 89 88 88 88 -193 -193 87 88 89 89 92 90 90 91 90 -193 -193 88 90 93 91 92 90 90 89 90 90 89 88 88 88 89 91 91 92 93 93 94 93 93 93 94 92 90 91 90 90 89 89 89 86 89 90 87 85 89 92 91 93 93 92 90 91 91 89 90 90 89 89 89 90 89 88 89 86 88 89 90 89 88 90 90 91 90 88 88 89 89 90 89 90 90 90 91 91 91 91 90 91 89 89 89 88 88 88 86 86 87 86 86 87 88 88 87 89 89 89 89 90 89 87 88 88 90 89 89 89 90 91 91 92 92 91 93 94 94 95 93 95 97 94 93 91 93 92 91 91 90 90 92 92 92 91 92 91 94 94 93 94 96 96 98 96 99 100 100 102 107 106 106 107 109 109 108 112 111 108 110 111 110 108 108 109 102 102 102 100 95 97 95 96 97 97 94 97 95 94 97 97 98 97 99 100 99 101 102 99 100 0 0 0 0 0
    0 0 0 0 0 0 0 0 0 0 0 0 0 0 0 0 0 0 0 0 0 0 0 0 0 0 0 0 0 0 0 0 0 0 0 0 0 0 0 0 0 0 0 0 0 0 0 0 0 0 0 0 0 0 0 0 0 0 0 0 0 0 0 0 0 0 0 0 0 91 89 90 90 92 91 93 95 92 91 95 93 92 92 93 92 92 91 91 89 89 89 89 87 87 89 90 92 93 93 94 92 90 93 90 90 90 89 89 88 89 89 -193 -193 88 89 90 90 92 91 91 91 90 93 90 90 90 94 92 92 91 91 90 90 90 90 89 89 89 90 92 92 93 93 93 94 93 93 93 94 93 91 91 91 90 90 90 90 87 89 91 89 87 91 94 94 95 94 92 91 91 91 90 91 90 89 89 90 90 89 89 90 87 89 90 90 89 89 91 92 92 91 89 90 90 91 91 90 91 90 90 92 91 92 91 91 92 90 91 91 90 90 89 87 87 88 88 87 88 89 89 89 90 90 90 90 91 90 88 88 88 90 88 88 89 89 91 91 92 92 92 94 95 95 96 94 97 98 96 95 93 96 95 93 93 92 92 93 93 94 93 93 93 95 95 94 96 98 99 99 97 100 101 100 102 108 106 107 107 109 108 108 112 111 108 110 111 109 108 109 109 102 102 101 100 95 97 95 97 98 98 94 98 96 96 98 99 98 98 100 100 100 101 101 100 100 0 0 0 0 0
    0 0 0 0 0 0 0 0 0 0 0 0 0 0 0 0 0 0 0 0 0 0 0 0 0 0 0 0 0 0 0 0 0 0 0 0 0 0 0 0 0 0 0 0 0 0 0 0 0 0 0 0 0 0 0 0 0 0 0 0 0 0 0 0 0 0 0 0 0 93 91 92 92 94 93 95 96 92 91 96 94 92 92 93 93 92 93 93 90 90 92 92 90 89 92 92 94 96 95 96 95 92 94 91 91 91 90 90 89 90 90 89 90 90 91 -193 92 93 92 92 93 92 94 91 91 91 96 93 93 92 91 90 91 91 91 89 90 90 90 92 92 94 93 93 94 93 94 94 95 93 92 92 92 91 92 91 91 89 90 93 91 89 96 96 97 96 95 94 93 92 92 90 92 91 90 91 91 91 90 90 91 88 90 91 90 90 90 92 92 93 93 90 91 91 92 93 91 92 91 91 92 92 93 92 91 93 91 93 93 92 92 90 89 88 89 89 88 90 91 90 90 91 91 91 91 91 90 87 87 88 90 88 88 89 89 91 92 92 93 93 95 95 95 97 94 98 99 98 96 96 99 99 95 96 95 94 95 96 96 95 95 94 97 97 96 99 100 100 100 99 101 102 101 103 109 107 107 108 109 108 108 112 111 108 110 110 109 108 109 109 101 102 101 98 94 96 94 97 98 99 95 98 97 97 99 100 99 98 100 101 100 102 102 101 101 0 0 0 0 0
    0 0 0 0 0 0 0 0 0 0 0 0 0 0 0 0 0 0 0 0 0 0 0 0 0 0 0 0 0 0 0 0 0 0 0 0 0 0 0 0 0 0 0 0 0 0 0 0 0 0 0 0 0 0 0 0 0 0 0 0 0 0 0 0 0 0 0 0 0 94 92 93 94 95 95 96 97 92 92 96 94 92 92 94 93 92 93 94 91 91 94 94 91 91 94 93 96 98 97 97 96 94 96 92 91 91 90 90 89 90 90 89 91 91 94 -193 94 95 93 93 95 94 97 92 93 92 97 93 93 92 91 91 92 91 91 90 91 91 91 93 93 94 94 94 95 94 94 94 96 94 92 93 93 92 93 92 92 89 91 94 92 92 98 96 96 97 95 94 94 93 92 91 93 92 91 92 92 91 91 92 92 89 91 92 91 91 90 91 92 93 94 92 92 91 93 94 92 92 91 91 92 91 93 92 91 93 91 94 94 93 93 91 91 90 90 90 89 91 92 91 91 91 91 92 91 92 91 88 87 88 90 89 89 90 89 93 93 94 94 94 95 96 96 98 94 99 99 99 98 100 102 102 99 100 99 99 97 98 99 98 98 97 100 99 99 101 101 101 101 100 103 103 102 103 109 107 107 108 108 107 107 112 110 108 110 110 109 108 109 109 102 102 101 98 94 96 94 97 99 99 97 99 99 99 101 101 101 101 102 102 102 104 104 103 103 0 0 0 0 0
    0 0 0 0 0 0 0 0 0 0 0 0 0 0 0 0 0 0 0 0 0 0 0 0 0 0 0 0 0 0 0 0 0 0 0 0 0 0 0 0 0 0 0 0 0 0 0 0 0 0 0 0 0 0 0 0 0 0 0 0 0 0 0 0 0 0 0 0 0 96 95 96 97 98 98 98 98 94 93 97 95 93 93 94 94 93 94 94 91 91 94 94 92 91 94 94 97 100 97 98 97 95 96 93 92 91 90 91 90 90 90 89 91 91 96 -193 95 96 95 95 97 98 99 95 96 95 99 95 94 93 92 92 92 92 92 91 91 92 92 93 93 95 94 94 95 94 94 94 96 95 93 94 94 93 94 93 93 90 92 95 93 95 99 97 96 97 95 95 96 94 93 92 95 93 92 93 93 92 92 93 93 90 92 93 90 90 90 90 91 93 95 94 95 92 95 95 92 93 92 92 92 92 93 92 91 93 91 95 94 94 94 92 92 91 92 91 90 93 93 92 92 92 92 92 92 92 91 89 89 89 92 91 90 91 91 96 93 94 95 96 96 96 97 99 95 100 100 101 100 103 104 104 102 103 102 101 99 100 100 100 100 99 101 100 100 102 101 102 101 102 103 104 103 104 109 107 107 108 108 107 107 112 110 108 110 110 109 109 110 110 104 104 103 98 95 96 95 98 100 100 99 100 101 102 103 104 104 104 105 104 105 105 105 104 103 0 0 0 0 0
    0 0 0 0 0 0 0 0 0 0 0 0 0 0 0 0 0 0 0 0 0 0 0 0 0 0 0 0 0 0 0 0 0 0 0 0 0 0 0 0 0 0 0 0 0 0 0 0 0 0 0 0 0 0 0 0 0 0 0 0 0 0 0 0 0 0 0 0 0 97 98 100 100 100 99 99 99 96 95 98 95 93 93 95 94 93 94 95 91 92 94 95 93 92 95 95 98 101 98 98 98 95 96 94 93 92 90 91 91 91 91 90 92 92 98 96 97 98 96 97 99 99 100 97 98 98 100 97 95 95 93 93 93 92 92 91 92 92 92 93 93 95 94 94 94 94 94 94 96 95 93 95 94 94 94 94 94 90 92 95 93 96 100 98 98 98 96 96 97 95 93 93 96 94 93 95 94 93 93 95 94 91 93 94 91 91 90 90 92 96 101 100 99 94 98 97 93 95 93 93 93 92 94 93 92 94 92 96 94 94 95 92 94 92 93 92 91 94 94 93 93 92 92 92 92 93 92 91 92 92 93 93 92 92 92 98 94 94 95 97 96 96 98 99 95 101 101 101 100 103 104 104 103 104 103 103 100 101 100 100 101 101 101 101 101 103 103 103 103 103 104 104 104 105 109 107 107 108 109 107 107 112 109 108 110 110 109 109 111 110 105 105 104 97 96 96 95 97 99 100 100 101 102 104 105 107 107 107 108 106 106 106 105 104 103 0 0 0 0 0
    0 0 0 0 0 0 0 0 0 0 0 0 0 0 0 0 0 0 0 0 0 0 0 0 0 0 0 0 0 0 0 0 0 0 0 0 0 0 0 0 0 0 0 0 0 0 0 0 0 0 0 0 0 0 0 0 0 0 0 0 0 0 0 0 0 0 0 0 0 99 100 101 101 101 101 100 100 97 97 99 95 94 94 96 95 94 95 95 92 93 94 95 94 94 97 98 100 102 100 100 99 97 97 96 94 93 90 91 91 91 91 90 92 94 100 99 100 100 99 98 100 101 101 99 99 98 101 97 97 97 94 94 93 92 93 91 92 92 92 93 93 94 94 93 94 94 94 94 97 96 94 96 95 95 95 95 96 91 92 95 94 98 101 99 100 99 96 97 98 95 94 93 96 94 93 96 95 94 94 96 96 92 95 96 92 92 92 93 97 100 104 102 100 95 98 98 94 96 94 94 94 94 96 94 94 96 93 98 95 94 94 92 94 92 93 92 91 94 94 92 93 92 92 92 92 93 93 93 95 94 96 96 94 95 93 100 95 95 95 98 96 97 98 99 95 101 100 101 100 103 104 104 104 106 105 105 102 103 101 101 102 102 102 101 102 104 103 104 103 103 104 104 104 105 107 107 107 107 108 107 107 112 109 108 110 110 109 109 111 110 105 105 105 96 96 95 94 96 97 98 98 99 102 103 106 108 107 107 108 106 106 106 105 104 103 0 0 0 0 0</data></disparity>
</opencv_storage>
