<?xml version="1.0"?>
<opencv_storage>
<gps_time_stamp>17740</gps_time_stamp>
<gps_x>-1.4613045379519463e-002</gps_x>
<gps_y>6.5472610294818878e-002</gps_y>
<gps_z>-1.6749838367104530e-002</gps_z>
<image_time_stamp>5665</image_time_stamp>
<disparity type_id="opencv-matrix">
  <rows>82</rows>
  <cols>320</cols>
  <dt>s</dt>
  <data>
    0 0 0 0 0 0 0 0 0 0 0 0 0 0 0 0 0 0 0 0 0 0 0 0 0 0 0 0 0 0 0 0 0 0 0 0 0 0 0 0 0 0 0 0 0 0 0 0 0 0 0 0 0 0 0 0 0 0 0 0 0 0 0 0 0 0 0 0 0 95 94 100 98 96 99 98 98 95 96 96 94 96 95 94 93 94 97 98 97 96 96 97 96 97 98 96 95 94 97 99 96 98 96 93 96 95 94 94 93 92 91 92 94 94 95 95 94 96 97 97 96 95 95 94 95 95 95 97 97 97 96 95 94 94 97 93 95 95 94 94 94 94 94 93 94 93 92 94 93 97 99 99 98 94 92 91 90 89 88 91 91 92 95 95 96 96 96 95 94 94 94 92 93 93 91 93 95 95 95 94 93 91 91 89 92 93 92 92 93 93 94 94 95 93 92 93 92 94 93 91 91 90 90 89 89 89 89 89 91 92 92 94 95 94 94 93 94 93 91 90 89 90 92 91 91 92 92 95 95 95 95 94 96 98 98 98 97 101 101 103 102 102 99 99 100 101 100 100 100 102 101 102 103 102 102 103 103 102 102 103 102 102 103 104 102 103 103 103 103 102 102 102 100 103 101 102 99 103 102 102 101 -193 -193 -193 -193 98 91 99 100 102 101 101 101 102 103 107 -209 -209 -209 139 147 140 142 144 141 142 142 142 141 140 141 141 140 143 143 0 0 0 0 0
    0 0 0 0 0 0 0 0 0 0 0 0 0 0 0 0 0 0 0 0 0 0 0 0 0 0 0 0 0 0 0 0 0 0 0 0 0 0 0 0 0 0 0 0 0 0 0 0 0 0 0 0 0 0 0 0 0 0 0 0 0 0 0 0 0 0 0 0 0 95 93 100 100 97 101 100 100 99 99 100 97 98 100 99 97 99 101 100 99 98 98 98 97 98 98 97 96 96 99 100 98 99 97 94 96 96 95 94 94 92 92 92 94 94 95 95 94 96 97 98 97 95 97 95 96 97 96 98 98 98 98 96 96 95 98 94 97 96 95 96 95 95 95 94 96 94 93 97 95 99 99 100 99 96 95 93 92 91 90 92 93 94 97 96 97 98 97 97 96 96 96 95 96 95 94 98 97 98 98 96 95 92 93 91 93 94 93 93 94 95 96 95 96 94 93 94 94 96 95 93 93 93 92 91 90 91 91 91 93 94 94 95 96 96 96 95 95 94 93 91 91 92 94 92 92 93 93 96 95 95 95 95 97 98 99 99 98 102 102 103 103 103 100 100 101 101 100 100 100 102 101 102 104 102 102 103 104 103 103 103 102 102 103 104 103 103 103 103 103 103 102 102 101 103 101 102 99 103 103 103 -193 -209 -193 -193 -193 105 96 -193 106 109 105 105 104 105 106 110 -209 -209 -209 141 147 141 144 143 141 143 142 142 141 140 141 140 140 143 142 0 0 0 0 0
    0 0 0 0 0 0 0 0 0 0 0 0 0 0 0 0 0 0 0 0 0 0 0 0 0 0 0 0 0 0 0 0 0 0 0 0 0 0 0 0 0 0 0 0 0 0 0 0 0 0 0 0 0 0 0 0 0 0 0 0 0 0 0 0 0 0 0 0 0 95 93 100 101 99 102 102 101 100 100 101 98 99 101 99 98 101 -193 100 100 98 97 98 97 98 98 97 96 95 98 99 97 99 96 94 95 95 94 94 94 92 92 92 95 94 95 96 95 96 98 98 98 96 97 96 96 97 96 99 98 99 99 98 97 96 99 95 98 97 95 97 97 97 97 96 98 95 95 99 97 100 100 101 100 96 95 94 93 92 90 91 93 95 98 97 98 99 98 98 98 98 98 96 98 97 96 99 97 99 99 97 97 94 95 92 95 96 94 94 95 96 96 96 97 94 93 95 95 97 96 95 96 96 95 94 93 94 94 93 96 96 96 96 97 97 97 96 96 95 94 93 94 94 95 93 94 94 93 97 95 95 95 95 97 98 98 99 96 102 102 103 103 103 101 101 102 101 100 100 100 102 102 103 104 103 104 104 105 104 104 104 103 103 103 104 103 104 104 104 103 103 102 102 102 102 101 102 99 102 102 102 -193 -193 105 103 105 107 107 119 116 116 110 110 108 108 108 112 -209 -209 -209 144 147 142 145 143 141 143 142 142 141 140 140 139 140 142 142 0 0 0 0 0
    0 0 0 0 0 0 0 0 0 0 0 0 0 0 0 0 0 0 0 0 0 0 0 0 0 0 0 0 0 0 0 0 0 0 0 0 0 0 0 0 0 0 0 0 0 0 0 0 0 0 0 0 0 0 0 0 0 0 0 0 0 0 0 0 0 0 0 0 0 95 93 100 101 99 102 102 102 101 102 101 99 99 100 99 98 100 -193 100 99 98 97 98 97 97 98 96 96 95 97 98 97 98 96 95 95 95 94 94 95 93 92 93 96 95 97 97 96 97 99 99 99 96 98 96 97 98 97 100 99 100 100 99 98 97 99 94 99 97 96 97 97 97 97 96 98 95 96 99 98 100 100 101 99 96 94 93 93 91 90 90 93 97 99 98 99 99 98 98 98 98 98 96 98 97 97 99 98 99 99 98 98 95 97 94 97 97 96 95 96 96 97 96 97 94 94 95 96 97 96 96 97 97 97 96 96 96 96 95 98 97 96 96 97 97 97 96 97 95 96 95 97 96 95 94 96 96 94 99 96 96 95 95 98 98 99 99 96 102 102 103 103 103 101 101 102 101 101 101 101 103 103 105 105 105 105 106 106 105 105 105 103 103 104 104 104 104 104 104 103 103 103 103 103 102 102 102 99 102 102 101 102 101 103 102 105 106 107 118 116 116 111 111 110 109 110 113 -193 -177 -209 144 146 142 146 143 141 143 142 142 140 139 140 138 140 142 141 0 0 0 0 0
    0 0 0 0 0 0 0 0 0 0 0 0 0 0 0 0 0 0 0 0 0 0 0 0 0 0 0 0 0 0 0 0 0 0 0 0 0 0 0 0 0 0 0 0 0 0 0 0 0 0 0 0 0 0 0 0 0 0 0 0 0 0 0 0 0 0 0 0 0 95 92 98 100 99 101 102 102 102 103 103 100 98 100 100 100 100 -193 100 100 99 98 98 98 98 98 97 96 95 97 99 97 98 96 95 96 95 94 95 96 93 93 93 96 96 97 98 96 98 99 99 99 97 98 97 98 99 98 101 100 100 100 98 97 96 99 93 99 98 96 98 97 97 97 96 98 95 95 98 96 99 99 100 99 96 95 94 94 93 93 92 95 98 100 98 99 99 98 98 98 98 97 96 98 97 96 99 97 99 99 98 98 96 98 96 99 98 97 96 97 97 98 97 98 95 95 96 97 97 97 96 97 98 98 97 97 97 97 96 98 97 96 96 97 97 97 96 97 95 97 97 99 98 97 96 98 98 96 100 96 96 96 96 98 99 99 100 96 103 102 103 103 104 103 104 105 103 104 103 104 105 105 106 106 105 106 105 106 105 104 104 103 103 103 104 104 104 104 105 103 104 104 104 104 103 103 102 100 103 102 103 103 103 103 102 104 105 106 113 113 113 110 112 113 111 112 115 118 -193 -209 143 144 141 146 142 141 143 142 141 140 140 140 138 140 142 141 0 0 0 0 0
    0 0 0 0 0 0 0 0 0 0 0 0 0 0 0 0 0 0 0 0 0 0 0 0 0 0 0 0 0 0 0 0 0 0 0 0 0 0 0 0 0 0 0 0 0 0 0 0 0 0 0 0 0 0 0 0 0 0 0 0 0 0 0 0 0 0 0 0 0 95 92 96 99 97 101 102 103 105 106 -193 -209 -193 103 103 103 103 -193 101 101 100 99 99 99 99 99 97 96 95 95 98 96 97 95 95 96 95 95 96 97 94 94 94 98 98 99 99 97 98 99 99 100 97 98 97 98 98 97 101 100 100 99 96 95 96 99 94 100 99 98 99 98 98 97 97 99 94 94 96 94 97 97 99 97 95 95 93 95 94 96 94 96 98 100 99 99 99 98 98 98 98 97 96 98 96 96 99 97 99 98 98 98 97 100 99 100 99 98 96 98 98 99 98 99 96 96 97 99 98 97 96 96 97 97 96 98 97 98 96 98 97 96 96 97 96 97 96 98 96 98 99 100 100 99 99 101 100 98 101 97 96 97 97 99 99 99 100 97 103 103 103 104 104 105 106 107 106 107 106 107 107 107 109 107 106 107 106 106 105 104 104 103 103 104 104 105 105 106 106 104 105 105 105 106 104 105 104 103 104 103 104 105 104 105 104 105 106 107 111 111 112 109 111 114 113 112 115 118 -209 -193 141 142 140 145 141 141 143 141 141 140 140 140 138 141 143 141 0 0 0 0 0
    0 0 0 0 0 0 0 0 0 0 0 0 0 0 0 0 0 0 0 0 0 0 0 0 0 0 0 0 0 0 0 0 0 0 0 0 0 0 0 0 0 0 0 0 0 0 0 0 0 0 0 0 0 0 0 0 0 0 0 0 0 0 0 0 0 0 0 0 0 96 92 96 100 99 102 104 -193 109 112 -193 -193 -193 108 108 108 107 107 104 102 102 101 101 100 100 100 98 98 95 95 98 96 97 95 96 96 96 97 98 99 97 97 97 100 100 100 100 99 100 100 100 101 98 99 98 98 98 96 100 100 99 98 95 94 95 99 94 101 100 99 100 99 99 98 98 100 95 94 96 94 96 96 99 96 94 -193 -193 -193 -193 -193 94 96 99 100 99 100 99 99 99 99 99 98 96 98 96 97 99 96 98 98 98 98 97 100 99 100 100 99 97 98 98 100 99 100 98 98 99 101 99 99 96 97 97 97 97 99 98 99 96 98 97 95 96 96 96 97 96 98 97 100 101 102 101 100 100 102 100 99 101 97 97 97 97 100 99 100 100 97 103 103 103 104 105 106 108 108 107 108 108 109 108 109 111 108 107 107 106 106 104 104 105 102 103 103 103 105 105 105 106 104 106 107 107 108 106 106 106 104 105 104 105 106 105 106 106 106 107 109 112 112 113 110 111 112 111 111 112 115 119 -193 140 141 139 145 141 141 143 141 142 140 140 141 138 141 142 142 0 0 0 0 0
    0 0 0 0 0 0 0 0 0 0 0 0 0 0 0 0 0 0 0 0 0 0 0 0 0 0 0 0 0 0 0 0 0 0 0 0 0 0 0 0 0 0 0 0 0 0 0 0 0 0 0 0 0 0 0 0 0 0 0 0 0 0 0 0 0 0 0 0 0 97 93 96 101 100 -193 -193 108 111 114 116 113 -193 110 110 110 109 110 108 104 -193 -193 -193 -193 102 102 100 100 -193 95 97 94 95 94 96 97 96 99 101 102 102 103 103 103 103 104 103 102 102 101 101 102 100 100 98 97 96 95 99 98 97 97 93 95 96 101 100 103 102 102 102 101 101 100 100 101 96 95 96 94 97 98 -193 -209 -209 -209 -209 -209 -209 -209 -209 98 100 101 101 101 100 99 100 100 100 99 98 99 97 98 99 97 99 98 99 99 98 101 102 101 101 100 99 101 100 101 101 101 100 101 101 104 100 102 100 101 99 100 100 101 100 100 98 99 97 96 96 96 96 97 96 99 98 102 103 103 102 102 102 104 102 100 102 98 97 97 98 101 100 100 100 98 103 103 103 104 104 106 109 108 108 108 108 109 109 110 111 108 107 107 106 106 104 104 105 102 103 103 104 105 105 106 107 105 107 108 108 109 107 108 108 106 106 106 106 107 107 107 107 107 109 110 114 113 114 111 112 112 111 110 110 113 116 -209 -193 141 140 146 141 141 144 142 142 140 140 141 138 141 142 142 0 0 0 0 0
    0 0 0 0 0 0 0 0 0 0 0 0 0 0 0 0 0 0 0 0 0 0 0 0 0 0 0 0 0 0 0 0 0 0 0 0 0 0 0 0 0 0 0 0 0 0 0 0 0 0 0 0 0 0 0 0 0 0 0 0 0 0 0 0 0 0 0 0 0 100 97 99 103 104 -193 105 109 111 114 116 113 113 111 111 111 110 110 109 106 109 -193 -193 -193 -193 -193 -193 -193 -193 98 99 95 95 94 98 98 97 101 -193 104 106 106 106 106 106 106 106 105 105 103 103 103 101 101 99 98 97 95 99 98 96 97 94 98 99 103 105 105 104 104 104 103 103 102 102 102 99 98 100 -193 -209 103 -209 -209 -209 -209 -209 -209 -209 -209 -193 101 101 102 102 102 101 100 101 101 102 101 100 101 100 100 101 99 101 100 100 100 100 103 105 104 103 103 101 103 102 103 103 104 103 105 105 106 104 105 104 103 101 102 102 103 102 101 99 100 98 97 97 97 96 97 96 99 100 104 104 105 104 104 105 106 104 103 103 99 98 98 99 101 100 100 100 98 102 102 103 104 104 106 109 109 108 108 108 108 108 108 111 107 106 106 105 105 104 104 106 104 105 106 106 108 108 107 108 106 108 107 109 111 107 109 109 107 106 106 107 107 107 108 108 108 111 112 115 115 115 113 114 114 113 111 111 112 116 -193 -209 140 139 147 141 141 144 142 142 141 141 141 138 141 143 143 0 0 0 0 0
    0 0 0 0 0 0 0 0 0 0 0 0 0 0 0 0 0 0 0 0 0 0 0 0 0 0 0 0 0 0 0 0 0 0 0 0 0 0 0 0 0 0 0 0 0 0 0 0 0 0 0 0 0 0 0 0 0 0 0 0 0 0 0 0 0 0 0 0 0 103 103 104 106 107 107 106 109 111 115 116 113 114 111 111 112 111 111 110 107 113 -193 -193 -193 -193 -193 -177 -193 -193 102 102 99 98 99 101 102 103 104 -209 106 108 108 108 107 107 107 108 107 107 105 105 105 103 -209 -193 100 99 99 100 100 98 100 97 102 102 105 108 107 107 107 107 106 105 104 105 104 -209 100 101 -193 -209 -193 107 -209 -209 -209 -209 -209 -209 -193 105 102 103 103 104 103 102 102 103 103 104 103 104 103 103 103 103 102 103 103 103 103 102 105 109 107 104 104 103 105 103 104 105 105 105 107 106 107 106 107 106 105 102 102 104 104 104 103 101 101 99 99 99 98 98 98 97 100 102 106 106 107 107 106 107 109 108 106 105 101 100 100 101 102 101 101 101 99 103 103 104 105 105 107 109 109 108 108 108 108 108 108 110 107 106 105 105 105 105 104 108 106 108 109 109 111 111 109 110 106 108 107 108 112 107 109 109 107 106 106 107 108 107 109 108 109 112 113 116 116 115 114 114 114 114 111 112 113 117 -193 -209 138 138 147 141 141 144 142 142 141 142 142 138 141 143 143 0 0 0 0 0
    0 0 0 0 0 0 0 0 0 0 0 0 0 0 0 0 0 0 0 0 0 0 0 0 0 0 0 0 0 0 0 0 0 0 0 0 0 0 0 0 0 0 0 0 0 0 0 0 0 0 0 0 0 0 0 0 0 0 0 0 0 0 0 0 0 0 0 0 0 107 107 106 108 109 109 108 110 112 115 116 113 114 112 112 112 111 111 110 108 114 -193 -193 -193 -193 -177 -177 -193 -193 103 103 -193 -193 103 105 106 107 107 108 107 110 109 109 108 108 108 109 108 109 107 107 107 106 -209 -209 -209 101 102 102 102 100 104 103 105 105 106 112 108 109 109 109 108 107 106 107 106 -209 -209 -209 -209 -209 -193 109 -209 -209 -209 -209 -193 108 107 106 104 104 104 106 105 105 105 105 105 106 105 106 106 106 106 105 104 105 105 105 105 105 107 112 110 107 106 104 106 105 106 107 107 107 108 108 108 108 109 108 105 103 103 105 105 106 105 104 103 102 102 102 100 100 99 99 102 104 107 108 109 109 109 110 111 111 109 108 103 102 102 103 103 102 102 102 102 105 104 106 106 106 107 109 109 108 108 109 108 108 109 110 108 107 107 106 106 107 107 111 109 110 112 111 113 113 110 112 107 109 109 109 113 108 110 111 108 107 107 107 108 108 109 109 110 113 114 115 115 115 114 114 114 114 111 113 114 118 129 -209 138 138 147 141 142 144 142 142 141 142 142 138 142 143 143 0 0 0 0 0
    0 0 0 0 0 0 0 0 0 0 0 0 0 0 0 0 0 0 0 0 0 0 0 0 0 0 0 0 0 0 0 0 0 0 0 0 0 0 0 0 0 0 0 0 0 0 0 0 0 0 0 0 0 0 0 0 0 0 0 0 0 0 0 0 0 0 0 0 0 108 108 107 109 110 109 108 110 112 115 116 112 113 112 112 112 111 111 110 109 114 110 -193 -193 -193 -193 -177 -193 -193 105 105 -209 -193 105 107 107 109 109 109 108 110 110 109 109 109 109 110 109 111 -193 108 109 108 -193 -209 -193 -193 104 104 104 103 105 104 105 106 107 114 109 110 111 112 110 109 108 109 107 -193 -209 -209 -209 -209 109 111 109 -193 -193 -209 108 109 107 106 104 106 106 108 106 106 107 107 108 108 107 108 108 109 108 107 106 107 108 108 107 107 109 114 112 110 108 106 107 106 107 109 109 109 110 110 109 110 111 110 106 105 104 108 107 108 107 106 106 105 105 106 103 102 101 102 103 106 109 110 112 112 112 113 114 113 112 110 106 104 104 104 104 103 103 104 104 106 106 107 107 107 108 110 109 109 109 110 108 109 110 112 109 109 110 110 109 113 110 115 111 112 114 114 115 114 112 114 109 111 112 111 112 111 112 113 109 108 108 110 110 110 111 111 111 114 113 114 114 114 113 113 112 112 109 112 115 119 131 -209 137 137 145 141 141 144 142 142 141 142 143 139 143 144 145 0 0 0 0 0
    0 0 0 0 0 0 0 0 0 0 0 0 0 0 0 0 0 0 0 0 0 0 0 0 0 0 0 0 0 0 0 0 0 0 0 0 0 0 0 0 0 0 0 0 0 0 0 0 0 0 0 0 0 0 0 0 0 0 0 0 0 0 0 0 0 0 0 0 0 109 109 108 109 110 109 108 110 112 114 115 112 113 112 112 112 111 111 110 109 115 110 112 111 110 -193 -193 -193 -193 106 107 -209 -193 107 108 108 109 110 110 108 110 110 110 110 110 110 110 110 112 108 109 110 109 108 107 105 103 104 104 104 102 104 104 105 106 107 115 110 112 112 114 112 110 109 110 108 -193 -193 -209 -209 -209 110 111 110 108 107 108 108 109 108 107 105 108 107 110 108 108 109 109 109 110 108 110 109 111 110 109 109 110 111 111 110 110 112 115 114 114 112 111 110 109 108 111 110 111 111 110 110 111 112 112 108 107 106 110 110 111 109 109 108 108 108 108 106 106 105 105 106 109 112 111 114 114 113 115 115 115 114 112 108 106 105 106 106 104 105 105 105 107 107 109 109 108 109 110 110 110 109 111 109 110 113 115 113 114 116 116 116 119 116 118 114 114 116 116 116 115 113 114 111 112 112 111 111 111 112 113 109 109 110 110 111 110 112 112 111 114 113 114 115 115 114 114 113 112 110 114 116 119 131 -209 137 137 144 141 142 143 142 143 141 142 143 139 144 144 146 0 0 0 0 0
    0 0 0 0 0 0 0 0 0 0 0 0 0 0 0 0 0 0 0 0 0 0 0 0 0 0 0 0 0 0 0 0 0 0 0 0 0 0 0 0 0 0 0 0 0 0 0 0 0 0 0 0 0 0 0 0 0 0 0 0 0 0 0 0 0 0 0 0 0 110 110 108 109 109 109 108 110 111 114 115 111 113 112 112 112 111 111 110 109 115 110 112 110 110 110 -193 110 109 106 108 -193 108 108 108 108 109 110 110 108 110 110 110 110 110 110 110 110 112 109 109 110 109 109 108 106 104 104 104 104 102 105 105 105 107 107 115 110 112 113 113 112 110 109 110 108 113 -193 -209 -209 -193 112 113 111 110 109 109 110 110 109 107 106 110 109 112 110 110 110 110 110 111 109 111 110 112 111 110 110 111 113 112 112 113 114 116 116 116 116 115 112 110 109 112 111 112 112 111 110 112 113 113 108 108 108 113 111 113 111 110 110 111 110 110 108 109 107 109 109 111 114 112 115 115 114 116 115 115 114 113 111 108 107 108 108 107 106 107 106 108 108 111 109 109 109 111 110 110 110 112 109 112 116 116 117 117 118 118 119 121 119 119 117 116 117 117 116 115 113 113 110 111 112 110 110 109 110 111 108 110 113 111 111 111 113 114 113 115 114 115 116 116 116 115 113 113 110 115 117 119 129 -209 138 137 144 141 142 143 142 143 142 142 143 139 144 143 147 0 0 0 0 0
    0 0 0 0 0 0 0 0 0 0 0 0 0 0 0 0 0 0 0 0 0 0 0 0 0 0 0 0 0 0 0 0 0 0 0 0 0 0 0 0 0 0 0 0 0 0 0 0 0 0 0 0 0 0 0 0 0 0 0 0 0 0 0 0 0 0 0 0 0 111 111 109 109 110 109 108 111 111 114 115 111 113 112 112 112 111 111 110 109 114 109 111 110 110 110 109 109 109 106 108 -193 109 109 109 109 110 111 111 109 111 111 110 111 110 110 110 110 112 109 109 111 109 109 109 107 106 106 105 105 104 106 107 108 110 108 116 110 111 112 113 112 110 109 110 108 114 110 108 108 110 114 114 112 111 110 110 110 110 109 108 106 110 109 113 110 110 111 111 111 111 110 112 110 112 111 110 111 111 113 113 114 114 114 115 115 115 115 115 111 110 109 113 112 112 112 111 110 112 113 113 109 108 110 115 113 115 113 113 112 113 113 113 110 111 108 110 110 112 114 113 115 115 115 116 116 116 115 114 112 110 109 110 110 109 109 109 108 110 109 114 110 110 110 111 111 111 111 114 109 116 118 118 119 119 120 119 120 121 121 120 118 118 118 118 117 116 114 114 112 112 113 111 110 110 111 110 108 110 114 113 112 112 115 116 115 116 114 116 116 117 116 115 113 112 111 115 117 119 131 -209 139 138 145 141 143 143 142 143 141 142 142 139 143 142 146 0 0 0 0 0
    0 0 0 0 0 0 0 0 0 0 0 0 0 0 0 0 0 0 0 0 0 0 0 0 0 0 0 0 0 0 0 0 0 0 0 0 0 0 0 0 0 0 0 0 0 0 0 0 0 0 0 0 0 0 0 0 0 0 0 0 0 0 0 0 0 0 0 0 0 112 112 110 109 110 109 109 112 112 114 115 112 113 112 112 112 111 111 110 110 114 109 111 110 110 110 110 110 109 107 110 -193 110 109 109 109 111 111 111 109 111 111 110 110 110 110 110 110 112 109 110 111 110 110 110 108 107 107 106 106 105 108 108 109 113 109 115 109 111 112 112 -193 -193 109 110 108 115 111 109 109 111 115 114 112 112 110 110 111 110 109 108 107 110 109 113 110 110 111 111 111 112 110 112 110 112 111 110 111 112 113 114 114 115 115 115 114 114 115 115 111 110 109 113 112 111 112 111 110 112 113 113 109 110 112 116 114 115 113 113 113 114 114 113 110 111 108 110 111 112 114 113 115 116 115 116 116 116 115 114 114 112 111 112 112 112 111 110 110 112 110 115 111 111 110 111 111 111 112 115 109 118 118 119 120 120 120 120 121 122 122 121 119 119 119 119 118 116 116 116 116 115 116 115 114 115 116 112 110 110 116 116 114 115 117 118 118 117 115 116 116 117 116 116 114 113 111 116 119 122 134 139 139 138 145 141 142 143 142 142 141 141 142 139 142 141 147 0 0 0 0 0
    0 0 0 0 0 0 0 0 0 0 0 0 0 0 0 0 0 0 0 0 0 0 0 0 0 0 0 0 0 0 0 0 0 0 0 0 0 0 0 0 0 0 0 0 0 0 0 0 0 0 0 0 0 0 0 0 0 0 0 0 0 0 0 0 0 0 0 0 0 111 112 110 109 109 109 109 111 112 115 115 112 113 112 112 112 111 111 110 110 113 109 111 110 110 110 110 110 109 107 111 109 110 110 110 109 111 111 111 109 111 111 111 111 110 110 110 109 112 110 110 112 110 111 111 109 108 109 107 107 107 109 109 111 114 109 116 109 111 112 113 -193 -193 110 111 108 116 112 109 110 112 115 114 113 112 110 110 111 110 109 107 107 111 109 113 111 111 112 111 111 112 110 112 109 111 111 110 112 112 112 114 114 114 115 114 114 113 114 114 110 109 109 113 112 111 111 110 110 112 113 114 109 111 113 117 115 115 113 113 112 113 113 113 110 111 108 110 111 113 114 114 115 116 115 116 116 116 115 115 115 113 112 114 113 114 113 112 111 113 111 116 112 111 111 111 111 111 113 115 110 118 119 119 120 120 120 120 121 122 122 -193 -193 120 120 119 118 117 117 117 117 117 117 117 117 118 119 116 118 112 120 118 116 117 118 118 118 117 115 116 116 117 116 115 114 113 112 117 121 124 133 137 138 137 143 140 142 142 141 142 141 141 141 138 142 141 147 0 0 0 0 0
    0 0 0 0 0 0 0 0 0 0 0 0 0 0 0 0 0 0 0 0 0 0 0 0 0 0 0 0 0 0 0 0 0 0 0 0 0 0 0 0 0 0 0 0 0 0 0 0 0 0 0 0 0 0 0 0 0 0 0 0 0 0 0 0 0 0 0 0 0 110 111 110 108 109 109 110 112 113 115 115 112 113 112 112 111 110 110 109 110 113 109 111 110 110 110 110 110 109 108 112 110 111 110 110 109 111 111 111 109 111 110 110 111 110 110 110 110 112 110 111 112 111 112 111 111 110 110 107 107 107 109 109 110 114 109 116 110 112 113 113 -193 111 109 111 107 116 112 109 109 112 116 114 113 112 111 110 111 110 109 108 108 112 111 115 112 112 112 111 112 112 110 111 109 111 110 109 112 111 111 113 114 113 115 112 112 112 113 114 109 108 108 113 112 111 111 111 110 112 113 114 109 111 114 117 115 115 114 113 112 113 113 113 109 111 108 110 111 113 114 114 115 115 114 116 116 116 115 115 115 113 113 114 113 114 113 113 111 112 112 116 112 111 111 111 111 112 114 115 111 118 119 119 119 119 120 120 121 122 122 -193 121 121 121 120 118 118 118 117 118 118 118 118 118 119 120 118 121 113 121 120 117 118 118 118 118 117 116 116 116 117 117 115 114 113 113 118 122 126 131 135 136 136 142 140 141 141 141 142 141 141 141 138 141 141 147 0 0 0 0 0
    0 0 0 0 0 0 0 0 0 0 0 0 0 0 0 0 0 0 0 0 0 0 0 0 0 0 0 0 0 0 0 0 0 0 0 0 0 0 0 0 0 0 0 0 0 0 0 0 0 0 0 0 0 0 0 0 0 0 0 0 0 0 0 0 0 0 0 0 0 109 111 110 108 109 110 112 113 116 117 116 112 114 112 112 112 111 110 109 110 113 109 111 110 110 110 111 111 109 108 112 110 110 110 109 109 111 111 111 109 110 110 110 110 110 110 110 110 113 111 111 113 112 113 113 112 110 110 107 107 106 107 107 108 113 108 116 110 112 114 114 -193 111 110 111 108 117 115 108 110 112 116 114 113 112 111 111 112 111 110 108 109 114 112 116 112 112 113 112 112 112 110 111 108 111 109 108 110 110 110 114 114 113 114 111 112 112 112 113 108 107 108 113 113 111 111 110 110 113 113 114 109 111 114 117 115 115 114 114 112 114 113 113 109 111 108 110 111 112 113 113 114 115 114 115 115 116 115 115 115 113 112 114 113 114 112 113 111 112 112 117 113 112 112 112 112 113 115 116 112 118 120 120 120 120 120 120 122 123 124 -193 121 122 122 120 119 118 119 118 119 118 118 119 119 120 120 119 121 111 121 121 117 117 117 117 117 117 116 116 116 118 117 116 113 112 114 118 122 126 129 133 134 135 141 139 141 141 141 142 141 141 141 138 141 141 148 0 0 0 0 0
    0 0 0 0 0 0 0 0 0 0 0 0 0 0 0 0 0 0 0 0 0 0 0 0 0 0 0 0 0 0 0 0 0 0 0 0 0 0 0 0 0 0 0 0 0 0 0 0 0 0 0 0 0 0 0 0 0 0 0 0 0 0 0 0 0 0 0 0 0 108 110 110 108 109 110 112 114 117 117 116 113 114 112 112 112 111 110 109 110 112 109 111 110 110 110 111 111 109 109 114 110 111 110 109 109 111 111 111 109 110 110 110 110 110 110 110 110 113 112 112 113 113 115 114 113 111 111 -193 107 106 106 106 107 111 108 116 111 113 -193 -193 -193 -193 111 112 108 119 116 107 109 111 116 113 113 113 111 111 113 112 111 109 111 115 112 116 112 112 112 111 111 112 109 110 108 110 109 107 110 110 110 115 115 114 114 112 113 113 114 114 109 108 109 114 114 111 111 111 111 113 114 114 111 112 115 117 116 116 115 115 113 114 113 113 110 111 108 110 111 112 112 113 114 114 114 115 114 115 114 114 114 113 111 113 113 114 112 112 111 112 112 118 114 112 112 113 113 114 116 116 114 119 121 121 121 121 121 121 122 123 124 122 122 122 121 120 118 118 119 118 119 118 118 118 118 120 120 119 120 110 121 120 118 118 117 115 116 117 117 117 118 119 119 119 115 112 115 118 122 126 127 131 133 135 140 139 140 140 140 142 141 141 141 138 143 142 149 0 0 0 0 0
    0 0 0 0 0 0 0 0 0 0 0 0 0 0 0 0 0 0 0 0 0 0 0 0 0 0 0 0 0 0 0 0 0 0 0 0 0 0 0 0 0 0 0 0 0 0 0 0 0 0 0 0 0 0 0 0 0 0 0 0 0 0 0 0 0 0 0 0 0 109 110 112 108 111 114 116 117 119 119 117 114 115 113 112 112 111 110 109 111 112 109 111 110 110 110 111 112 110 110 115 111 112 111 110 110 111 111 111 109 110 110 111 110 110 110 110 110 114 113 112 114 114 115 115 114 112 112 -209 -193 106 -193 -209 107 112 108 -193 111 114 -193 -193 -193 -193 -193 112 108 120 116 105 107 110 117 113 113 113 112 112 113 113 112 109 112 115 112 115 112 111 112 111 111 111 109 110 107 109 109 108 110 110 111 116 116 115 115 113 114 115 115 115 110 108 109 114 114 111 111 110 110 113 113 114 112 113 116 117 117 117 116 116 114 116 114 114 110 111 109 109 110 112 112 113 113 114 113 114 113 114 113 114 114 112 110 113 114 114 112 112 111 110 112 118 114 112 112 113 114 114 116 116 113 118 120 120 120 120 121 121 122 123 124 123 123 124 123 122 121 120 120 119 120 118 119 118 118 120 121 119 119 112 119 118 118 118 118 117 117 118 120 120 120 121 121 121 118 116 117 119 122 125 127 131 133 135 140 139 140 140 141 142 142 141 141 138 142 140 147 0 0 0 0 0
    0 0 0 0 0 0 0 0 0 0 0 0 0 0 0 0 0 0 0 0 0 0 0 0 0 0 0 0 0 0 0 0 0 0 0 0 0 0 0 0 0 0 0 0 0 0 0 0 0 0 0 0 0 0 0 0 0 0 0 0 0 0 0 0 0 0 0 0 0 -209 118 119 -209 -193 122 122 121 124 122 118 116 116 114 113 112 111 110 109 111 111 109 111 111 110 111 111 112 110 111 117 114 115 112 110 111 113 -193 -193 -193 110 -193 110 109 109 109 109 109 114 113 113 114 114 116 115 114 112 -193 -209 -209 -209 -209 -209 -209 -209 -193 -209 112 114 -193 -193 -193 -193 -193 114 -193 121 121 106 107 111 117 113 114 114 112 112 114 114 113 110 113 115 111 115 112 111 112 110 111 111 109 110 107 109 108 -193 110 110 110 117 -193 115 116 113 114 115 115 115 110 108 110 115 114 111 112 111 111 113 114 114 112 114 116 117 117 117 116 116 115 116 114 114 110 111 108 109 110 112 111 112 113 113 113 113 113 113 112 114 114 112 111 114 114 115 113 112 111 110 113 119 114 112 112 113 114 114 116 116 113 117 119 119 119 119 120 120 121 124 124 123 124 125 125 125 124 123 121 121 121 119 120 119 120 120 122 120 121 117 121 121 120 121 121 121 120 121 122 123 122 123 122 122 118 117 118 119 122 125 128 132 133 135 141 139 140 140 140 141 141 141 141 137 139 138 144 0 0 0 0 0
    0 0 0 0 0 0 0 0 0 0 0 0 0 0 0 0 0 0 0 0 0 0 0 0 0 0 0 0 0 0 0 0 0 0 0 0 0 0 0 0 0 0 0 0 0 0 0 0 0 0 0 0 0 0 0 0 0 0 0 0 0 0 0 0 0 0 0 0 0 -209 -193 121 122 121 122 123 124 125 125 120 118 118 116 115 113 112 111 110 114 113 110 113 112 112 113 114 115 113 117 120 118 119 119 117 117 -193 -193 -193 -209 111 -193 111 110 109 108 109 110 115 114 114 115 115 117 116 115 -209 -209 -209 -209 -209 -209 -209 -209 -209 -193 -209 -209 -193 -193 -193 -193 -193 -193 -193 -193 -193 127 -209 107 112 117 113 115 115 113 113 115 115 115 112 116 116 113 116 113 113 112 111 111 112 109 109 -193 -209 -209 -209 -193 108 109 118 -193 115 115 111 113 114 114 114 109 107 111 116 116 113 113 112 112 114 114 115 113 114 116 117 117 117 117 117 116 117 114 114 110 112 108 108 109 111 111 113 113 114 113 113 113 114 112 114 113 112 111 114 114 114 113 112 111 111 114 119 114 113 113 113 115 115 116 116 113 117 119 119 119 119 120 121 121 125 124 124 126 126 126 126 126 124 123 122 123 121 121 120 121 121 123 122 122 120 122 126 125 126 125 125 123 124 124 125 124 125 124 124 120 119 120 121 122 126 129 132 132 135 141 139 140 140 140 141 140 141 141 136 138 139 144 0 0 0 0 0
    0 0 0 0 0 0 0 0 0 0 0 0 0 0 0 0 0 0 0 0 0 0 0 0 0 0 0 0 0 0 0 0 0 0 0 0 0 0 0 0 0 0 0 0 0 0 0 0 0 0 0 0 0 0 0 0 0 0 0 0 0 0 0 0 0 0 0 0 0 -209 122 122 122 121 122 123 125 126 126 123 121 120 119 118 115 114 112 112 116 115 112 116 116 117 117 118 119 119 121 122 123 124 123 124 123 -209 -209 -177 -209 -193 -193 115 112 112 110 110 110 118 117 116 116 117 119 -193 -209 -209 -209 -209 -209 -177 -209 -209 -209 -209 -209 -209 -209 -209 -193 -193 -193 -193 -193 -193 -177 123 129 -209 107 114 117 114 115 116 116 117 118 118 119 120 121 -193 118 117 115 116 115 113 114 115 111 111 -193 -209 -209 105 107 108 106 116 -193 117 116 113 116 117 117 116 112 110 115 117 117 115 114 113 113 115 115 116 115 116 117 118 118 119 119 118 118 119 117 117 113 116 111 110 109 111 111 113 114 114 114 114 113 115 114 -193 115 -193 115 118 117 116 115 113 113 115 117 120 116 115 115 115 116 116 117 116 113 117 118 119 119 118 119 120 122 126 125 125 127 127 128 129 128 126 124 123 124 122 122 121 121 122 123 123 123 121 125 128 128 129 128 128 126 128 128 127 126 127 127 127 124 124 123 124 124 127 130 132 132 135 141 139 140 140 141 141 141 141 142 137 139 139 143 0 0 0 0 0
    0 0 0 0 0 0 0 0 0 0 0 0 0 0 0 0 0 0 0 0 0 0 0 0 0 0 0 0 0 0 0 0 0 0 0 0 0 0 0 0 0 0 0 0 0 0 0 0 0 0 0 0 0 0 0 0 0 0 0 0 0 0 0 0 0 0 0 0 0 123 123 123 123 122 122 124 126 126 126 125 123 123 122 120 116 115 112 113 118 117 -193 -193 -193 -193 120 122 122 123 124 125 127 127 128 130 129 -193 -193 -193 -209 -209 -193 121 118 117 116 114 114 121 121 -193 119 120 124 -209 -209 -209 -209 -209 -209 -177 -209 -193 -209 -209 -209 127 -209 122 -193 125 -193 -193 -193 -193 -177 124 130 128 122 121 121 120 120 121 122 124 123 123 123 125 127 125 121 120 117 119 118 117 117 118 117 116 -193 -209 -193 108 110 111 107 117 130 124 -209 120 120 123 124 121 120 119 120 121 121 120 117 116 116 118 118 118 118 119 120 120 122 122 123 122 123 124 122 121 120 121 119 119 115 115 114 116 116 116 116 117 116 -193 -209 -193 -209 -193 121 123 121 121 118 116 115 117 120 122 118 118 119 119 120 119 118 117 115 118 119 119 119 118 119 120 122 127 126 126 128 128 129 130 129 126 124 124 125 122 122 121 122 122 124 123 124 122 127 128 129 130 129 129 127 130 130 128 129 128 130 130 128 128 125 125 125 127 130 132 132 135 142 140 140 141 141 141 141 142 142 137 139 139 143 0 0 0 0 0
    0 0 0 0 0 0 0 0 0 0 0 0 0 0 0 0 0 0 0 0 0 0 0 0 0 0 0 0 0 0 0 0 0 0 0 0 0 0 0 0 0 0 0 0 0 0 0 0 0 0 0 0 0 0 0 0 0 0 0 0 0 0 0 0 0 0 0 0 0 126 125 124 125 124 124 125 127 127 126 127 125 125 126 123 120 119 116 116 119 119 -193 -193 -193 124 123 127 126 127 128 128 130 130 130 133 131 133 133 -209 -193 128 125 126 -193 121 120 119 117 123 123 -209 -193 126 130 -193 -209 -209 -209 -209 -209 -209 -209 -209 -177 -177 -193 128 127 125 127 128 128 128 -193 -193 -193 127 133 134 130 127 125 126 124 129 127 129 127 127 128 130 131 128 124 125 119 121 123 121 120 121 -193 121 122 -193 -209 -209 -209 -209 -209 -209 138 135 135 128 125 128 128 128 126 124 125 126 125 126 123 121 121 121 122 121 121 122 122 123 124 126 126 125 129 129 126 125 125 125 124 122 120 119 118 119 -193 -193 119 121 120 123 -193 124 -193 -193 125 127 125 125 122 122 121 122 124 126 121 120 122 123 124 122 121 120 119 120 121 120 120 118 120 121 123 129 127 128 131 130 131 132 131 128 126 126 126 123 123 122 122 122 124 123 124 123 129 130 131 131 131 131 130 131 131 129 132 130 132 132 131 132 128 128 127 128 132 133 133 135 143 140 141 141 141 142 141 142 142 137 139 139 142 0 0 0 0 0
    0 0 0 0 0 0 0 0 0 0 0 0 0 0 0 0 0 0 0 0 0 0 0 0 0 0 0 0 0 0 0 0 0 0 0 0 0 0 0 0 0 0 0 0 0 0 0 0 0 0 0 0 0 0 0 0 0 0 0 0 0 0 0 0 0 0 0 0 0 129 127 126 126 125 124 126 127 127 126 127 126 126 126 124 122 122 121 119 121 122 124 127 131 130 128 131 130 130 131 130 130 131 131 133 131 133 132 134 132 131 129 129 126 -193 124 124 121 128 126 131 -193 130 132 134 -193 -193 -193 -209 -193 -209 -209 -209 -177 -177 -193 129 130 128 129 131 131 131 129 -193 -193 131 134 135 132 129 127 128 126 131 129 131 129 129 131 132 132 130 126 129 122 127 -193 -193 -193 -193 -193 -193 -193 -193 -209 -209 133 135 -209 137 138 136 135 130 128 130 130 129 128 126 128 128 127 129 128 124 124 125 125 124 124 126 125 125 127 129 129 127 132 130 128 128 128 128 126 125 124 123 121 124 125 124 122 125 124 125 125 127 127 126 127 129 127 128 125 126 125 126 128 129 126 124 125 127 127 125 123 122 121 122 122 122 121 119 121 124 126 131 129 130 132 131 132 133 132 130 128 129 127 124 124 123 122 123 125 124 125 125 132 131 133 132 132 132 131 133 132 130 133 131 133 133 132 133 130 130 129 131 134 135 135 136 144 141 141 141 141 142 141 142 143 137 139 139 142 0 0 0 0 0
    0 0 0 0 0 0 0 0 0 0 0 0 0 0 0 0 0 0 0 0 0 0 0 0 0 0 0 0 0 0 0 0 0 0 0 0 0 0 0 0 0 0 0 0 0 0 0 0 0 0 0 0 0 0 0 0 0 0 0 0 0 0 0 0 0 0 0 0 0 130 128 127 127 126 125 126 127 127 127 127 126 125 125 124 122 122 121 120 121 123 126 129 132 132 129 132 130 131 130 129 130 131 130 132 131 132 132 133 132 132 130 131 128 -193 128 128 124 131 128 131 131 131 132 133 -193 131 129 -209 -177 -209 -209 -177 -177 -193 -193 130 131 130 130 132 132 132 130 130 134 132 134 135 133 130 128 129 127 132 130 131 130 130 131 133 133 131 127 130 125 132 -193 -193 -193 -193 -177 -193 -193 -193 -209 -209 136 136 135 136 138 136 135 131 130 131 131 131 129 127 129 129 127 129 130 126 125 127 128 126 127 130 130 129 131 132 131 130 133 131 129 129 129 129 128 127 127 126 126 128 128 128 125 129 127 128 127 128 128 128 129 130 128 130 128 128 128 129 130 130 130 128 129 130 130 128 125 124 123 124 124 123 123 121 122 125 129 131 129 131 132 132 132 133 132 130 129 130 126 125 127 124 122 123 125 125 126 127 132 131 133 133 133 133 132 133 133 132 134 131 133 133 132 133 132 132 132 134 137 138 138 138 146 141 142 142 142 142 141 142 143 137 140 140 142 0 0 0 0 0
    0 0 0 0 0 0 0 0 0 0 0 0 0 0 0 0 0 0 0 0 0 0 0 0 0 0 0 0 0 0 0 0 0 0 0 0 0 0 0 0 0 0 0 0 0 0 0 0 0 0 0 0 0 0 0 0 0 0 0 0 0 0 0 0 0 0 0 0 0 129 128 128 127 127 126 127 128 128 127 127 126 125 125 124 122 122 121 120 121 122 125 127 129 130 127 131 129 130 130 128 130 131 130 132 130 132 131 133 132 131 130 131 128 130 129 130 125 132 129 131 131 131 131 132 131 130 129 131 -193 -209 -209 -209 -193 134 135 131 132 131 130 131 131 132 130 130 134 131 132 -193 132 130 128 129 128 132 130 132 130 130 132 133 132 131 127 130 125 132 133 -193 -193 -193 -193 -193 -193 -193 132 132 136 136 134 135 137 135 135 133 132 132 133 134 132 129 132 131 129 130 131 128 128 130 131 129 131 133 133 132 133 133 133 131 133 131 130 129 130 130 128 128 129 129 130 131 131 131 128 131 129 130 129 130 129 130 130 131 129 131 129 129 129 130 131 129 130 130 130 132 131 130 127 126 126 126 125 124 123 122 122 126 131 131 131 132 132 133 133 134 133 131 131 131 127 126 129 125 124 124 125 125 127 129 133 132 134 134 133 134 133 134 133 132 133 130 132 132 131 133 132 132 132 135 139 140 139 140 146 142 143 142 142 142 141 142 142 137 140 140 142 0 0 0 0 0
    0 0 0 0 0 0 0 0 0 0 0 0 0 0 0 0 0 0 0 0 0 0 0 0 0 0 0 0 0 0 0 0 0 0 0 0 0 0 0 0 0 0 0 0 0 0 0 0 0 0 0 0 0 0 0 0 0 0 0 0 0 0 0 0 0 0 0 0 0 129 128 128 128 127 126 128 129 129 128 127 126 126 125 124 122 122 121 120 121 122 124 126 127 128 127 130 128 130 129 128 130 130 129 132 130 132 131 133 132 131 131 131 129 130 129 130 125 131 129 131 130 131 130 131 130 129 128 129 -193 -209 -209 -193 -193 134 135 131 132 131 130 131 131 132 129 130 133 130 131 -193 132 130 128 129 128 131 131 132 130 129 132 132 132 130 128 130 125 132 133 131 131 -193 -193 132 133 134 132 133 136 136 134 135 136 135 134 133 132 132 133 134 133 131 133 132 130 131 132 130 131 132 133 131 132 133 133 133 133 133 132 131 133 130 130 129 130 130 129 129 129 130 131 132 131 131 129 132 130 131 130 131 130 131 131 132 129 131 130 129 129 130 130 128 130 130 131 132 132 131 130 129 129 129 130 129 127 126 126 129 133 132 132 133 132 133 133 134 133 131 133 133 130 131 134 130 127 127 127 127 128 131 134 132 134 133 133 134 133 134 133 132 134 131 133 133 133 133 132 133 133 136 138 138 138 139 143 141 141 141 140 140 140 141 141 137 140 142 144 0 0 0 0 0
    0 0 0 0 0 0 0 0 0 0 0 0 0 0 0 0 0 0 0 0 0 0 0 0 0 0 0 0 0 0 0 0 0 0 0 0 0 0 0 0 0 0 0 0 0 0 0 0 0 0 0 0 0 0 0 0 0 0 0 0 0 0 0 0 0 0 0 0 0 129 129 129 128 128 127 129 129 130 128 127 126 126 125 125 123 122 -193 -193 121 121 124 125 125 127 126 129 127 129 128 128 131 130 129 131 130 131 131 132 131 130 131 131 128 130 129 130 126 131 129 131 130 130 130 130 129 128 127 128 128 -209 -209 130 -193 134 134 130 131 130 130 131 131 132 129 129 132 129 130 133 132 129 128 129 128 131 130 131 130 129 132 132 132 131 128 130 126 132 132 130 131 132 132 132 133 134 133 134 137 137 135 136 136 135 134 133 132 132 132 134 133 131 133 132 131 132 133 131 131 132 133 131 132 133 133 132 133 133 131 130 132 130 129 129 131 130 129 129 130 130 131 132 131 131 129 132 130 131 130 131 130 131 131 132 130 132 131 129 129 130 130 127 130 130 131 132 132 132 131 130 131 131 131 130 128 128 129 131 134 132 133 133 133 133 134 134 133 129 134 134 134 136 137 135 133 133 132 131 131 132 135 132 133 133 133 133 133 134 133 131 134 132 134 134 134 134 134 134 135 137 138 138 138 138 141 140 140 140 140 140 140 141 141 138 142 145 147 0 0 0 0 0
    0 0 0 0 0 0 0 0 0 0 0 0 0 0 0 0 0 0 0 0 0 0 0 0 0 0 0 0 0 0 0 0 0 0 0 0 0 0 0 0 0 0 0 0 0 0 0 0 0 0 0 0 0 0 0 0 0 0 0 0 0 0 0 0 0 0 0 0 0 131 130 130 130 130 129 131 130 131 128 128 127 127 126 125 123 124 -193 -193 -193 121 124 125 125 127 126 129 127 129 128 128 131 130 129 131 130 131 130 132 131 129 131 132 129 129 128 129 125 131 129 131 129 130 129 129 128 128 127 127 126 -193 125 127 127 133 133 130 131 130 129 131 130 131 128 129 132 128 129 133 132 129 128 129 128 131 130 131 130 129 132 133 133 131 128 130 127 132 132 130 131 132 132 132 133 134 133 135 138 137 136 136 136 135 134 133 132 132 131 134 132 132 133 132 131 132 133 131 131 132 133 131 132 133 132 132 132 132 131 130 132 129 129 128 131 130 129 129 130 130 131 132 131 131 129 132 130 130 129 130 130 131 131 132 130 132 131 130 130 131 131 127 130 130 131 131 132 131 131 131 131 131 132 131 129 129 130 131 134 132 132 133 132 133 133 133 132 127 134 135 137 139 141 141 138 138 137 135 134 133 135 132 133 132 132 132 132 133 133 130 133 132 134 135 135 135 135 135 136 138 139 138 138 138 141 139 139 140 140 139 141 140 141 138 142 146 148 0 0 0 0 0
    0 0 0 0 0 0 0 0 0 0 0 0 0 0 0 0 0 0 0 0 0 0 0 0 0 0 0 0 0 0 0 0 0 0 0 0 0 0 0 0 0 0 0 0 0 0 0 0 0 0 0 0 0 0 0 0 0 0 0 0 0 0 0 0 0 0 0 0 0 131 131 131 131 131 131 132 130 132 130 130 129 128 127 126 123 124 122 121 -193 121 124 126 126 128 127 129 128 130 128 129 131 130 129 131 129 131 130 132 130 128 131 131 128 129 128 129 125 131 129 130 129 130 129 128 128 128 126 127 125 -193 124 125 125 132 132 129 131 129 128 131 130 131 127 129 131 128 129 133 132 130 129 129 128 131 131 131 129 128 132 133 133 131 128 130 127 132 131 130 131 131 132 132 133 134 133 135 137 137 136 136 136 134 134 133 132 132 130 133 132 132 133 132 130 132 132 131 131 132 132 130 132 132 132 131 132 132 130 129 132 128 128 128 131 130 128 129 129 131 131 132 131 131 129 131 130 130 129 130 129 130 131 132 129 132 132 130 130 131 131 127 130 130 130 131 132 131 131 131 131 131 132 131 129 130 130 131 134 131 132 132 131 132 133 133 131 125 133 135 139 141 143 143 140 140 140 139 138 135 136 133 134 133 133 133 132 133 133 131 134 133 135 136 136 136 137 137 137 140 140 138 138 138 140 139 139 139 139 139 141 140 141 139 144 148 150 0 0 0 0 0
    0 0 0 0 0 0 0 0 0 0 0 0 0 0 0 0 0 0 0 0 0 0 0 0 0 0 0 0 0 0 0 0 0 0 0 0 0 0 0 0 0 0 0 0 0 0 0 0 0 0 0 0 0 0 0 0 0 0 0 0 0 0 0 0 0 0 0 0 0 132 132 132 132 132 132 133 132 133 131 131 130 130 127 127 125 125 124 123 122 123 125 127 127 128 127 129 127 130 127 129 130 129 128 130 129 130 129 131 130 128 131 131 128 129 128 129 125 130 129 130 128 130 128 128 127 128 126 126 125 128 124 125 125 132 131 129 130 129 128 131 131 131 127 130 131 128 130 133 132 130 129 130 129 131 131 131 129 128 132 133 133 131 128 129 127 132 131 130 131 131 131 132 133 133 133 135 137 137 136 136 136 134 133 133 132 132 130 133 132 132 133 132 130 131 132 131 130 131 132 130 132 132 132 131 131 132 130 129 131 128 128 128 131 130 129 130 129 131 132 132 131 131 130 131 130 130 129 130 129 130 131 132 129 132 132 130 130 130 130 127 129 129 130 130 131 130 131 131 131 131 132 131 130 130 131 131 134 131 131 131 131 132 132 132 131 125 135 137 141 143 145 145 141 141 141 141 140 137 137 134 135 134 134 134 133 133 133 132 134 134 136 136 136 137 137 138 138 140 140 138 138 137 139 138 139 139 139 139 141 140 142 141 147 149 151 0 0 0 0 0
    0 0 0 0 0 0 0 0 0 0 0 0 0 0 0 0 0 0 0 0 0 0 0 0 0 0 0 0 0 0 0 0 0 0 0 0 0 0 0 0 0 0 0 0 0 0 0 0 0 0 0 0 0 0 0 0 0 0 0 0 0 0 0 0 0 0 0 0 0 132 132 133 132 133 133 133 132 134 131 129 130 130 127 127 126 126 126 126 124 124 126 127 126 127 126 127 126 129 127 128 130 128 128 130 128 130 129 131 130 127 131 131 128 129 129 129 126 130 129 129 128 129 128 127 127 127 126 126 125 128 124 125 126 132 131 129 130 129 129 131 131 131 127 130 131 128 129 132 131 130 129 130 129 130 131 131 129 127 132 133 133 132 129 130 129 132 131 129 131 131 131 132 132 132 132 133 136 135 134 135 135 134 133 133 132 132 130 133 132 132 132 131 129 131 132 131 130 131 132 130 132 132 132 131 131 132 130 128 131 127 128 128 131 130 129 130 130 132 132 132 131 131 130 132 131 130 130 130 130 131 132 132 129 131 132 130 129 130 130 126 128 129 129 129 130 130 131 130 130 131 132 131 129 130 131 130 134 130 130 130 130 131 132 132 131 124 136 138 142 143 146 146 142 142 143 142 142 138 138 135 135 134 135 134 133 133 134 133 134 135 136 137 137 138 138 138 139 141 140 138 139 138 138 138 138 138 139 139 141 141 142 143 149 151 152 0 0 0 0 0
    0 0 0 0 0 0 0 0 0 0 0 0 0 0 0 0 0 0 0 0 0 0 0 0 0 0 0 0 0 0 0 0 0 0 0 0 0 0 0 0 0 0 0 0 0 0 0 0 0 0 0 0 0 0 0 0 0 0 0 0 0 0 0 0 0 0 0 0 0 132 132 132 132 133 133 134 132 134 131 128 131 133 130 128 129 128 130 131 126 126 126 128 127 127 127 127 126 129 126 129 130 128 127 129 128 130 129 131 130 127 131 131 129 129 129 128 126 129 129 128 127 129 128 127 127 127 125 125 -193 -193 124 125 126 132 131 130 131 130 130 131 131 131 127 130 130 127 128 132 131 130 129 130 129 130 131 131 128 127 133 133 133 132 129 129 129 132 131 129 131 130 130 131 131 132 130 131 134 133 132 134 134 134 133 133 133 132 131 134 133 133 132 131 129 132 132 132 130 131 133 130 132 132 131 131 131 131 129 127 131 127 128 129 131 130 129 130 130 132 132 132 131 131 130 132 131 131 130 130 130 130 132 132 129 131 132 129 129 130 129 126 128 128 128 128 130 130 131 130 130 131 132 131 129 130 130 130 134 130 130 129 129 130 131 132 131 124 137 138 143 143 145 145 142 142 144 143 143 139 139 136 135 135 136 132 133 134 135 135 135 136 137 138 138 138 139 139 140 143 140 139 139 138 137 137 138 138 138 139 141 141 142 146 150 151 152 0 0 0 0 0
    0 0 0 0 0 0 0 0 0 0 0 0 0 0 0 0 0 0 0 0 0 0 0 0 0 0 0 0 0 0 0 0 0 0 0 0 0 0 0 0 0 0 0 0 0 0 0 0 0 0 0 0 0 0 0 0 0 0 0 0 0 0 0 0 0 0 0 0 0 132 132 132 132 133 133 134 133 135 132 131 134 137 135 134 134 132 133 134 130 129 128 128 128 128 127 128 127 129 127 129 131 128 128 129 129 130 129 131 129 127 131 131 129 129 128 128 126 128 128 128 127 128 128 126 127 126 125 125 -193 -193 123 124 125 132 130 130 131 130 130 131 131 131 127 130 130 127 127 132 131 129 129 130 130 130 131 131 128 127 132 133 133 132 129 129 129 132 131 129 131 130 129 131 131 131 130 129 133 131 130 134 133 133 133 133 133 132 132 134 133 134 133 132 130 132 132 132 130 131 133 131 132 131 131 130 130 131 129 127 130 127 128 129 131 129 130 130 130 132 132 132 131 132 131 132 131 131 130 130 130 130 132 132 129 131 132 130 130 130 129 126 128 128 128 127 129 129 131 131 130 130 132 131 129 129 130 129 134 130 130 129 129 130 132 132 131 124 137 140 144 144 144 144 142 143 144 143 143 140 139 137 135 135 137 126 133 135 135 135 136 137 138 139 140 140 140 140 141 143 141 139 139 137 136 136 137 137 138 139 141 141 143 148 150 152 152 0 0 0 0 0
    0 0 0 0 0 0 0 0 0 0 0 0 0 0 0 0 0 0 0 0 0 0 0 0 0 0 0 0 0 0 0 0 0 0 0 0 0 0 0 0 0 0 0 0 0 0 0 0 0 0 0 0 0 0 0 0 0 0 0 0 0 0 0 0 0 0 0 0 0 133 133 133 132 132 132 133 133 134 131 132 135 138 135 135 135 133 134 -193 131 130 128 129 129 129 128 128 128 129 127 130 131 129 128 129 129 130 129 132 129 127 131 130 128 128 128 127 125 127 127 127 127 128 128 126 127 126 126 125 -193 -193 123 124 125 131 130 130 131 130 131 132 131 131 -193 130 129 127 127 131 131 129 129 130 130 130 131 130 127 127 131 132 133 132 130 130 131 132 131 129 131 130 129 130 130 131 129 128 132 129 131 135 133 134 133 133 133 132 131 133 132 133 132 131 130 133 132 132 130 131 134 131 132 131 130 130 130 130 129 126 130 126 127 129 131 129 129 130 130 132 132 132 132 132 131 132 131 131 130 130 130 130 132 131 129 131 132 130 130 130 129 126 128 128 128 127 129 130 131 131 131 131 132 131 129 129 130 129 134 130 130 129 129 130 132 133 132 126 138 140 145 145 146 145 142 144 145 144 144 140 139 137 134 134 134 125 134 136 136 136 137 138 139 141 141 141 141 140 141 143 141 139 139 135 134 134 135 136 137 138 140 139 143 148 150 152 153 0 0 0 0 0
    0 0 0 0 0 0 0 0 0 0 0 0 0 0 0 0 0 0 0 0 0 0 0 0 0 0 0 0 0 0 0 0 0 0 0 0 0 0 0 0 0 0 0 0 0 0 0 0 0 0 0 0 0 0 0 0 0 0 0 0 0 0 0 0 0 0 0 0 0 -193 135 133 132 132 131 133 132 133 128 131 134 -193 135 134 135 133 134 -193 131 130 129 130 130 129 129 129 128 129 127 130 131 129 128 130 129 130 129 132 129 127 130 130 128 128 127 127 125 127 127 127 127 127 128 126 127 126 126 -193 -209 -209 -193 125 126 131 130 130 131 131 131 132 -193 -193 -209 -193 129 127 127 131 131 129 129 131 130 130 130 129 127 127 131 132 133 132 130 130 131 132 131 129 131 130 129 130 130 130 129 128 131 127 130 135 133 134 133 133 132 131 131 133 130 132 131 130 130 133 132 132 128 131 133 130 132 130 130 130 129 130 129 126 130 127 128 130 131 129 130 130 130 132 132 133 132 132 132 132 132 131 130 130 130 130 131 131 129 131 132 130 130 130 129 126 128 128 128 127 130 130 132 132 131 131 132 131 129 129 130 129 134 130 130 129 130 131 133 133 133 128 138 141 146 147 146 146 142 144 146 145 144 139 139 137 134 134 133 124 133 137 138 137 137 139 141 143 143 143 142 142 143 145 144 142 141 138 137 137 138 139 140 140 142 142 146 149 152 -193 154 0 0 0 0 0
    0 0 0 0 0 0 0 0 0 0 0 0 0 0 0 0 0 0 0 0 0 0 0 0 0 0 0 0 0 0 0 0 0 0 0 0 0 0 0 0 0 0 0 0 0 0 0 0 0 0 0 0 0 0 0 0 0 0 0 0 0 0 0 0 0 0 0 0 0 -209 -193 133 131 131 130 131 131 132 128 131 134 137 135 135 135 133 134 134 131 130 129 130 130 130 129 129 129 129 128 131 131 129 129 130 129 130 130 132 129 128 130 130 128 128 128 127 126 128 128 127 127 127 128 126 128 127 127 -193 -209 -209 125 126 127 132 130 130 131 131 131 132 -193 -193 -209 -209 -193 127 127 131 131 129 129 131 130 130 130 129 127 127 131 132 132 132 130 130 131 132 132 129 131 129 128 129 129 129 128 126 130 124 127 134 132 134 -193 133 -209 -193 132 133 129 131 129 129 129 132 131 131 127 130 133 130 131 130 130 130 129 131 129 126 130 127 128 131 131 130 130 130 131 132 133 133 132 133 132 132 132 131 130 130 130 130 131 131 130 131 132 130 130 130 129 126 127 128 127 126 129 130 131 131 131 131 132 131 130 130 131 130 134 130 130 129 130 131 133 133 133 129 138 141 146 147 147 146 142 144 145 144 143 138 138 137 136 137 136 126 134 139 141 140 139 141 143 145 144 144 144 143 144 146 145 145 143 142 -193 140 141 144 144 143 144 145 149 151 152 -193 155 0 0 0 0 0
    0 0 0 0 0 0 0 0 0 0 0 0 0 0 0 0 0 0 0 0 0 0 0 0 0 0 0 0 0 0 0 0 0 0 0 0 0 0 0 0 0 0 0 0 0 0 0 0 0 0 0 0 0 0 0 0 0 0 0 0 0 0 0 0 0 0 0 0 0 -209 -209 -193 130 129 -193 130 130 130 126 128 133 -209 -193 135 137 134 134 135 132 130 130 131 131 130 129 129 129 129 128 131 131 129 129 130 129 130 130 132 129 128 130 130 129 129 128 128 126 127 127 127 127 127 128 127 128 127 128 -193 -193 -209 -193 128 128 132 130 131 131 131 132 -193 -193 -193 -209 -209 -193 127 128 131 130 129 129 131 130 130 130 129 126 127 130 131 131 131 130 130 131 132 132 129 131 129 128 129 128 128 127 125 127 123 124 132 131 133 -209 -209 -209 -193 -193 -193 -193 131 127 128 128 131 130 130 127 129 133 130 131 130 130 130 129 131 130 126 131 128 129 131 132 130 130 130 131 132 133 133 132 133 132 133 132 132 130 130 130 130 132 131 130 131 132 130 130 130 129 126 127 127 127 126 129 129 131 131 130 131 132 131 130 130 131 131 134 130 130 129 130 131 133 133 134 130 138 141 146 144 144 143 141 142 143 142 142 138 138 137 137 138 137 133 135 139 143 145 142 144 145 147 145 145 144 144 144 145 145 145 143 143 142 143 146 147 148 148 149 149 151 152 154 162 155 0 0 0 0 0
    0 0 0 0 0 0 0 0 0 0 0 0 0 0 0 0 0 0 0 0 0 0 0 0 0 0 0 0 0 0 0 0 0 0 0 0 0 0 0 0 0 0 0 0 0 0 0 0 0 0 0 0 0 0 0 0 0 0 0 0 0 0 0 0 0 0 0 0 0 -225 -225 -225 129 -193 -193 128 128 128 125 125 -193 -209 -209 -193 137 135 136 136 134 131 130 131 -193 -209 128 128 128 128 127 130 130 129 129 130 129 130 130 133 130 129 130 129 129 129 128 127 126 126 127 126 126 126 128 126 128 128 128 -193 -193 -209 -209 -209 130 132 130 131 -193 132 132 -193 -177 -177 -193 -193 -193 127 127 131 129 129 129 131 130 129 130 128 126 128 130 131 131 131 130 131 131 132 132 129 131 129 128 128 128 128 127 124 126 122 123 131 131 -209 -209 -209 -193 -193 -177 -177 -209 131 125 126 126 131 131 130 126 129 134 130 131 130 130 130 129 131 130 126 132 129 130 132 132 130 130 130 131 132 133 133 133 133 133 133 133 132 131 -193 130 130 132 132 130 131 132 130 130 130 129 126 126 126 127 125 128 129 132 132 131 131 132 131 131 130 132 131 134 130 130 129 129 131 133 133 134 131 138 140 143 143 142 141 140 141 141 141 140 137 137 137 137 137 136 135 135 138 140 141 140 143 144 147 145 145 145 144 144 146 146 146 145 146 146 147 149 149 148 149 151 150 153 153 155 164 156 0 0 0 0 0
    0 0 0 0 0 0 0 0 0 0 0 0 0 0 0 0 0 0 0 0 0 0 0 0 0 0 0 0 0 0 0 0 0 0 0 0 0 0 0 0 0 0 0 0 0 0 0 0 0 0 0 0 0 0 0 0 0 0 0 0 0 0 0 0 0 0 0 0 0 -225 -225 -225 127 -225 -225 -193 127 127 124 124 -209 -225 -225 -193 137 135 -225 135 135 131 130 -193 -209 -209 -193 127 129 127 127 129 130 129 129 130 129 130 130 133 130 129 130 129 129 129 128 127 126 126 126 125 126 126 128 126 128 127 129 -209 -193 -209 -193 -193 -193 132 131 -193 -177 -193 -193 -177 -177 -193 -193 -209 -209 125 126 132 129 129 129 131 130 129 129 127 126 129 131 131 130 131 131 131 131 131 132 128 131 129 128 128 -177 128 127 124 126 122 123 132 -209 -209 -209 -193 -177 -177 -177 -177 -209 -193 125 126 126 133 131 -209 126 129 134 130 131 130 130 130 129 131 131 127 133 130 131 133 132 131 131 130 131 132 132 133 133 134 134 134 133 -193 -193 1008 130 130 132 132 130 131 132 131 130 131 129 125 126 126 126 124 128 129 133 133 -193 -193 -193 132 131 131 132 132 134 130 130 129 130 131 133 133 133 130 137 138 141 141 140 140 138 139 140 139 139 136 135 135 135 136 136 135 136 138 141 141 141 144 146 150 146 146 146 145 146 147 146 147 145 147 148 148 150 150 150 151 152 152 155 155 157 164 155 0 0 0 0 0
    0 0 0 0 0 0 0 0 0 0 0 0 0 0 0 0 0 0 0 0 0 0 0 0 0 0 0 0 0 0 0 0 0 0 0 0 0 0 0 0 0 0 0 0 0 0 0 0 0 0 0 0 0 0 0 0 0 0 0 0 0 0 0 0 0 0 0 0 0 -225 -225 -225 -225 -225 -225 -225 128 129 -193 -193 -225 -225 -225 -225 -225 -225 -225 -225 -225 -225 130 -193 -209 -209 -193 129 131 -193 130 -193 -209 -193 131 131 128 130 130 133 129 128 128 128 128 128 127 126 124 124 124 124 125 124 127 126 128 128 129 -209 -209 -209 -225 -225 -209 -193 -193 -193 -177 -177 -193 -177 -177 -193 -193 -193 -193 -209 125 132 128 128 129 131 130 129 129 126 126 130 131 131 130 131 131 130 132 131 132 128 131 129 128 129 -177 129 128 125 128 -209 -209 -209 -209 -193 -209 -193 -177 11 19 27 -209 -193 129 127 131 -209 -209 -209 125 130 134 130 -193 130 -193 130 130 132 132 127 134 131 131 134 132 131 131 130 131 131 132 134 134 135 134 134 133 -193 -193 1008 130 131 132 -193 131 131 132 131 131 131 130 126 126 126 -193 124 -209 -209 -209 -209 -193 212 -193 -193 -193 131 133 132 134 130 130 130 130 131 133 133 133 129 137 136 140 140 139 139 137 138 138 138 138 135 134 134 135 136 137 137 140 145 151 152 152 153 152 153 149 149 148 147 147 148 148 148 146 148 150 151 152 152 152 152 153 154 156 155 157 163 155 0 0 0 0 0
    0 0 0 0 0 0 0 0 0 0 0 0 0 0 0 0 0 0 0 0 0 0 0 0 0 0 0 0 0 0 0 0 0 0 0 0 0 0 0 0 0 0 0 0 0 0 0 0 0 0 0 0 0 0 0 0 0 0 0 0 0 0 0 0 0 0 0 0 0 -225 -225 -225 -225 -225 -225 -225 -225 -225 -225 -209 -225 -225 -225 -225 -225 -225 -225 -225 -225 -225 -225 -225 -225 -193 -193 -209 -209 -209 -209 -209 -209 -209 -209 -209 -209 -193 -193 581 -209 -193 -209 126 128 127 126 -225 -225 -225 -225 -225 -225 -225 127 -193 -209 -209 -209 -225 -225 319 -225 -225 -225 813 -209 -209 -209 -209 -209 -193 -193 -209 -209 -209 -209 -209 -193 131 126 125 128 131 130 128 129 125 127 -193 -193 -193 -193 -209 -209 -209 -209 -209 -209 -193 -193 -193 129 128 128 130 128 125 -209 -209 659 -209 -209 -209 -209 -209 -209 13 22 29 -209 -209 133 129 133 -209 -209 -209 124 130 -193 131 -193 130 130 -193 -193 133 133 130 -193 133 -193 -193 133 131 131 130 131 132 -193 -193 135 136 135 135 134 134 -193 -193 130 131 -193 -193 -193 -193 -193 131 131 132 129 126 -193 -209 -209 -209 -209 -209 -209 -209 203 207 211 207 -209 -209 -209 -209 -209 130 130 129 129 131 133 133 132 128 135 136 140 139 138 138 137 137 138 137 137 134 134 135 135 138 139 141 145 149 153 153 154 156 155 155 152 151 150 149 149 149 149 150 148 150 151 152 153 153 154 153 155 155 157 156 158 163 155 0 0 0 0 0
    0 0 0 0 0 0 0 0 0 0 0 0 0 0 0 0 0 0 0 0 0 0 0 0 0 0 0 0 0 0 0 0 0 0 0 0 0 0 0 0 0 0 0 0 0 0 0 0 0 0 0 0 0 0 0 0 0 0 0 0 0 0 0 0 0 0 0 0 0 -225 -225 -225 -225 -225 -225 -225 -225 -225 -225 321 325 325 -193 -225 -225 -225 -225 -225 -225 -225 -225 -225 -225 -209 -209 -209 -193 -209 -209 -209 -209 -209 -209 -209 -209 -209 -209 -209 -209 -209 -193 -209 -209 -209 -225 -225 -225 -225 -225 -225 -225 -225 -225 -209 -193 215 -193 -193 -209 -193 -193 -193 -225 -209 -193 811 813 819 -209 -193 -193 696 698 699 -209 -209 25 -209 -209 -209 -225 -225 -225 -225 -225 -225 -225 -209 -209 -225 740 -225 -209 -209 -209 -193 765 -193 -193 -209 -209 -209 -193 757 -209 -209 -209 -209 -209 -209 -209 -209 -209 -209 -209 -209 -193 -193 -209 -209 -209 135 138 -209 -209 -209 -225 -209 -209 -209 -193 509 512 -193 -209 -209 -209 -209 -193 -193 -193 -193 -193 -193 140 140 -193 -193 -193 -193 142 140 138 137 -193 -209 879 -209 -209 -209 -193 637 -193 -193 131 132 -193 132 -193 -193 -209 -209 -209 -209 -209 -209 -209 -209 -209 -209 -209 -209 -209 -209 -209 -209 -209 -193 130 128 127 129 131 130 130 124 126 134 140 139 138 138 136 137 137 137 137 134 134 135 135 138 140 143 148 151 153 154 155 157 157 156 154 152 151 150 150 150 151 151 150 151 153 153 154 155 156 155 157 158 160 158 160 163 156 0 0 0 0 0
    0 0 0 0 0 0 0 0 0 0 0 0 0 0 0 0 0 0 0 0 0 0 0 0 0 0 0 0 0 0 0 0 0 0 0 0 0 0 0 0 0 0 0 0 0 0 0 0 0 0 0 0 0 0 0 0 0 0 0 0 0 0 0 0 0 0 0 0 0 -225 -225 -225 -225 -225 -225 -225 -225 -225 -225 -193 -209 -193 -193 -193 -193 -225 -225 -225 -225 -225 -225 -225 -225 157 155 155 159 158 160 159 158 158 158 158 159 156 158 -209 -209 -209 -209 -209 -209 -209 -225 -225 -225 -225 -225 -225 -225 -225 -225 -209 -193 -193 -209 -193 -193 -193 -209 -193 -193 156 -193 812 817 822 -193 -177 692 697 699 700 -193 -209 21 28 -209 -209 -225 -225 -225 -225 -225 -225 -225 -225 -225 -225 -225 -225 -225 -225 -225 -225 -209 -209 -209 -209 -209 -209 -209 -209 -209 -209 693 694 -193 -193 -193 -193 730 -193 -209 -209 -209 -209 -193 -209 28 -209 -209 -225 -225 -225 -225 -225 -225 -225 -225 -193 -193 164 -193 158 156 155 155 151 151 -193 148 -193 148 150 148 148 150 149 149 149 148 148 -193 -177 -209 -209 -209 -209 -209 -193 -209 -209 -209 -209 -193 902 902 -193 -209 -209 -209 -209 -209 -193 160 166 171 174 179 -209 -209 -193 -209 -209 -209 -209 -209 -209 -193 125 -209 118 -193 113 118 127 138 138 138 138 137 137 138 138 138 135 135 137 136 139 143 149 152 153 155 155 156 157 158 157 156 154 154 152 152 152 153 153 152 153 154 154 155 157 159 157 159 159 161 160 162 163 156 0 0 0 0 0
    0 0 0 0 0 0 0 0 0 0 0 0 0 0 0 0 0 0 0 0 0 0 0 0 0 0 0 0 0 0 0 0 0 0 0 0 0 0 0 0 0 0 0 0 0 0 0 0 0 0 0 0 0 0 0 0 0 0 0 0 0 0 0 0 0 0 0 0 0 159 162 -193 -209 -193 -193 165 162 -209 -193 -193 -193 -193 158 157 157 158 159 160 158 158 157 159 160 158 157 158 160 159 160 160 159 159 159 159 159 157 159 -193 155 -209 -209 155 155 154 155 154 154 155 -193 -225 154 155 -193 158 -193 -193 -193 -193 -193 -193 162 161 -193 156 158 -209 -209 -193 -193 -193 691 696 697 698 698 -193 -193 -209 -209 -209 -225 -225 -225 -225 -225 -225 -225 -225 -225 -225 -225 -225 -225 -225 -225 -225 -225 -225 -225 -209 -209 -193 497 -193 -193 -209 -193 -209 -209 -209 -209 -209 -209 -209 -209 -193 -225 -225 -225 -225 -225 -225 -225 -225 -225 -225 -225 -225 -225 160 161 162 162 163 160 159 158 156 156 155 154 153 151 152 151 152 152 151 152 153 153 152 152 152 153 157 161 160 -193 160 160 -193 158 -193 -193 910 911 903 901 902 -209 -193 -193 155 158 156 158 162 167 171 171 167 165 156 -209 -209 -209 -209 -193 85 -193 -193 92 100 105 104 111 120 136 137 138 139 138 139 139 139 139 137 138 140 140 144 149 152 153 154 155 155 156 157 157 158 159 158 158 155 154 155 155 155 154 153 154 154 156 157 159 158 159 159 161 159 161 162 156 0 0 0 0 0
    0 0 0 0 0 0 0 0 0 0 0 0 0 0 0 0 0 0 0 0 0 0 0 0 0 0 0 0 0 0 0 0 0 0 0 0 0 0 0 0 0 0 0 0 0 0 0 0 0 0 0 0 0 0 0 0 0 0 0 0 0 0 0 0 0 0 0 0 0 159 161 162 160 163 163 161 157 153 152 -193 155 157 158 157 157 158 159 160 158 0 -256 -1 9624 159 158 159 160 159 160 159 158 158 159 159 158 157 159 156 155 155 155 156 156 155 157 155 156 157 157 156 156 156 158 158 162 162 162 162 160 160 162 160 158 156 157 -193 -193 -193 -193 -193 -177 -209 -209 -177 -193 -209 -209 -209 -209 -193 -209 -225 -225 -225 -225 -225 -225 -225 -225 -225 -225 -225 -225 -225 -225 -225 -225 415 411 -193 -193 -193 497 -209 -193 -209 -193 -193 -209 -193 -209 -209 -209 -209 -193 -193 -209 -209 -193 -209 -193 -225 -225 -225 -225 -225 157 160 159 160 159 159 160 161 159 159 158 157 157 157 156 155 154 155 154 154 154 154 154 154 154 154 154 154 155 158 163 161 163 161 161 160 160 160 157 -193 -193 -193 901 -193 -193 -193 -193 157 -193 158 159 162 165 167 165 164 161 156 -193 -209 -209 -209 -209 -193 100 -209 100 100 105 103 106 115 -193 123 122 138 138 139 139 139 139 138 141 146 147 150 152 153 154 154 155 155 155 156 156 157 159 160 160 157 156 156 156 157 155 154 154 154 156 158 160 159 158 159 159 158 160 161 156 0 0 0 0 0
    0 0 0 0 0 0 0 0 0 0 0 0 0 0 0 0 0 0 0 0 0 0 0 0 0 0 0 0 0 0 0 0 0 0 0 0 0 0 0 0 0 0 0 0 0 0 0 0 0 0 0 0 0 0 0 0 0 0 0 0 0 0 0 0 0 0 0 0 0 158 160 161 159 162 162 161 158 153 152 -193 154 156 157 157 157 158 159 159 159 159 159 160 161 159 159 159 160 159 160 159 158 158 159 159 158 156 158 156 155 155 155 156 157 157 158 157 158 159 160 158 159 158 159 160 162 162 162 160 159 159 160 159 157 156 157 157 156 156 156 -193 -209 -209 -209 -209 -193 156 -193 156 -177 -177 -177 159 159 159 159 162 -193 -193 -193 159 -225 -209 -209 -209 415 419 418 417 -177 -177 -177 -193 -209 -209 -209 -209 -209 -193 -209 -193 157 -193 154 152 -209 154 -193 -209 -209 154 -193 155 156 156 154 156 157 160 159 159 158 158 159 160 158 158 157 157 157 158 157 156 155 156 155 155 155 155 155 155 155 155 155 156 155 158 164 162 164 161 162 161 161 161 158 156 157 -193 -193 -193 -193 -193 -193 157 -193 159 159 162 164 165 163 163 160 156 155 -209 152 150 148 -209 -209 119 -209 101 107 102 103 106 108 -193 114 -193 138 139 138 139 139 140 145 151 151 152 154 155 155 155 156 155 155 156 156 157 159 160 161 159 158 159 159 161 159 156 157 156 159 162 162 161 159 159 159 158 159 159 155 0 0 0 0 0
    0 0 0 0 0 0 0 0 0 0 0 0 0 0 0 0 0 0 0 0 0 0 0 0 0 0 0 0 0 0 0 0 0 0 0 0 0 0 0 0 0 0 0 0 0 0 0 0 0 0 0 0 0 0 0 0 0 0 0 0 0 0 0 0 0 0 0 0 0 158 160 160 158 161 161 160 157 153 152 152 154 156 157 157 156 157 158 159 159 160 159 161 160 159 158 159 160 158 159 159 157 158 158 158 158 156 157 155 155 155 155 156 156 157 159 159 159 161 162 159 162 160 160 162 163 162 161 160 159 158 159 158 156 156 157 157 156 156 156 156 156 -193 155 -193 156 156 158 157 157 159 159 158 159 157 158 159 159 157 157 158 159 -209 -193 -193 -193 -193 -177 -177 -177 -177 -177 -193 -209 -209 156 -193 -193 -193 -209 155 155 155 -193 152 -193 154 -193 -193 -193 155 155 156 156 156 154 156 156 159 158 158 157 157 158 160 158 158 157 156 157 159 157 156 155 156 156 156 156 156 155 155 156 156 156 157 156 159 164 162 164 162 162 161 161 161 159 157 158 155 -193 -193 156 -193 -193 157 -193 159 159 162 162 164 162 162 160 157 156 155 152 151 149 150 -209 -209 144 -209 -209 -209 -209 -193 102 102 106 -209 -177 145 144 144 146 144 150 153 153 154 155 156 156 156 156 156 155 156 156 156 158 160 160 160 160 161 162 164 164 160 162 159 162 163 164 162 159 159 159 158 158 157 155 0 0 0 0 0
    0 0 0 0 0 0 0 0 0 0 0 0 0 0 0 0 0 0 0 0 0 0 0 0 0 0 0 0 0 0 0 0 0 0 0 0 0 0 0 0 0 0 0 0 0 0 0 0 0 0 0 0 0 0 0 0 0 0 0 0 0 0 0 0 0 0 0 0 0 158 160 160 158 160 161 159 156 153 152 152 153 155 156 156 156 157 158 159 159 159 159 161 160 158 158 158 159 158 158 158 157 157 158 158 158 156 158 156 155 156 156 156 157 157 159 159 159 161 162 160 163 161 162 163 163 163 161 160 159 158 159 157 156 156 157 157 156 156 156 157 156 156 155 154 156 156 158 157 156 158 158 158 158 156 157 157 157 157 156 156 157 -209 -177 -177 -193 -193 -209 -177 -177 -177 -209 -209 -209 -193 156 157 155 155 -209 154 154 154 154 152 153 154 -193 -193 -193 155 156 156 157 156 154 156 156 159 158 157 157 157 158 159 157 157 157 156 157 159 157 156 156 156 156 156 156 156 155 156 157 156 156 157 156 159 164 162 164 162 162 161 161 161 160 157 158 156 156 156 156 156 156 157 159 158 159 162 161 162 162 161 160 157 157 155 153 151 149 150 148 139 146 149 155 153 160 -193 -209 -209 -209 151 151 150 151 149 152 150 152 156 155 156 157 157 156 156 157 156 155 156 156 155 157 158 159 160 160 161 162 164 165 162 164 162 164 164 164 162 159 158 158 157 158 157 155 0 0 0 0 0
    0 0 0 0 0 0 0 0 0 0 0 0 0 0 0 0 0 0 0 0 0 0 0 0 0 0 0 0 0 0 0 0 0 0 0 0 0 0 0 0 0 0 0 0 0 0 0 0 0 0 0 0 0 0 0 0 0 0 0 0 0 0 0 0 0 0 0 0 0 159 160 161 159 162 162 160 157 154 154 153 154 155 156 156 156 157 158 159 159 159 159 162 160 158 158 158 158 157 158 158 156 157 158 158 157 156 158 156 156 158 157 158 157 158 159 159 160 161 161 159 162 161 161 163 163 162 160 159 159 158 158 157 156 156 156 156 156 156 156 156 156 -193 -193 154 156 156 158 156 156 157 158 158 158 156 157 157 157 157 156 156 156 -193 -177 -177 -193 -177 -209 -177 -177 -177 -209 -209 -193 155 156 156 155 155 154 154 154 154 153 152 153 154 155 -193 -193 155 156 156 156 156 154 156 157 159 158 157 157 157 157 159 157 157 156 156 157 159 157 156 156 156 156 156 156 156 155 155 156 156 156 156 156 157 163 161 163 161 161 161 161 160 159 157 158 156 156 156 156 156 156 157 159 158 159 162 160 162 161 161 160 158 158 156 153 152 149 150 150 142 148 150 154 153 157 154 -193 154 -193 152 153 152 152 151 153 153 154 159 157 157 158 157 157 156 156 155 153 154 -193 153 155 157 159 160 160 161 162 164 164 162 164 163 165 165 165 163 159 158 158 157 157 156 155 0 0 0 0 0
    0 0 0 0 0 0 0 0 0 0 0 0 0 0 0 0 0 0 0 0 0 0 0 0 0 0 0 0 0 0 0 0 0 0 0 0 0 0 0 0 0 0 0 0 0 0 0 0 0 0 0 0 0 0 0 0 0 0 0 0 0 0 0 0 0 0 0 0 0 159 160 161 158 161 161 159 157 155 155 154 155 155 156 156 156 156 158 159 159 160 160 162 160 158 158 158 158 157 158 158 156 157 158 158 157 157 158 156 157 159 160 160 159 160 160 160 161 162 161 159 162 161 160 162 162 161 159 158 158 157 157 156 155 155 156 156 156 156 -193 156 -193 -193 155 155 157 156 158 156 156 157 158 158 158 156 157 157 158 158 157 156 156 155 -209 -193 -209 -209 -209 -177 -177 -193 -209 156 156 155 156 156 155 155 154 154 154 153 153 152 153 154 154 -193 155 155 155 156 156 156 154 156 156 159 158 157 157 157 157 158 157 157 156 155 157 158 157 156 156 156 156 156 157 155 155 155 156 156 155 156 156 157 163 161 162 160 161 160 160 160 159 157 158 156 157 156 157 156 157 157 159 158 160 162 160 161 161 160 160 158 158 156 154 153 152 152 153 -209 151 151 154 154 156 154 -193 154 154 153 155 154 153 153 154 155 156 162 159 158 158 158 158 157 156 156 152 151 -193 153 -209 155 156 157 159 159 160 161 162 162 162 160 163 163 164 163 159 158 158 157 157 156 155 0 0 0 0 0
    0 0 0 0 0 0 0 0 0 0 0 0 0 0 0 0 0 0 0 0 0 0 0 0 0 0 0 0 0 0 0 0 0 0 0 0 0 0 0 0 0 0 0 0 0 0 0 0 0 0 0 0 0 0 0 0 0 0 0 0 0 0 0 0 0 0 0 0 0 158 159 160 157 160 160 158 157 155 156 -193 155 156 156 156 156 156 159 159 159 160 160 162 160 158 158 158 158 158 158 158 155 157 158 158 157 157 158 156 156 158 159 160 159 160 160 160 161 161 161 159 161 161 160 161 161 160 158 158 157 157 157 156 155 155 155 155 155 155 155 155 155 155 155 155 157 156 158 156 156 157 158 158 158 156 158 156 158 158 157 156 157 155 154 155 155 155 156 -193 -193 156 156 157 157 156 157 157 156 155 155 155 155 154 154 153 153 155 155 155 155 155 156 156 156 156 154 156 156 158 158 157 156 157 157 158 157 156 156 155 157 159 157 157 156 157 156 157 157 156 155 155 156 156 155 157 156 156 163 160 162 160 160 160 160 160 159 157 158 156 157 156 157 157 157 157 159 158 160 162 160 160 161 160 160 159 159 157 155 154 153 153 154 153 153 153 155 155 156 155 154 154 155 154 155 155 154 154 155 156 157 163 160 159 159 158 157 157 156 156 151 151 150 151 151 153 154 155 156 156 158 160 160 160 160 158 160 160 161 161 158 157 157 156 156 156 156 0 0 0 0 0
    0 0 0 0 0 0 0 0 0 0 0 0 0 0 0 0 0 0 0 0 0 0 0 0 0 0 0 0 0 0 0 0 0 0 0 0 0 0 0 0 0 0 0 0 0 0 0 0 0 0 0 0 0 0 0 0 0 0 0 0 0 0 0 0 0 0 0 0 0 157 159 159 157 159 159 158 157 155 157 155 156 157 157 157 158 158 160 160 159 160 160 162 159 158 158 158 158 157 157 157 155 157 158 158 156 156 157 156 156 157 157 158 157 159 160 160 162 162 161 160 162 162 160 162 160 159 158 157 157 157 156 155 154 154 154 154 154 154 154 154 154 155 155 155 157 156 158 156 156 157 158 158 158 156 157 156 158 159 158 157 158 156 156 156 156 156 157 -193 -193 156 157 157 157 156 157 156 156 155 155 155 155 154 154 154 154 155 155 154 155 155 156 156 156 156 154 156 157 158 158 157 156 156 156 157 156 156 156 155 158 160 158 157 157 157 157 157 158 156 155 156 158 157 156 158 157 157 164 161 162 160 160 160 160 160 159 157 158 156 157 156 157 157 157 157 159 158 159 161 160 160 161 160 160 159 159 158 155 155 154 153 154 154 154 154 155 156 156 156 155 155 155 154 155 156 155 155 157 158 159 164 160 160 159 158 157 157 156 156 150 150 149 150 150 152 153 153 155 155 156 158 159 161 161 160 160 160 161 161 158 157 156 156 156 156 157 0 0 0 0 0
    0 0 0 0 0 0 0 0 0 0 0 0 0 0 0 0 0 0 0 0 0 0 0 0 0 0 0 0 0 0 0 0 0 0 0 0 0 0 0 0 0 0 0 0 0 0 0 0 0 0 0 0 0 0 0 0 0 0 0 0 0 0 0 0 0 0 0 0 0 157 159 159 156 158 158 158 157 155 157 -193 156 157 157 157 158 158 160 159 159 159 159 162 158 157 157 157 157 157 157 157 154 156 157 157 155 155 156 156 156 158 157 158 157 159 160 160 163 163 162 160 162 162 161 162 159 159 157 157 157 157 155 154 154 154 -193 154 154 154 153 154 155 155 155 155 157 156 158 156 156 157 158 157 157 156 157 155 158 159 159 159 161 159 158 158 159 158 160 159 160 157 157 157 157 157 156 156 156 155 155 155 155 154 154 155 154 156 155 154 155 155 156 156 155 155 153 156 156 158 158 156 156 156 156 157 156 156 155 155 159 160 158 157 157 158 157 158 158 157 156 157 159 158 157 159 158 158 164 161 162 159 160 160 160 159 159 157 158 156 157 156 158 156 157 157 159 158 160 162 160 159 161 160 160 159 160 158 156 156 155 154 154 154 155 154 156 156 156 156 155 156 156 155 155 156 156 156 158 159 159 164 160 160 160 158 158 157 157 156 150 150 149 148 149 151 153 153 155 154 156 157 160 162 161 159 160 161 163 162 158 157 156 156 156 158 158 0 0 0 0 0
    0 0 0 0 0 0 0 0 0 0 0 0 0 0 0 0 0 0 0 0 0 0 0 0 0 0 0 0 0 0 0 0 0 0 0 0 0 0 0 0 0 0 0 0 0 0 0 0 0 0 0 0 0 0 0 0 0 0 0 0 0 0 0 0 0 0 0 0 0 157 159 158 156 158 158 157 156 155 157 -193 156 156 156 157 158 157 160 159 158 158 157 162 157 157 157 157 156 156 156 157 153 156 156 156 155 155 156 156 156 157 157 158 157 159 159 160 163 163 161 160 162 164 162 162 159 158 157 156 156 156 155 154 154 -193 -193 154 154 154 153 155 156 156 156 156 158 156 159 157 156 157 158 157 157 156 157 155 157 158 159 159 161 159 158 159 161 159 162 160 161 158 158 158 158 157 157 157 156 155 156 156 156 155 155 156 155 156 156 155 156 155 156 156 156 156 154 156 156 157 157 156 156 156 156 156 155 156 155 155 160 160 158 157 157 157 157 158 158 156 155 156 159 157 157 159 158 157 163 160 162 159 160 160 160 159 159 157 157 156 157 156 157 156 157 156 158 158 160 162 160 159 161 159 160 159 159 158 156 156 155 154 154 155 155 155 156 156 156 156 155 156 156 155 156 157 156 157 158 159 159 165 160 160 160 159 158 158 157 156 150 150 150 148 149 151 152 153 154 155 157 157 160 162 162 159 160 161 163 162 158 157 156 156 156 159 158 0 0 0 0 0
    0 0 0 0 0 0 0 0 0 0 0 0 0 0 0 0 0 0 0 0 0 0 0 0 0 0 0 0 0 0 0 0 0 0 0 0 0 0 0 0 0 0 0 0 0 0 0 0 0 0 0 0 0 0 0 0 0 0 0 0 0 0 0 0 0 0 0 0 0 157 159 158 155 158 156 156 156 155 157 156 156 157 156 157 158 157 159 158 157 157 156 161 157 156 156 156 156 156 155 156 153 155 155 155 154 155 155 156 156 157 157 158 156 158 158 159 162 160 159 158 160 162 159 160 158 157 156 155 155 156 154 154 153 -193 -193 154 154 154 153 155 156 156 156 156 158 156 158 156 156 157 157 157 157 155 157 155 157 158 158 158 160 159 158 158 160 160 162 160 161 159 158 159 159 158 158 158 157 156 156 156 156 155 155 157 155 157 157 156 157 156 157 156 156 156 154 157 157 157 157 156 156 156 156 156 155 156 155 155 161 161 158 157 157 157 156 157 157 156 154 156 158 156 156 158 157 156 162 159 161 159 160 159 159 159 159 157 158 156 157 155 157 156 156 156 157 157 159 161 159 159 160 159 159 159 159 158 156 156 156 154 155 156 156 156 156 157 156 156 155 156 156 155 156 157 156 158 158 160 160 165 160 160 160 159 158 158 157 157 150 149 148 146 147 150 151 151 153 155 157 158 161 164 164 162 163 164 165 163 160 158 156 157 159 163 162 0 0 0 0 0
    0 0 0 0 0 0 0 0 0 0 0 0 0 0 0 0 0 0 0 0 0 0 0 0 0 0 0 0 0 0 0 0 0 0 0 0 0 0 0 0 0 0 0 0 0 0 0 0 0 0 0 0 0 0 0 0 0 0 0 0 0 0 0 0 0 0 0 0 0 158 160 159 156 161 -193 156 156 156 158 157 157 158 156 157 158 158 160 158 156 157 155 161 157 156 156 156 156 156 155 156 153 154 155 155 153 155 156 156 157 158 158 159 157 158 157 158 161 158 157 156 156 157 156 156 156 155 155 154 154 155 154 153 153 -193 -193 153 154 154 153 155 156 156 156 156 157 156 157 156 155 157 157 157 157 156 157 155 157 158 158 159 158 158 157 157 159 159 161 159 160 159 158 159 159 158 158 158 158 156 157 157 157 156 156 158 156 157 157 156 157 156 157 156 156 157 155 158 158 158 158 156 156 156 156 156 155 156 155 155 161 161 158 157 158 157 156 157 157 156 154 156 157 155 156 157 157 156 161 159 160 158 159 159 159 159 159 157 157 156 157 155 157 156 156 156 157 157 159 161 159 158 160 159 159 158 159 158 156 156 156 155 156 157 157 157 158 158 157 157 156 156 157 155 157 157 157 159 159 160 161 165 160 159 160 159 158 158 157 157 150 150 149 148 150 150 150 151 153 155 158 159 163 165 165 165 166 167 -209 -193 163 161 157 162 166 168 166 0 0 0 0 0
    0 0 0 0 0 0 0 0 0 0 0 0 0 0 0 0 0 0 0 0 0 0 0 0 0 0 0 0 0 0 0 0 0 0 0 0 0 0 0 0 0 0 0 0 0 0 0 0 0 0 0 0 0 0 0 0 0 0 0 0 0 0 0 0 0 0 0 0 0 158 160 159 155 160 -209 154 156 155 158 157 157 158 157 157 158 159 161 158 156 157 156 161 157 157 156 157 156 156 156 156 153 154 154 155 153 154 155 155 157 157 158 158 157 158 157 157 159 156 156 154 154 154 154 153 155 153 154 153 153 155 153 153 153 153 153 153 154 154 154 155 155 156 156 156 157 156 157 156 156 158 158 158 158 157 158 156 158 159 159 161 159 159 157 157 159 158 160 158 159 159 158 158 158 157 157 157 157 156 156 157 157 156 157 159 157 158 158 157 157 156 157 157 157 157 155 159 158 158 158 157 157 156 157 156 155 156 155 155 160 162 158 157 158 158 157 157 158 156 155 156 157 155 156 157 157 155 160 159 160 158 160 159 158 158 158 157 157 156 156 154 156 156 156 156 158 157 160 161 160 159 160 159 159 158 159 158 157 157 157 156 157 158 158 157 158 158 157 157 157 157 158 156 158 158 157 160 159 160 160 165 160 159 159 159 158 158 157 157 151 150 150 150 151 151 151 152 153 155 157 159 163 165 164 165 166 -209 -209 -193 165 165 161 167 169 171 168 0 0 0 0 0
    0 0 0 0 0 0 0 0 0 0 0 0 0 0 0 0 0 0 0 0 0 0 0 0 0 0 0 0 0 0 0 0 0 0 0 0 0 0 0 0 0 0 0 0 0 0 0 0 0 0 0 0 0 0 0 0 0 0 0 0 0 0 0 0 0 0 0 0 0 157 157 156 153 156 -193 153 -193 154 157 156 156 156 155 156 156 157 158 156 156 156 155 160 157 156 156 156 156 156 156 156 153 154 154 154 153 -193 -193 155 156 156 157 158 157 157 157 157 159 156 156 154 154 153 155 153 155 154 155 154 153 155 153 153 153 153 154 153 154 154 154 155 155 157 156 156 158 157 159 157 157 159 159 159 159 159 159 157 160 160 160 163 161 159 158 158 159 158 159 158 159 159 158 157 157 157 156 156 156 155 156 156 157 156 157 160 158 158 159 158 158 157 158 157 157 157 156 159 157 158 157 156 156 155 156 156 155 156 155 156 160 162 159 158 159 158 157 158 158 157 155 157 158 156 156 158 157 156 161 160 160 158 160 159 158 158 158 157 157 156 157 154 157 156 156 156 157 157 159 160 160 158 160 159 159 158 159 158 157 157 158 156 158 159 159 157 158 158 157 156 157 158 159 157 158 158 158 160 160 160 160 165 160 159 159 159 159 159 158 158 153 152 152 152 152 152 152 152 154 156 160 163 166 168 167 168 169 169 170 169 166 168 165 169 170 171 170 0 0 0 0 0
    0 0 0 0 0 0 0 0 0 0 0 0 0 0 0 0 0 0 0 0 0 0 0 0 0 0 0 0 0 0 0 0 0 0 0 0 0 0 0 0 0 0 0 0 0 0 0 0 0 0 0 0 0 0 0 0 0 0 0 0 0 0 0 0 0 0 0 0 0 157 157 155 153 155 150 152 -193 151 155 153 154 153 153 154 153 154 155 154 155 155 154 160 156 156 155 155 155 155 155 156 152 153 153 154 152 -209 -193 154 156 155 156 156 156 157 156 156 158 156 155 154 155 155 156 155 156 155 156 155 154 156 154 154 153 154 154 154 154 154 154 155 155 157 156 156 158 158 159 158 157 160 160 159 159 160 161 158 160 160 160 164 163 161 159 159 160 160 160 159 160 159 159 158 157 157 156 156 156 156 156 156 157 157 158 161 160 160 160 159 159 157 159 158 158 157 155 158 156 157 157 156 156 155 156 155 155 156 155 156 160 163 160 158 160 158 158 158 158 158 155 157 158 156 157 158 157 156 161 160 160 158 161 159 159 158 158 157 157 156 157 154 156 155 155 156 156 157 158 160 161 159 160 159 159 159 158 158 157 156 158 156 158 159 160 157 158 158 157 156 156 157 159 156 158 158 158 161 160 159 159 164 159 158 158 159 158 159 159 158 153 155 157 156 156 154 153 153 154 158 163 167 168 170 169 170 171 171 171 169 166 169 166 169 170 171 171 0 0 0 0 0
    0 0 0 0 0 0 0 0 0 0 0 0 0 0 0 0 0 0 0 0 0 0 0 0 0 0 0 0 0 0 0 0 0 0 0 0 0 0 0 0 0 0 0 0 0 0 0 0 0 0 0 0 0 0 0 0 0 0 0 0 0 0 0 0 0 0 0 0 0 158 158 156 155 157 151 152 152 152 155 153 153 153 152 153 153 154 154 153 154 155 154 159 156 155 155 155 155 155 155 155 150 153 153 154 152 -209 764 -193 -193 156 158 156 156 156 156 157 159 156 156 156 157 158 159 158 157 155 157 155 155 155 153 154 153 154 154 154 155 155 154 156 155 158 156 156 158 157 159 159 157 160 160 159 159 161 162 160 161 160 161 166 164 162 159 159 160 159 160 159 159 159 160 158 157 157 156 156 156 156 156 156 158 157 158 161 161 161 161 160 159 158 159 158 158 157 155 158 156 157 156 155 155 155 155 155 154 156 155 156 159 164 159 158 160 158 158 159 159 158 156 158 159 156 159 159 157 157 160 160 160 158 161 159 159 158 158 157 157 157 157 154 156 155 156 157 156 158 159 160 161 159 161 160 159 159 158 158 157 155 158 155 157 158 159 156 157 157 156 155 157 158 159 157 159 159 159 162 161 159 158 164 159 158 158 158 158 159 159 158 154 159 165 164 163 161 158 156 158 163 167 169 170 172 171 172 174 175 175 172 169 170 168 170 171 172 173 0 0 0 0 0
    0 0 0 0 0 0 0 0 0 0 0 0 0 0 0 0 0 0 0 0 0 0 0 0 0 0 0 0 0 0 0 0 0 0 0 0 0 0 0 0 0 0 0 0 0 0 0 0 0 0 0 0 0 0 0 0 0 0 0 0 0 0 0 0 0 0 0 0 0 157 159 158 157 163 153 152 152 152 157 154 -193 153 152 153 153 154 153 152 154 155 154 159 156 156 156 155 155 155 155 155 150 153 154 154 153 154 -193 154 157 157 159 157 157 157 157 158 161 159 159 158 159 161 161 160 158 155 156 154 153 154 152 153 153 154 155 154 155 155 155 156 156 158 156 157 158 157 157 159 157 161 160 160 161 161 162 163 161 158 157 162 158 159 157 158 158 157 158 158 158 158 159 157 157 157 156 156 156 155 156 155 158 156 158 161 161 161 161 161 160 158 159 158 158 158 156 158 156 157 156 155 155 154 154 154 154 155 155 156 157 163 158 157 160 157 157 158 158 158 155 158 159 156 158 158 156 156 158 159 159 158 160 158 158 158 158 157 157 156 157 154 156 155 156 157 157 157 159 160 162 160 162 161 161 161 160 159 158 156 159 154 157 158 158 156 157 157 156 156 158 159 160 158 160 160 160 163 161 158 157 163 158 157 157 157 157 158 158 158 154 160 166 165 166 166 165 163 164 166 169 171 172 175 174 174 176 178 177 173 171 174 170 172 174 174 175 0 0 0 0 0
    0 0 0 0 0 0 0 0 0 0 0 0 0 0 0 0 0 0 0 0 0 0 0 0 0 0 0 0 0 0 0 0 0 0 0 0 0 0 0 0 0 0 0 0 0 0 0 0 0 0 0 0 0 0 0 0 0 0 0 0 0 0 0 0 0 0 0 0 0 157 160 -193 -193 165 156 152 154 155 160 156 154 154 153 -193 153 154 153 151 154 -193 155 159 156 156 156 156 155 155 155 155 149 153 153 153 153 154 153 153 155 155 157 156 156 156 157 158 161 159 159 159 160 -193 162 162 159 154 155 153 152 152 152 152 153 154 155 154 155 155 155 156 156 159 157 157 158 157 157 159 157 162 161 163 163 163 163 164 162 157 155 158 153 156 155 156 157 156 157 158 157 158 160 157 157 156 156 156 156 155 155 154 157 156 157 160 161 161 161 161 160 158 160 158 159 159 157 159 156 158 -193 155 -193 154 154 154 154 155 155 156 157 163 158 157 159 157 157 158 158 158 155 158 158 156 158 158 155 155 157 158 157 157 159 158 157 158 158 157 157 157 157 155 156 156 156 156 156 157 158 159 162 160 162 162 162 162 162 162 162 161 165 157 160 160 159 157 158 157 156 155 157 157 158 157 158 159 159 161 160 158 157 162 157 157 157 158 157 158 159 158 155 161 166 163 163 164 162 162 165 167 170 172 172 177 176 176 178 178 177 173 171 175 170 172 173 -209 175 0 0 0 0 0
    0 0 0 0 0 0 0 0 0 0 0 0 0 0 0 0 0 0 0 0 0 0 0 0 0 0 0 0 0 0 0 0 0 0 0 0 0 0 0 0 0 0 0 0 0 0 0 0 0 0 0 0 0 0 0 0 0 0 0 0 0 0 0 0 0 0 0 0 0 -193 160 -193 -193 -193 158 154 155 158 162 159 155 155 154 -193 154 154 153 152 154 157 155 159 156 156 156 156 155 155 155 155 149 152 153 -193 153 153 152 152 155 155 157 155 156 156 156 158 161 160 159 160 161 -193 163 163 -193 155 156 154 152 152 152 153 153 154 155 154 155 155 155 156 155 158 156 157 158 157 157 159 157 163 162 164 165 164 164 165 164 159 155 157 151 155 -193 154 154 153 -193 -193 157 158 160 157 157 156 156 155 155 154 154 153 156 155 157 159 161 161 161 162 160 158 160 159 160 159 158 160 -193 -193 -193 155 -193 -193 154 154 154 155 155 156 156 163 158 158 160 157 158 158 158 158 155 158 158 156 159 158 155 154 156 158 156 156 159 157 157 158 157 157 157 157 157 155 156 156 156 156 156 157 158 159 161 160 163 163 163 164 164 164 164 165 168 163 163 162 159 157 158 157 156 155 156 155 156 157 157 157 157 159 158 157 157 161 157 157 157 158 158 158 159 158 155 160 165 162 162 164 163 162 164 166 170 172 172 176 175 177 179 179 178 173 171 176 171 173 -209 -209 -193 0 0 0 0 0
    0 0 0 0 0 0 0 0 0 0 0 0 0 0 0 0 0 0 0 0 0 0 0 0 0 0 0 0 0 0 0 0 0 0 0 0 0 0 0 0 0 0 0 0 0 0 0 0 0 0 0 0 0 0 0 0 0 0 0 0 0 0 0 0 0 0 0 0 0 -193 159 -193 -193 164 158 154 155 158 163 159 155 155 154 -193 154 154 153 -193 155 157 156 160 157 156 156 156 155 155 155 155 150 152 -193 -209 154 153 151 152 154 155 157 155 155 156 157 158 161 160 160 161 162 -193 164 165 -193 159 157 156 153 153 152 153 153 -193 -193 154 155 155 155 156 155 158 156 158 159 158 157 160 157 163 162 164 -193 164 165 166 165 162 159 162 -193 155 -193 -193 152 151 -193 -193 -209 157 161 157 157 156 155 155 154 154 154 152 155 154 156 159 162 162 162 162 160 158 161 159 160 159 158 -193 -209 -193 -193 -193 -193 -193 -193 154 154 155 155 155 156 162 158 158 160 157 158 158 158 158 155 158 159 157 159 159 156 155 156 158 156 155 158 157 156 157 157 157 156 157 157 155 156 156 156 157 157 157 158 159 162 161 163 163 164 164 164 165 165 166 169 166 166 163 161 158 159 157 156 154 156 155 155 156 156 156 156 157 156 157 156 159 157 156 157 157 157 158 158 158 156 161 166 164 164 165 164 164 165 166 169 170 171 173 172 174 176 176 175 172 169 173 169 -193 -209 -209 -193 0 0 0 0 0
    0 0 0 0 0 0 0 0 0 0 0 0 0 0 0 0 0 0 0 0 0 0 0 0 0 0 0 0 0 0 0 0 0 0 0 0 0 0 0 0 0 0 0 0 0 0 0 0 0 0 0 0 0 0 0 0 0 0 0 0 0 0 0 0 0 0 0 0 0 -193 158 -193 -193 -193 157 -193 155 162 165 160 154 154 -209 -193 154 -193 -193 -193 154 156 155 158 156 156 156 155 154 155 155 155 150 153 -193 -209 154 154 -193 151 153 154 156 154 155 155 157 158 161 162 -209 -193 -193 -193 166 167 -193 164 159 158 154 153 152 153 153 154 -193 -193 154 155 154 156 155 158 156 159 160 158 157 161 156 163 162 164 -209 -193 166 166 166 163 161 -193 -209 159 -193 156 -209 152 -193 -193 -193 156 162 157 157 156 155 154 154 153 153 150 154 153 155 159 163 162 162 163 161 158 162 160 160 159 158 -209 -209 -193 -193 -193 -177 -177 -193 -193 -193 155 155 155 156 162 157 157 159 157 157 158 158 158 155 158 159 157 159 159 156 156 156 -193 -193 155 158 157 156 157 156 156 156 157 157 155 156 155 156 157 157 157 158 159 162 161 164 164 165 165 165 166 166 168 170 168 167 164 162 -209 -193 -209 156 154 155 154 154 156 155 156 155 155 155 156 155 158 156 156 155 156 156 157 157 157 155 160 166 164 163 165 165 165 166 166 167 169 170 172 172 171 172 172 170 170 164 168 164 -209 -209 -209 176 0 0 0 0 0
    0 0 0 0 0 0 0 0 0 0 0 0 0 0 0 0 0 0 0 0 0 0 0 0 0 0 0 0 0 0 0 0 0 0 0 0 0 0 0 0 0 0 0 0 0 0 0 0 0 0 0 0 0 0 0 0 0 0 0 0 0 0 0 0 0 0 0 0 0 -193 -193 -193 -193 -193 160 160 158 -209 168 167 157 157 -209 -209 -209 -193 -209 -193 -193 154 154 156 155 155 155 -193 -193 154 154 154 141 -193 613 -177 -193 -193 -193 150 152 154 155 152 153 154 157 160 164 -209 -209 -193 -193 790 -209 -209 94 -193 161 160 154 153 152 152 152 154 -193 -193 154 154 154 156 154 158 156 159 160 156 156 160 -193 162 161 -193 -209 -193 166 167 166 163 161 165 166 163 159 163 168 156 -193 -193 -193 156 164 158 158 156 156 155 154 154 154 151 155 153 156 159 162 162 162 163 161 158 162 160 160 159 -209 -209 -209 -193 -209 -209 -193 -177 -193 -193 -193 154 155 155 155 162 157 157 159 156 156 157 157 157 154 157 158 157 160 159 155 156 156 -193 -193 154 157 156 156 157 156 156 156 157 157 155 156 155 156 156 157 157 157 159 162 161 164 164 165 165 166 167 167 169 171 170 169 166 -209 -209 -209 -209 -193 155 155 154 154 156 155 155 155 155 154 156 154 158 155 155 155 155 155 155 155 156 154 157 165 163 163 164 165 165 167 168 169 170 170 171 171 171 172 169 168 168 165 169 165 -193 171 175 179 0 0 0 0 0
    0 0 0 0 0 0 0 0 0 0 0 0 0 0 0 0 0 0 0 0 0 0 0 0 0 0 0 0 0 0 0 0 0 0 0 0 0 0 0 0 0 0 0 0 0 0 0 0 0 0 0 0 0 0 0 0 0 0 0 0 0 0 0 0 0 0 0 0 0 -193 -193 -209 -193 -209 162 163 -193 -209 168 -193 161 159 -193 -193 -209 -193 -209 -193 -193 156 156 156 156 156 156 155 -193 -193 -193 154 -209 -209 613 -177 -209 -209 -209 -193 151 153 152 144 146 146 -209 -209 -209 -225 792 -193 -193 790 -209 -209 94 98 159 158 -177 151 151 151 151 153 -193 -193 153 154 154 156 154 158 156 157 157 -209 -193 -209 -209 160 158 -193 -209 -209 165 166 165 162 159 165 -193 164 165 168 171 -209 -209 -209 -209 156 165 158 158 157 157 156 156 155 156 153 157 154 156 158 161 161 162 163 161 157 162 160 160 -193 -209 -209 -209 -209 -209 -209 -209 -177 -193 -193 -193 153 155 155 155 161 155 156 157 155 155 155 156 156 154 157 159 -193 161 160 156 157 156 -193 -193 -193 155 156 155 156 156 156 156 157 157 155 155 155 156 156 157 157 158 160 162 162 164 164 166 166 167 168 167 169 171 170 170 -193 -209 -209 -209 -209 -209 157 -193 156 155 157 155 155 155 154 154 156 153 157 155 154 154 154 154 -193 153 154 -193 155 163 162 161 164 165 166 169 169 169 170 170 171 171 170 171 168 167 167 166 169 168 170 174 179 181 0 0 0 0 0
    0 0 0 0 0 0 0 0 0 0 0 0 0 0 0 0 0 0 0 0 0 0 0 0 0 0 0 0 0 0 0 0 0 0 0 0 0 0 0 0 0 0 0 0 0 0 0 0 0 0 0 0 0 0 0 0 0 0 0 0 0 0 0 0 0 0 0 0 0 -209 -209 -209 -193 -177 -209 -209 -193 -209 -209 -193 -225 -225 -225 -225 -225 -209 -209 -209 -193 159 161 157 158 158 158 -193 -193 -193 -193 -209 -209 -193 613 613 -193 -193 -209 -193 152 -193 151 139 138 -225 -225 -225 -225 -225 -225 -193 -193 790 789 -193 94 -177 -193 155 148 149 148 148 150 152 153 -209 -209 -193 154 156 155 159 156 -193 -193 -209 -209 -209 -209 -193 -209 -209 -193 -209 163 165 -193 158 157 -209 -209 -193 -209 169 -193 -209 -193 -209 -209 -209 -193 157 157 157 157 156 156 155 155 153 157 154 155 155 158 159 161 163 162 157 164 163 164 -209 -209 -193 -193 -193 -209 -209 -225 -225 -193 -193 -193 152 155 154 153 156 151 153 154 153 152 153 154 154 153 156 158 733 -193 160 -225 -193 -193 -193 -193 -209 -193 154 154 155 155 154 155 156 156 155 155 156 156 157 158 157 158 160 162 162 166 166 167 167 168 169 169 170 173 170 170 -193 -209 -209 -209 -209 -209 -209 -209 -209 157 160 157 155 155 -193 -193 155 -193 155 153 152 152 -209 -209 -209 -209 -209 141 152 157 156 157 161 162 165 168 169 168 168 168 169 169 169 169 166 166 167 167 169 169 171 174 177 178 0 0 0 0 0
    0 0 0 0 0 0 0 0 0 0 0 0 0 0 0 0 0 0 0 0 0 0 0 0 0 0 0 0 0 0 0 0 0 0 0 0 0 0 0 0 0 0 0 0 0 0 0 0 0 0 0 0 0 0 0 0 0 0 0 0 0 0 0 0 0 0 0 0 0 -225 -209 -225 -225 -225 -225 -225 -225 -225 -225 -225 -225 -225 -225 -225 -225 -225 -225 -225 -209 163 166 158 160 161 160 -193 -193 -193 -193 -209 -193 -193 -193 612 155 155 151 151 151 152 147 139 -225 -225 -225 -225 -225 -225 -225 -225 -225 -225 -225 -225 -225 96 -209 -193 -225 -193 -193 -225 -225 -209 -209 -209 -209 -209 -209 -193 156 159 156 -193 -193 -209 -209 -209 -209 -209 -225 -209 -209 -209 -193 -193 -225 -193 -193 -209 -225 -225 -225 -225 -225 -209 -209 -209 -209 978 972 -209 -209 -193 157 155 154 153 153 152 156 153 154 153 156 157 160 163 -209 -209 166 -225 -225 -225 -225 -225 -225 -225 -225 -225 -225 -225 -225 -193 148 151 157 -193 153 152 150 151 152 151 149 150 153 -209 -209 -209 -209 -225 -225 -225 -225 -225 -225 -225 -193 144 149 -193 152 154 154 154 155 156 157 156 155 157 156 156 158 157 158 159 162 163 167 167 169 169 170 172 172 172 174 -193 172 -209 -209 -209 -209 -209 -209 -209 -209 -209 -209 -209 -209 -209 -209 -209 150 -209 -209 -209 -209 -209 -209 -209 -209 -209 -209 -209 -209 146 152 151 154 157 158 163 167 168 167 168 167 168 167 167 167 164 164 165 165 169 170 170 173 175 175 0 0 0 0 0
    0 0 0 0 0 0 0 0 0 0 0 0 0 0 0 0 0 0 0 0 0 0 0 0 0 0 0 0 0 0 0 0 0 0 0 0 0 0 0 0 0 0 0 0 0 0 0 0 0 0 0 0 0 0 0 0 0 0 0 0 0 0 0 0 0 0 0 0 0 -225 -225 -225 -225 -225 -225 -225 -225 -225 -225 -225 -225 -225 -225 -225 -225 -225 -225 -225 -225 -225 -225 -225 -225 -225 -225 -225 -225 -225 -225 -225 -225 -225 -225 -225 -225 -225 -225 -225 -225 -225 -225 -225 -225 -225 -225 -225 -225 -225 -225 -225 -225 -225 -225 -225 -225 -225 -225 -225 -225 -225 -225 -225 -225 -225 -225 -225 -225 -225 -225 -225 -209 -209 -209 -225 -225 -225 -225 -225 -225 -225 -225 -225 -225 -225 -225 -225 -225 -225 -225 -225 -225 -225 -225 -225 -225 -225 -225 -225 -225 -225 -225 -225 -225 -225 -225 -225 -225 -225 -225 -225 -225 -225 -225 -225 -225 -225 -225 -225 -225 -225 -225 -225 -225 -225 -225 -225 -225 -225 -225 -225 -225 -225 -225 -225 -225 -225 -225 -225 -225 -225 -225 -225 -225 -225 -225 -225 -225 -225 -225 -225 -225 -225 -225 -225 -225 -225 -225 -225 -225 140 147 -209 -193 -193 155 155 155 157 158 158 156 158 156 155 158 156 157 158 -225 -225 -225 165 168 -193 170 172 173 173 -193 -193 -193 -209 -209 -209 -209 -209 -209 -209 -209 -209 -209 -209 -209 -209 -209 -209 -209 -209 -209 -209 -209 -209 -209 -209 -209 -209 -209 -209 -209 -209 146 148 152 155 155 159 165 166 166 166 166 167 166 166 165 163 163 164 164 168 170 171 175 177 177 0 0 0 0 0
    0 0 0 0 0 0 0 0 0 0 0 0 0 0 0 0 0 0 0 0 0 0 0 0 0 0 0 0 0 0 0 0 0 0 0 0 0 0 0 0 0 0 0 0 0 0 0 0 0 0 0 0 0 0 0 0 0 0 0 0 0 0 0 0 0 0 0 0 0 -225 -225 -225 -225 -225 -225 -225 -225 -225 -225 -225 -225 -225 -225 -225 -225 -225 -225 -225 -225 -225 -225 -225 -225 -225 -225 -225 -225 -225 -225 -225 -225 -225 -225 -225 -225 -225 -225 -225 -225 -225 -225 -225 -225 -225 -225 -225 -225 -225 -225 -225 -225 -225 -225 -225 -225 -225 -225 -225 -225 -225 -225 -225 -225 -225 -225 -225 -225 -225 -225 -225 -225 -225 -225 -225 -225 -225 -225 -225 -225 -225 -225 -225 -225 -225 -225 -225 -225 -225 -225 -225 -225 -225 -225 -225 -225 -225 -225 -225 -225 -225 -225 -225 -225 -225 -225 -225 -225 -225 -225 -225 -225 -225 -225 -225 -225 -225 -225 -225 -225 -225 -225 -225 -225 -225 -225 -225 -225 -225 -225 -225 -225 -225 -225 -225 -225 -225 -225 -225 -225 -225 -225 -225 -225 -225 -225 -225 -225 -225 -225 -225 -225 -225 -225 -225 -225 -225 -225 -225 -225 -225 -225 -225 -225 -193 -225 -225 -193 -225 -225 -225 -225 -225 -225 -225 -225 -225 -225 -225 -225 -225 -225 -225 -225 -225 -225 -193 -209 -209 -209 -209 -209 -209 -209 -209 -209 -209 -209 -209 -209 -209 -209 -209 -209 -209 -209 -209 -209 -209 -209 -209 -209 -209 -209 79 88 99 106 -209 131 141 147 150 152 154 155 159 164 165 165 166 165 166 165 166 164 162 162 164 164 167 168 169 172 175 177 0 0 0 0 0
    0 0 0 0 0 0 0 0 0 0 0 0 0 0 0 0 0 0 0 0 0 0 0 0 0 0 0 0 0 0 0 0 0 0 0 0 0 0 0 0 0 0 0 0 0 0 0 0 0 0 0 0 0 0 0 0 0 0 0 0 0 0 0 0 0 0 0 0 0 -225 -225 -225 -225 -225 -225 -225 -225 -225 -225 -225 -225 -225 -225 -225 -225 -225 -225 -225 -225 -225 -225 -225 -225 -225 -225 -225 -225 -225 -225 -225 -225 -225 -225 -225 -225 -225 -225 -225 -225 -225 -225 -225 -225 -225 -225 -225 -225 -225 -225 -225 -225 -225 -225 -225 -225 -225 -225 -225 -225 -225 -225 -225 -225 -225 -225 -225 -225 -225 -225 -225 -225 -225 -225 -225 -225 -225 -225 -225 -225 -225 -225 -225 -225 -225 -225 -225 -225 -225 -225 -225 -225 -225 -225 -225 -225 -225 -225 -225 -225 -225 -225 -225 -225 -225 -225 -225 -225 -225 -225 -225 -225 -225 -225 -225 -225 -225 -225 -225 -225 -225 -225 -225 -225 -225 -225 -225 -225 -225 -225 -225 -225 -225 -225 -225 -225 -225 -225 -225 -225 -225 -225 -225 -225 -225 -225 -225 -225 -225 -225 -225 -225 -225 -225 -225 -225 -225 -225 -225 -225 -225 -225 -225 -225 -225 -225 -225 -225 -225 -225 -225 -225 -225 -225 -225 -225 -225 -225 -225 -225 -225 -225 -225 -225 -225 -225 -225 -225 -225 -225 -225 -225 -209 -209 -209 -209 -209 -209 -209 -209 -209 -209 -209 -209 -209 -209 -209 -209 -209 -209 -209 -209 -209 -209 -209 85 92 103 109 -209 -209 149 152 153 156 155 161 165 166 164 165 164 166 164 165 164 163 162 164 164 166 167 168 170 173 173 0 0 0 0 0
    0 0 0 0 0 0 0 0 0 0 0 0 0 0 0 0 0 0 0 0 0 0 0 0 0 0 0 0 0 0 0 0 0 0 0 0 0 0 0 0 0 0 0 0 0 0 0 0 0 0 0 0 0 0 0 0 0 0 0 0 0 0 0 0 0 0 0 0 0 -225 -225 -225 -225 -225 -225 -225 -225 -225 -225 -225 -225 -225 -225 -225 -225 -225 -225 -225 -225 -225 -225 -225 -225 -225 -225 -225 -225 -225 -225 -225 -225 -225 -225 -225 -225 -225 -225 -225 -225 -225 -225 -225 -225 -225 -225 -225 -225 -225 -225 -225 -225 -225 -225 -225 -225 -225 -225 -225 -225 -225 -225 -225 -225 -225 -225 -225 -225 -225 -225 -225 -225 -225 -225 -225 -225 -225 -225 -225 -225 -225 -225 -225 -225 -225 -225 -225 -225 -225 -225 -225 -225 -225 -225 -225 -225 -225 -225 -225 -225 -225 -225 -225 -225 -225 -225 -225 -225 -225 -225 -225 -225 -225 -225 -225 -225 -225 -225 -225 -225 -225 -225 -225 -225 -225 -225 -225 -225 -225 -225 -225 -225 -225 -225 -225 -225 -225 -225 -225 -225 -225 -225 -225 -225 -225 -225 -225 -225 -225 -225 -225 -225 -225 -225 -225 -225 -225 -225 -225 -225 -225 -225 -225 -225 -225 -225 -225 -225 -225 -225 -225 -225 -225 -225 -225 -225 -225 -225 -225 -225 -225 -225 -225 -225 -225 -225 -225 -225 -225 -225 -225 -225 -225 -209 -209 -209 -209 -209 -209 -209 -209 -209 -209 -209 -209 -209 -209 -209 -209 -209 -209 -209 -209 -209 -209 -209 -209 -209 -209 -193 -209 146 151 152 154 155 162 167 167 165 166 164 166 165 165 164 163 162 164 164 166 167 167 169 171 171 0 0 0 0 0
    0 0 0 0 0 0 0 0 0 0 0 0 0 0 0 0 0 0 0 0 0 0 0 0 0 0 0 0 0 0 0 0 0 0 0 0 0 0 0 0 0 0 0 0 0 0 0 0 0 0 0 0 0 0 0 0 0 0 0 0 0 0 0 0 0 0 0 0 0 -225 -225 -225 -225 -225 -225 -225 -225 -225 -225 -225 -225 -225 -225 -225 -225 -225 -225 -225 -225 -225 -225 -225 -225 -225 -225 -225 -225 -225 -225 -225 -225 -225 -225 -225 -225 -225 -225 -225 -225 -225 -225 -225 -225 -225 -225 -225 -225 -225 -225 -225 -225 -225 -225 -225 -225 -225 -225 -225 -225 -225 -225 -225 -225 -225 -225 -225 -225 -225 -225 -225 -225 -225 -225 -225 -225 -225 -225 -225 -225 -225 -225 -225 -225 -225 -225 -225 -225 -225 -225 -225 -225 -225 -225 -225 -225 -225 -225 -225 -225 -225 -225 -225 -225 -225 -225 -225 -225 -225 -225 -225 -225 -225 -225 -225 -225 -225 -225 -225 -225 -225 -225 -225 -225 -225 -225 -225 -225 -225 -225 -225 -225 -225 -225 -225 -225 -225 -225 -225 -225 -225 -225 -225 -225 -225 -225 -225 -225 -225 -225 -225 -225 -225 -225 -225 -225 -225 -225 -225 -225 -225 -225 -225 -225 -225 -225 -225 -225 -225 -225 -225 -225 -225 -225 -225 -225 -225 -225 -225 -225 -225 -225 -225 -225 -225 -225 -225 -225 -225 -225 -225 -225 -225 -225 -209 -209 -209 -209 -209 -209 -209 -209 -209 -209 -209 -209 -209 -209 -209 -209 -209 -209 -209 -209 42 -209 -209 -209 -177 -177 -209 -209 151 153 153 154 163 167 167 165 165 164 164 163 165 163 163 162 164 164 167 167 168 169 171 171 0 0 0 0 0
    0 0 0 0 0 0 0 0 0 0 0 0 0 0 0 0 0 0 0 0 0 0 0 0 0 0 0 0 0 0 0 0 0 0 0 0 0 0 0 0 0 0 0 0 0 0 0 0 0 0 0 0 0 0 0 0 0 0 0 0 0 0 0 0 0 0 0 0 0 -225 -225 -225 -225 -225 -225 -225 -225 -225 -225 -225 -225 -225 -225 -225 -225 -225 -225 -225 -225 -225 -225 -225 -225 -225 -225 -225 -225 -225 -225 -225 -225 -225 -225 -225 -225 -225 -225 -225 -225 -225 -225 -225 -225 -225 -225 -225 -225 -225 -225 -225 -225 -225 -225 -225 -225 -225 -225 -225 -225 -225 -225 -225 -225 -225 -225 -225 -225 -225 -225 -225 -225 -225 -225 -225 -225 -225 -225 -225 -225 -225 -225 -225 -225 -225 -225 -225 -225 -225 -225 -225 -225 -225 -225 -225 -225 -225 -225 -225 -225 -225 -225 -225 -225 -225 -225 -225 -225 -225 -225 -225 -225 -225 -225 -225 -225 -225 -225 -225 -225 -225 -225 -225 -225 -225 -225 -225 -225 -225 -225 -225 -225 -225 -225 -225 -225 -225 -225 -225 -225 -225 -225 -225 -225 -225 -225 -225 -225 -225 -225 -225 -225 -225 -225 -225 -225 -225 -225 -225 -225 -225 -225 -225 -225 -225 -225 -225 -225 -225 -225 -225 -225 -225 -225 -225 -225 -225 -225 -225 -225 -225 -225 -225 -225 -225 -225 -225 -225 -225 -225 -225 -225 -225 -225 -209 -209 -209 -209 -209 -209 -209 -209 -209 -209 -209 -209 -209 -209 -209 -209 -209 -209 -209 -209 38 -209 -209 -209 -209 -177 -209 -209 151 153 153 154 162 165 165 161 163 160 162 161 163 163 163 161 164 164 166 167 168 169 170 170 0 0 0 0 0
    0 0 0 0 0 0 0 0 0 0 0 0 0 0 0 0 0 0 0 0 0 0 0 0 0 0 0 0 0 0 0 0 0 0 0 0 0 0 0 0 0 0 0 0 0 0 0 0 0 0 0 0 0 0 0 0 0 0 0 0 0 0 0 0 0 0 0 0 0 -225 -225 -225 -225 -225 -225 -225 -225 -225 -225 -225 -225 -225 -225 -225 -225 -225 -225 -225 -225 -225 -225 -225 -225 -225 -225 -225 -225 -225 -225 -225 -225 -225 -225 -225 -225 -225 -225 -225 -225 -225 -225 -225 -225 -225 -225 -225 -225 -225 -225 -225 -225 -225 -225 -225 -225 -225 -225 -225 -225 -225 -225 -225 -225 -225 -225 -225 -225 -225 -225 -225 -225 -225 -225 -225 -225 -225 -225 -225 -225 -225 -225 -225 -225 -225 -225 -225 -225 -225 -225 -225 -225 -225 -225 -225 -225 -225 -225 -225 -225 -225 -225 -225 -225 -225 -225 -225 -225 -225 -225 -225 -225 -225 -225 -225 -225 -225 -225 -225 -225 -225 -225 -225 -225 -225 -225 -225 -225 -225 -225 -225 -225 -225 -225 -225 -225 -225 -225 -225 -225 -225 -225 -225 -225 -225 -225 -225 -225 -225 -225 -225 -225 -225 -225 -225 -225 -225 -225 -225 -225 -225 -225 -225 -225 -225 -225 -225 -225 -225 -225 -225 -225 -225 -225 -225 -225 -225 -225 -225 -225 -225 -225 -225 -225 -225 -225 -225 -225 -225 -225 -225 -225 -225 -225 -209 -209 -209 -209 -209 -209 -209 -209 -209 -209 -209 -209 -209 -209 -209 -209 -209 -209 -209 -209 35 -177 -209 -209 -209 -177 -209 -209 156 159 158 156 161 162 165 160 163 159 160 159 161 161 163 160 164 163 166 167 168 168 170 170 0 0 0 0 0
    0 0 0 0 0 0 0 0 0 0 0 0 0 0 0 0 0 0 0 0 0 0 0 0 0 0 0 0 0 0 0 0 0 0 0 0 0 0 0 0 0 0 0 0 0 0 0 0 0 0 0 0 0 0 0 0 0 0 0 0 0 0 0 0 0 0 0 0 0 -225 -225 -225 -225 -225 -225 -225 -225 -225 -225 -225 -225 -225 -225 -225 -225 -225 -225 -225 -225 -225 -225 -225 -225 -225 -225 -225 -225 -225 -225 -225 -225 -225 -225 -225 -225 -225 -225 -225 -225 -225 -225 -225 -225 -225 -225 -225 -225 -225 -225 -225 -225 -225 -225 -225 -225 -225 -225 -225 -225 -225 -225 -225 -225 -225 -225 -225 -225 -225 -225 -225 -225 -225 -225 -225 -225 -225 -225 -225 -225 -225 -225 -225 -225 -225 -225 -225 -225 -225 -225 -225 -225 -225 -225 -225 -225 -225 -225 -225 -225 -225 -225 -225 -225 -225 -225 -225 -225 -225 -225 -225 -225 -225 -225 -225 -225 -225 -225 -225 -225 -225 -225 -225 -225 -225 -225 -225 -225 -225 -225 -225 -225 -225 -225 -225 -225 -225 -225 -225 -225 -225 -225 -225 -225 -225 -225 -225 -225 -225 -225 -225 -225 -225 -225 -225 -225 -225 -225 -225 -225 -225 -225 -225 -225 -225 -225 -225 -225 -225 -225 -225 -225 -225 -225 -225 -225 -225 -225 -225 -225 -225 -225 -225 -225 -225 -225 -225 -225 -225 -225 -225 -225 -225 -193 0 -209 -209 -209 -209 -209 -209 -209 -209 -209 -209 -209 -209 -209 -209 -209 -209 -209 -209 -209 -209 -209 -209 -209 -209 -209 -209 -209 -209 168 170 166 165 164 164 163 165 159 159 158 161 160 163 160 162 162 165 166 167 167 168 169 0 0 0 0 0
    0 0 0 0 0 0 0 0 0 0 0 0 0 0 0 0 0 0 0 0 0 0 0 0 0 0 0 0 0 0 0 0 0 0 0 0 0 0 0 0 0 0 0 0 0 0 0 0 0 0 0 0 0 0 0 0 0 0 0 0 0 0 0 0 0 0 0 0 0 -225 -225 -225 -225 -225 -225 -225 -225 -225 -225 -225 -225 -225 -225 -209 -225 -225 -225 -225 -225 -225 -225 -225 -225 -225 -225 -225 -225 -225 -225 -225 -225 -225 -225 -225 -225 -225 -225 -225 -225 -225 -225 -225 -225 -225 -225 -225 -225 -225 -225 -225 -225 -225 -225 -225 -225 -225 -225 -225 -225 -225 -225 -225 -225 -225 -225 -225 -225 -225 -225 -225 -225 -225 -225 -225 -225 -225 -225 -225 -225 -225 -225 -225 -225 -225 -225 -225 -225 -225 -225 -225 -225 -225 -225 -225 -225 -225 -225 -225 -225 -225 -225 -225 -225 -225 -225 -225 -225 -225 203 204 201 200 201 202 200 200 -225 -225 -225 -225 -225 -225 -225 -225 -225 -225 -225 -225 -225 -225 -225 -225 -225 -225 -225 -225 -225 -225 -225 -225 -225 -225 -225 -225 -225 -225 -225 -225 -225 -225 -225 -225 -225 -225 -225 -225 -225 -225 -225 -225 205 203 199 199 -193 -225 -225 -225 -225 -225 -225 -225 -225 -225 -225 349 -209 348 -193 -193 -193 -193 204 -193 -193 200 196 195 -193 193 192 187 -193 -193 -209 -209 -209 -209 -209 -209 -209 -209 -209 -209 -209 -209 -209 -209 -209 -209 -209 -209 -209 -209 -209 -209 -209 -209 -209 -209 -209 183 179 179 174 -193 167 168 168 165 163 160 157 162 160 164 160 161 163 165 165 167 167 169 170 0 0 0 0 0</data></disparity>
</opencv_storage>
