<?xml version="1.0"?>
<opencv_storage>
<gps_time_stamp>29943</gps_time_stamp>
<gps_x>-7.8193678855895996e+000</gps_x>
<gps_y>1.0060323476791382e+000</gps_y>
<gps_z>-1.9802870750427246e+000</gps_z>
<image_time_stamp>17867</image_time_stamp>
<disparity type_id="opencv-matrix">
  <rows>78</rows>
  <cols>320</cols>
  <dt>s</dt>
  <data>
    0 0 0 0 0 0 0 0 0 0 0 0 0 0 0 0 0 0 0 0 0 0 0 0 0 0 0 0 0 0 0 0 0 0 0 0 0 0 0 0 0 0 0 0 0 0 0 0 0 0 0 0 0 0 0 0 0 0 0 0 0 0 0 0 0 0 0 0 0 118 118 118 119 119 122 123 122 124 127 127 129 126 127 126 126 129 126 125 125 125 126 125 125 124 122 121 121 120 120 119 120 121 122 125 127 127 129 130 131 130 127 130 126 128 129 127 126 131 128 129 128 128 127 127 127 126 122 123 122 122 121 123 121 122 123 124 126 125 125 124 123 -193 -209 -193 121 120 119 120 120 122 121 121 122 122 122 122 122 123 122 123 125 124 124 124 124 124 123 123 124 122 123 123 124 125 124 124 123 123 124 123 122 123 122 122 121 121 121 120 120 121 120 119 118 119 118 118 118 119 118 118 119 121 121 121 121 119 118 119 119 119 119 119 120 121 123 124 124 124 124 124 122 121 118 117 118 117 119 120 121 122 120 121 117 116 116 116 116 116 116 116 112 118 122 122 123 124 122 122 123 123 123 122 121 121 113 113 113 115 115 114 114 116 114 120 120 120 120 120 123 124 126 126 127 128 131 130 132 130 129 127 126 128 126 128 127 125 124 125 125 124 122 124 124 125 126 126 127 127 131 134 132 133 134 133 132 132 133 129 131 129 130 128 128 128 129 0 0 0 0 0
    0 0 0 0 0 0 0 0 0 0 0 0 0 0 0 0 0 0 0 0 0 0 0 0 0 0 0 0 0 0 0 0 0 0 0 0 0 0 0 0 0 0 0 0 0 0 0 0 0 0 0 0 0 0 0 0 0 0 0 0 0 0 0 0 0 0 0 0 0 123 123 122 123 123 124 124 123 126 127 127 129 126 127 127 126 129 126 126 126 126 126 126 126 125 123 123 124 123 123 122 122 123 124 126 128 128 130 130 132 131 128 131 127 129 130 128 127 132 129 130 128 129 128 128 128 127 123 124 124 124 122 124 122 123 124 124 126 125 126 126 124 124 125 -193 123 123 122 122 122 127 125 123 125 124 125 125 125 125 123 124 126 126 126 125 124 125 124 124 125 123 124 124 125 127 125 126 125 125 126 125 124 125 124 124 123 123 122 121 122 122 121 121 120 120 119 119 120 120 120 120 121 122 123 122 122 121 120 121 121 120 120 121 121 123 124 126 125 125 125 126 124 124 122 121 121 122 123 124 124 125 122 123 119 118 117 117 117 117 117 118 116 121 125 124 125 126 125 124 125 124 125 123 123 122 113 113 113 115 115 115 115 116 115 120 120 120 120 121 125 126 128 129 130 130 131 131 132 130 130 127 126 128 127 129 127 125 124 125 125 124 122 125 125 127 127 128 129 129 131 134 132 133 135 134 133 134 134 131 133 130 131 129 129 129 129 0 0 0 0 0
    0 0 0 0 0 0 0 0 0 0 0 0 0 0 0 0 0 0 0 0 0 0 0 0 0 0 0 0 0 0 0 0 0 0 0 0 0 0 0 0 0 0 0 0 0 0 0 0 0 0 0 0 0 0 0 0 0 0 0 0 0 0 0 0 0 0 0 0 0 126 125 124 126 126 127 126 126 129 129 128 130 128 128 127 126 130 127 127 127 126 127 126 127 127 124 125 126 126 126 125 125 125 127 129 129 129 131 131 132 131 129 131 127 130 130 128 127 132 129 130 129 129 129 128 129 129 124 126 125 126 124 124 123 124 124 125 126 126 126 127 125 126 126 126 126 125 125 125 125 131 129 126 127 127 128 127 127 127 125 125 128 127 127 125 125 125 125 125 126 124 124 125 126 128 127 127 127 127 128 127 126 128 126 125 125 125 124 123 123 124 123 122 123 122 122 121 121 122 121 122 122 124 124 124 124 123 122 123 122 122 121 121 122 125 125 127 126 126 126 128 126 126 123 124 124 125 126 126 126 128 125 126 121 120 119 119 118 119 119 119 119 122 127 126 127 128 126 126 127 125 126 124 124 123 114 114 114 116 116 115 116 117 116 121 122 122 121 122 127 128 130 131 132 131 131 131 132 130 131 128 126 129 128 131 129 126 125 126 125 125 122 126 126 128 129 131 131 131 132 134 133 134 136 135 134 135 134 133 134 131 132 128 128 128 129 0 0 0 0 0
    0 0 0 0 0 0 0 0 0 0 0 0 0 0 0 0 0 0 0 0 0 0 0 0 0 0 0 0 0 0 0 0 0 0 0 0 0 0 0 0 0 0 0 0 0 0 0 0 0 0 0 0 0 0 0 0 0 0 0 0 0 0 0 0 0 0 0 0 0 126 126 125 127 128 129 128 128 131 130 129 131 129 129 128 127 130 127 127 128 127 127 127 128 128 125 128 128 128 128 127 127 127 128 129 129 129 131 131 132 132 130 132 129 130 131 129 127 132 129 130 129 129 129 129 129 129 124 127 126 126 124 124 123 123 123 124 125 126 126 127 126 127 127 127 127 128 127 128 127 132 131 129 130 130 130 129 128 129 126 126 129 128 128 126 126 126 125 126 127 125 126 127 128 130 129 130 129 129 131 129 129 131 128 127 126 127 126 125 125 125 123 124 125 124 124 123 122 123 123 123 123 125 126 125 125 124 123 124 123 123 122 123 123 127 126 127 127 128 128 130 127 128 125 127 127 128 130 129 128 130 128 129 124 123 122 121 121 122 121 121 122 124 129 127 128 129 127 127 128 126 127 124 125 124 114 114 115 116 117 116 117 118 118 122 123 123 123 124 130 130 131 132 132 132 131 131 132 128 130 128 126 129 130 133 132 130 129 130 128 127 123 129 129 132 132 133 133 133 133 135 134 135 137 135 134 134 132 130 133 130 130 126 127 128 129 0 0 0 0 0
    0 0 0 0 0 0 0 0 0 0 0 0 0 0 0 0 0 0 0 0 0 0 0 0 0 0 0 0 0 0 0 0 0 0 0 0 0 0 0 0 0 0 0 0 0 0 0 0 0 0 0 0 0 0 0 0 0 0 0 0 0 0 0 0 0 0 0 0 0 127 126 125 128 128 130 129 129 131 130 130 131 129 130 129 128 131 128 128 128 127 127 127 128 128 125 129 129 129 129 129 127 127 128 130 130 129 130 131 131 132 130 132 129 129 131 129 127 132 129 129 128 129 129 128 129 129 124 127 126 126 124 124 123 123 123 124 125 126 126 128 128 129 129 129 129 130 130 131 129 133 131 130 131 130 131 130 129 130 127 126 128 128 127 126 126 126 126 126 127 126 127 128 129 131 130 131 130 130 132 130 130 133 130 128 127 127 127 126 126 126 124 125 126 125 125 124 123 125 124 124 124 126 127 127 127 127 126 126 125 125 124 125 126 130 128 128 128 129 129 131 128 129 126 129 129 130 130 129 128 130 128 128 126 124 123 123 123 123 123 123 124 126 130 127 128 129 128 127 128 126 128 125 127 125 116 115 116 117 118 117 118 119 120 123 124 124 124 125 131 131 132 132 133 131 131 131 131 128 130 129 127 130 132 135 135 133 134 135 134 133 130 134 133 134 135 135 135 135 135 136 135 136 138 136 135 133 131 128 132 130 129 126 127 128 129 0 0 0 0 0
    0 0 0 0 0 0 0 0 0 0 0 0 0 0 0 0 0 0 0 0 0 0 0 0 0 0 0 0 0 0 0 0 0 0 0 0 0 0 0 0 0 0 0 0 0 0 0 0 0 0 0 0 0 0 0 0 0 0 0 0 0 0 0 0 0 0 0 0 0 127 127 126 130 129 131 129 129 131 130 130 131 129 130 129 129 130 127 128 128 127 127 127 127 127 125 130 130 130 130 130 128 128 128 130 130 129 129 131 131 132 130 132 128 129 131 128 127 132 128 129 128 129 129 128 129 130 123 127 126 125 124 124 123 123 123 125 125 126 127 129 129 130 129 129 129 130 130 132 130 133 131 131 131 131 131 130 129 130 127 127 128 128 127 126 126 127 126 127 127 126 127 128 130 131 130 131 130 130 132 130 130 133 130 129 128 128 127 126 127 127 124 125 127 126 125 125 124 126 126 125 125 127 128 128 128 128 127 127 127 126 125 127 128 131 129 129 129 130 130 131 129 129 127 129 129 130 130 129 128 129 128 128 126 126 125 124 125 126 125 125 127 127 130 128 129 129 128 128 128 127 128 126 129 126 118 118 119 119 119 119 120 121 121 123 125 125 126 127 133 132 132 133 133 131 131 131 131 127 130 130 128 131 135 138 137 136 136 138 137 136 135 136 135 136 137 137 136 136 136 136 137 137 138 137 136 136 134 133 135 135 134 132 132 130 131 0 0 0 0 0
    0 0 0 0 0 0 0 0 0 0 0 0 0 0 0 0 0 0 0 0 0 0 0 0 0 0 0 0 0 0 0 0 0 0 0 0 0 0 0 0 0 0 0 0 0 0 0 0 0 0 0 0 0 0 0 0 0 0 0 0 0 0 0 0 0 0 0 0 0 128 128 127 130 130 132 130 129 131 130 129 130 129 130 130 130 130 127 128 128 127 127 127 127 127 125 130 129 131 130 130 128 128 128 131 131 130 130 131 131 132 131 132 130 129 132 128 127 133 128 129 128 129 128 128 129 130 123 127 126 125 124 124 123 123 124 124 125 126 127 128 129 129 130 129 129 130 130 132 130 133 131 130 131 130 131 130 129 130 127 127 128 128 128 126 126 126 126 126 127 127 127 128 129 130 129 130 131 131 132 131 131 134 131 129 128 128 128 127 127 127 125 126 127 126 125 126 124 127 128 126 126 127 128 128 128 128 127 127 128 127 126 128 129 132 130 130 130 130 131 131 130 129 127 129 129 130 130 129 128 129 129 129 127 127 126 126 129 129 128 128 130 129 131 129 130 130 129 129 129 128 129 127 130 127 123 122 124 124 123 122 123 126 124 126 129 129 129 131 134 132 133 133 133 131 131 131 131 128 130 131 129 133 136 140 139 138 138 140 138 137 137 137 136 136 137 137 137 137 137 137 137 137 139 137 137 137 135 134 136 137 136 134 132 126 127 0 0 0 0 0
    0 0 0 0 0 0 0 0 0 0 0 0 0 0 0 0 0 0 0 0 0 0 0 0 0 0 0 0 0 0 0 0 0 0 0 0 0 0 0 0 0 0 0 0 0 0 0 0 0 0 0 0 0 0 0 0 0 0 0 0 0 0 0 0 0 0 0 0 0 128 128 127 130 130 132 131 130 132 130 130 131 130 131 131 130 130 127 128 128 128 128 128 127 127 126 130 129 131 130 130 128 128 128 131 131 130 129 130 130 132 131 131 130 130 132 129 128 133 129 129 128 128 128 127 128 129 -193 125 125 124 124 124 123 124 124 125 126 127 127 129 130 130 130 130 130 131 131 132 130 133 131 130 130 130 130 129 128 129 126 127 127 129 128 126 126 127 128 127 128 129 129 130 131 131 130 131 132 131 133 132 131 134 131 130 129 129 128 127 127 127 125 127 127 127 126 127 125 127 129 126 126 128 128 127 129 129 128 127 128 127 126 128 129 132 130 130 130 130 131 131 130 130 127 129 129 130 130 129 128 129 129 128 128 127 127 127 131 130 129 129 131 130 132 129 131 130 130 130 130 129 130 128 131 128 127 130 134 134 131 132 133 133 133 133 132 133 133 134 135 134 134 134 133 132 131 131 132 128 131 131 130 134 137 140 140 139 140 141 139 138 138 137 136 136 137 136 136 137 137 137 138 138 140 140 140 140 139 139 139 139 139 138 135 -209 129 0 0 0 0 0
    0 0 0 0 0 0 0 0 0 0 0 0 0 0 0 0 0 0 0 0 0 0 0 0 0 0 0 0 0 0 0 0 0 0 0 0 0 0 0 0 0 0 0 0 0 0 0 0 0 0 0 0 0 0 0 0 0 0 0 0 0 0 0 0 0 0 0 0 0 128 128 128 130 131 132 131 131 132 131 130 131 132 132 132 132 130 128 129 129 128 128 128 127 127 126 130 128 131 129 129 127 127 126 129 129 129 126 128 128 131 131 131 130 130 132 130 129 133 129 129 128 128 128 126 128 128 122 124 124 124 124 124 124 125 125 126 127 128 128 130 130 131 131 130 131 132 132 133 130 133 131 130 129 129 130 129 128 129 125 127 127 128 128 126 126 127 129 129 129 130 131 131 132 132 131 131 132 131 133 132 131 134 131 130 129 129 128 128 127 127 125 127 127 127 126 127 125 127 130 127 127 128 128 128 129 129 128 127 128 127 126 128 130 132 130 130 130 130 131 132 130 130 127 130 129 130 130 129 128 129 128 128 127 127 127 127 130 130 128 129 131 130 132 129 131 130 130 130 130 129 130 128 131 129 129 133 137 136 134 135 135 135 135 135 134 134 134 135 135 134 134 134 133 132 131 132 132 128 131 132 130 134 138 141 141 140 141 142 140 139 139 137 136 136 136 136 136 136 137 137 138 139 141 142 142 142 142 143 143 142 141 140 138 -209 -209 0 0 0 0 0
    0 0 0 0 0 0 0 0 0 0 0 0 0 0 0 0 0 0 0 0 0 0 0 0 0 0 0 0 0 0 0 0 0 0 0 0 0 0 0 0 0 0 0 0 0 0 0 0 0 0 0 0 0 0 0 0 0 0 0 0 0 0 0 0 0 0 0 0 0 128 130 130 131 132 133 131 131 132 132 131 132 133 133 133 133 130 128 129 128 128 128 128 127 126 127 130 127 130 129 128 127 127 125 127 128 128 126 128 128 130 131 131 130 131 133 130 130 133 128 128 128 128 128 126 127 128 122 125 124 126 125 126 126 127 128 128 129 129 129 130 131 131 131 130 132 132 131 133 130 133 130 129 129 128 129 129 127 128 125 127 126 127 128 126 126 127 129 130 131 132 133 134 134 134 132 132 132 131 132 132 130 133 130 130 128 129 128 128 128 128 125 127 127 128 126 127 125 128 130 128 128 129 128 128 129 128 128 127 128 127 126 128 131 132 131 131 131 131 132 132 131 130 128 130 130 130 131 130 128 129 128 128 127 128 128 127 130 130 128 129 131 131 131 128 131 130 131 130 131 130 130 129 131 128 130 131 135 135 133 135 -193 135 134 134 134 133 133 134 135 134 134 135 134 133 132 132 132 128 131 132 131 134 138 141 141 141 142 142 141 139 139 138 137 138 138 137 136 137 137 137 139 139 142 143 143 143 144 145 145 144 143 141 139 -193 -209 0 0 0 0 0
    0 0 0 0 0 0 0 0 0 0 0 0 0 0 0 0 0 0 0 0 0 0 0 0 0 0 0 0 0 0 0 0 0 0 0 0 0 0 0 0 0 0 0 0 0 0 0 0 0 0 0 0 0 0 0 0 0 0 0 0 0 0 0 0 0 0 0 0 0 130 132 -209 -209 -193 134 133 133 133 133 132 132 134 134 133 134 130 129 129 129 128 128 128 127 125 126 128 126 129 127 127 127 -193 -193 -193 127 127 126 130 130 131 132 132 -193 -193 -193 -193 130 133 129 129 128 128 128 127 128 128 123 125 125 126 126 127 128 129 129 129 130 130 130 130 131 131 131 130 132 132 131 132 130 133 129 129 128 128 128 128 127 128 124 127 125 126 127 126 126 127 130 131 132 134 134 135 135 135 133 133 132 132 132 132 130 133 130 130 128 129 128 128 128 128 126 128 127 128 126 128 125 128 130 128 128 128 128 127 128 128 127 126 127 126 126 128 131 132 131 131 131 131 132 132 131 130 128 130 130 130 131 130 129 129 129 128 128 129 129 128 131 130 129 129 131 131 131 128 132 131 131 131 131 130 130 129 131 127 130 130 134 134 133 -209 -193 -193 133 134 133 133 133 134 134 134 134 135 134 133 132 133 133 129 131 133 133 134 137 141 141 141 142 141 141 139 139 138 137 138 138 137 137 138 138 138 140 140 142 144 143 144 143 144 144 143 143 141 138 -193 -209 0 0 0 0 0
    0 0 0 0 0 0 0 0 0 0 0 0 0 0 0 0 0 0 0 0 0 0 0 0 0 0 0 0 0 0 0 0 0 0 0 0 0 0 0 0 0 0 0 0 0 0 0 0 0 0 0 0 0 0 0 0 0 0 0 0 0 0 0 0 0 0 0 0 0 132 -193 -209 -209 -209 -209 -209 -209 -209 -209 135 135 136 137 135 134 130 129 130 129 128 128 128 127 125 128 129 126 130 128 127 126 126 124 126 128 128 127 131 131 133 133 -193 -193 -209 -177 -193 -193 133 128 128 128 129 128 127 128 128 123 124 124 125 125 127 128 129 129 129 131 131 131 131 131 131 131 130 -193 -193 131 132 130 132 128 128 128 128 128 127 127 127 124 127 125 125 127 126 126 128 131 132 -193 -209 -209 -209 -209 -209 -193 -193 -193 131 131 132 129 133 130 130 128 129 128 128 128 128 126 128 127 129 127 129 125 127 130 127 127 127 127 126 128 127 127 126 128 126 127 129 132 132 131 131 131 131 131 132 131 130 129 130 130 130 131 130 128 128 128 127 127 128 128 128 129 130 129 129 131 131 131 128 133 131 131 131 131 130 130 130 131 126 130 130 134 134 -193 -209 -193 -193 134 135 134 133 133 134 134 135 134 135 135 134 133 133 133 130 132 133 134 134 137 140 141 142 144 142 141 140 140 138 138 139 138 138 137 138 139 138 140 139 142 144 143 144 143 144 144 143 143 141 138 141 -209 0 0 0 0 0
    0 0 0 0 0 0 0 0 0 0 0 0 0 0 0 0 0 0 0 0 0 0 0 0 0 0 0 0 0 0 0 0 0 0 0 0 0 0 0 0 0 0 0 0 0 0 0 0 0 0 0 0 0 0 0 0 0 0 0 0 0 0 0 0 0 0 0 0 0 134 -209 -209 -209 -209 -209 -209 -209 -209 -209 -209 147 144 145 141 -193 130 130 130 129 128 129 129 129 126 130 131 128 -193 -193 130 127 -193 -193 -193 130 130 -209 -209 -209 -193 -209 -193 -209 -209 -209 -209 -193 134 130 130 130 129 128 126 128 128 122 123 123 124 124 127 130 131 132 132 134 134 134 -193 -209 -193 -209 -209 -177 -177 -193 -177 -177 133 129 129 129 129 128 128 127 128 124 126 124 124 125 125 126 127 131 132 -193 -209 -209 -209 -209 -209 576 579 582 -193 129 130 127 132 129 129 127 128 127 128 128 128 126 128 126 129 126 129 124 125 129 126 126 126 126 126 127 127 127 126 128 126 126 128 131 131 131 131 130 130 130 131 131 130 129 131 130 130 131 130 128 127 127 126 126 127 127 126 127 128 127 127 128 130 129 127 133 130 131 130 131 131 130 130 131 126 131 -193 -193 -193 -193 -209 -209 -209 -209 136 134 134 133 134 134 135 135 135 135 135 134 134 134 132 133 134 135 135 137 140 142 143 145 142 143 141 140 138 139 140 139 138 138 139 139 139 142 140 144 145 144 145 144 144 144 143 143 141 139 142 -209 0 0 0 0 0
    0 0 0 0 0 0 0 0 0 0 0 0 0 0 0 0 0 0 0 0 0 0 0 0 0 0 0 0 0 0 0 0 0 0 0 0 0 0 0 0 0 0 0 0 0 0 0 0 0 0 0 0 0 0 0 0 0 0 0 0 0 0 0 0 0 0 0 0 0 -209 -209 -209 -209 -209 -209 -209 -209 -209 -209 -209 151 150 150 150 151 131 131 131 129 129 129 130 130 127 131 133 130 -193 -193 -209 -193 -209 -193 -209 -209 -209 -209 -209 -209 -193 -209 -209 -209 345 -209 -209 136 135 132 132 132 131 128 126 128 128 122 122 122 123 125 129 134 136 136 135 139 139 139 -209 -209 -193 -209 -209 -177 -193 -209 135 -177 134 130 130 130 130 129 128 128 128 124 126 -193 -193 -209 -193 -193 127 132 133 -209 -209 -209 -209 -209 -209 -193 578 581 -193 129 130 126 132 128 129 127 128 127 127 127 128 126 127 126 129 125 129 124 124 128 125 125 126 125 125 126 126 126 125 127 126 126 127 131 131 130 130 130 129 130 131 131 130 129 131 130 130 131 131 129 127 126 126 126 127 128 128 128 129 127 128 127 129 127 126 133 130 131 130 131 131 130 130 130 125 131 130 133 134 133 -193 -209 -209 -209 137 136 136 134 135 135 -193 135 135 135 135 134 134 134 133 133 135 136 137 139 140 142 143 144 142 143 140 139 138 139 139 139 138 138 139 141 141 144 142 146 146 145 146 145 144 145 144 144 142 139 144 -193 0 0 0 0 0
    0 0 0 0 0 0 0 0 0 0 0 0 0 0 0 0 0 0 0 0 0 0 0 0 0 0 0 0 0 0 0 0 0 0 0 0 0 0 0 0 0 0 0 0 0 0 0 0 0 0 0 0 0 0 0 0 0 0 0 0 0 0 0 0 0 0 0 0 0 -209 -209 -209 -209 -209 -209 -209 -209 -209 -209 151 151 150 149 149 150 -193 134 133 132 131 131 132 132 131 134 135 134 -209 -193 -209 -209 133 130 -193 -209 -209 -209 -209 -209 -193 -209 -209 -193 -209 -209 -193 139 137 134 134 135 133 131 128 130 130 122 122 -209 123 128 132 138 140 140 138 141 143 144 141 -209 -209 -209 -193 -177 -209 -209 -209 -193 137 133 132 132 131 131 130 129 128 123 125 122 -193 -209 -209 -209 -193 -209 -209 -209 -209 -209 -209 -209 -209 -193 -193 -193 -209 132 132 128 132 129 130 127 128 127 128 127 128 126 127 126 129 126 129 -193 124 127 125 125 125 124 124 125 125 125 125 127 125 125 127 131 130 130 130 129 128 129 130 131 129 129 130 130 130 131 131 130 129 127 128 128 130 129 129 129 130 128 128 127 129 126 125 134 130 131 130 131 131 131 131 131 126 132 132 136 137 -193 -193 -209 -193 -209 139 -193 137 135 135 135 -193 134 134 134 134 134 134 134 133 133 135 137 137 140 141 143 144 145 143 145 140 140 137 138 139 140 138 138 140 146 145 148 144 147 147 145 146 145 145 145 144 145 142 139 145 139 0 0 0 0 0
    0 0 0 0 0 0 0 0 0 0 0 0 0 0 0 0 0 0 0 0 0 0 0 0 0 0 0 0 0 0 0 0 0 0 0 0 0 0 0 0 0 0 0 0 0 0 0 0 0 0 0 0 0 0 0 0 0 0 0 0 0 0 0 0 0 0 0 0 0 -209 -209 -209 -209 -209 -209 -209 -209 -209 -209 152 152 151 150 150 150 150 139 135 135 134 134 135 136 135 138 142 142 -209 -209 -209 151 144 142 141 147 -209 -193 -193 -209 -209 -193 -193 -209 -209 144 143 142 141 137 137 138 136 134 132 134 134 129 -209 -209 -209 -209 -193 142 147 146 140 143 147 146 144 146 -193 -209 -209 -209 -209 -209 -209 -209 148 -193 135 135 134 133 133 133 131 123 125 123 -209 -209 -209 -209 -209 -209 -209 -209 -209 -209 -209 -193 142 -193 -209 -193 139 138 136 132 134 131 131 129 129 128 129 129 130 128 130 129 133 130 133 -193 124 128 125 125 125 124 125 125 125 126 125 127 126 125 128 132 131 131 130 128 128 128 130 131 130 130 131 132 132 133 133 132 132 129 130 130 130 130 130 130 131 130 -193 128 130 127 127 135 130 131 131 132 132 132 133 132 129 135 137 139 141 -193 -193 -193 -193 -193 142 -193 141 138 -193 136 -193 134 134 134 134 134 134 134 133 134 136 138 138 140 141 142 144 145 144 146 141 141 138 140 145 146 143 141 147 153 151 151 148 149 147 145 146 145 145 145 144 145 142 140 146 142 0 0 0 0 0
    0 0 0 0 0 0 0 0 0 0 0 0 0 0 0 0 0 0 0 0 0 0 0 0 0 0 0 0 0 0 0 0 0 0 0 0 0 0 0 0 0 0 0 0 0 0 0 0 0 0 0 0 0 0 0 0 0 0 0 0 0 0 0 0 0 0 0 0 0 -193 -209 -209 -209 -209 -209 -209 -209 -209 152 153 152 151 151 150 151 151 146 141 139 138 138 139 141 141 145 150 149 150 -193 150 152 149 147 146 149 -193 150 152 -209 -193 -193 -209 -193 -193 147 147 146 144 141 140 142 139 138 137 138 138 -209 -209 -209 -209 -209 -209 148 151 150 145 147 150 149 148 149 149 -193 -209 -193 -209 -193 145 147 150 142 139 139 138 137 137 137 137 126 131 134 -209 -209 -209 -209 -209 -209 -193 -193 -209 -209 -193 147 148 -209 -193 -193 144 147 143 137 136 134 132 130 131 130 131 131 132 131 132 134 137 137 139 129 125 129 126 126 125 124 125 125 125 127 127 130 130 129 -193 -193 -193 134 132 129 129 129 131 132 132 134 136 138 139 140 138 137 137 134 135 133 132 131 131 132 132 132 -193 -193 -209 128 132 -193 131 132 131 132 133 133 134 134 132 137 140 142 144 147 147 -193 145 145 144 148 143 141 138 136 -193 134 134 134 134 134 134 134 133 134 136 138 138 140 140 142 143 144 144 146 142 146 145 150 152 153 152 152 153 155 153 152 150 150 147 145 147 145 145 145 145 146 143 141 148 145 0 0 0 0 0
    0 0 0 0 0 0 0 0 0 0 0 0 0 0 0 0 0 0 0 0 0 0 0 0 0 0 0 0 0 0 0 0 0 0 0 0 0 0 0 0 0 0 0 0 0 0 0 0 0 0 0 0 0 0 0 0 0 0 0 0 0 0 0 0 0 0 0 0 0 150 150 -209 -209 -209 -209 -209 -193 -193 152 152 152 151 150 150 152 152 151 151 148 149 147 147 149 150 151 152 152 152 150 150 151 150 149 148 150 150 151 153 -193 -193 -193 -193 152 150 149 149 148 147 146 146 147 142 144 143 143 142 -193 -209 -209 -209 -209 -209 150 151 151 149 149 151 150 150 151 151 149 149 151 153 150 148 149 151 146 142 142 142 141 141 142 142 134 139 144 -209 -209 -209 -209 -209 -209 -209 -209 -193 -193 150 -193 -193 -193 36 -193 148 150 149 144 142 140 135 133 133 133 134 134 136 135 136 139 143 144 146 141 -209 134 128 128 125 124 125 125 125 129 -193 -209 -209 152 150 153 151 140 136 131 131 131 132 134 134 136 140 143 145 147 147 144 142 140 145 135 135 133 133 133 134 133 133 133 -209 -209 -209 -193 133 133 132 133 134 134 135 135 135 139 143 145 147 149 149 149 148 147 147 149 147 -193 141 138 -209 134 134 134 134 134 134 134 133 134 136 139 139 140 140 142 143 144 144 146 145 149 150 153 153 154 153 153 154 154 153 153 150 151 148 146 147 146 146 146 146 147 144 143 151 150 0 0 0 0 0
    0 0 0 0 0 0 0 0 0 0 0 0 0 0 0 0 0 0 0 0 0 0 0 0 0 0 0 0 0 0 0 0 0 0 0 0 0 0 0 0 0 0 0 0 0 0 0 0 0 0 0 0 0 0 0 0 0 0 0 0 0 0 0 0 0 0 0 0 0 150 150 151 -209 153 154 152 -193 -193 152 152 152 151 -193 150 152 152 152 152 152 152 151 150 151 152 152 152 152 152 150 151 151 149 149 148 150 150 151 153 152 -193 -193 152 152 150 149 148 148 147 148 149 149 146 149 149 148 146 -193 -209 -209 -209 -209 151 151 152 152 151 150 152 152 151 152 152 151 151 153 154 151 150 151 152 148 146 146 146 145 146 147 147 139 148 -193 -209 -209 -209 -209 -193 -193 -209 -209 149 153 151 150 -193 -193 33 -193 149 150 150 147 146 146 141 138 138 138 142 139 142 146 146 148 149 149 149 145 146 145 139 139 -209 123 126 130 128 135 -193 -193 153 154 153 153 153 152 149 136 135 134 134 136 136 137 143 147 148 149 149 148 146 146 149 138 137 135 135 136 136 135 -193 -209 -209 -209 145 153 -193 135 135 136 137 137 138 138 139 141 146 147 148 150 151 151 150 149 149 151 150 -193 148 146 147 135 136 135 135 136 135 135 134 136 138 142 140 142 141 143 145 144 145 147 147 150 152 154 154 155 154 154 155 154 154 153 151 152 148 148 148 148 148 147 147 149 146 146 152 154 0 0 0 0 0
    0 0 0 0 0 0 0 0 0 0 0 0 0 0 0 0 0 0 0 0 0 0 0 0 0 0 0 0 0 0 0 0 0 0 0 0 0 0 0 0 0 0 0 0 0 0 0 0 0 0 0 0 0 0 0 0 0 0 0 0 0 0 0 0 0 0 0 0 0 150 149 151 151 152 153 152 152 152 152 152 152 152 -193 -193 -209 152 153 152 152 153 152 151 152 153 153 153 153 152 151 151 151 149 149 149 150 151 151 152 152 151 152 152 152 149 148 148 148 147 149 149 150 147 150 151 150 149 150 -209 -209 -209 -209 151 151 152 152 150 151 151 151 151 153 153 153 153 155 155 152 151 152 153 149 148 148 148 148 -193 149 149 142 151 152 -193 -193 -209 149 149 148 150 -209 150 153 152 152 152 -193 -193 151 150 151 150 148 147 148 145 143 142 144 150 145 148 151 149 150 151 150 150 147 149 148 145 145 144 -193 140 -193 -193 141 148 151 152 154 152 153 153 153 151 144 139 138 137 140 138 139 146 149 149 149 149 149 147 148 149 140 139 138 138 140 141 142 -209 -209 -209 -209 152 154 154 151 150 143 144 146 144 145 143 146 149 149 150 152 152 152 152 151 151 152 152 152 151 150 152 138 138 137 137 138 137 137 137 138 141 147 144 145 143 145 147 146 147 148 149 152 153 156 155 156 154 155 155 154 154 154 152 153 149 149 150 150 150 149 149 150 148 150 155 157 0 0 0 0 0
    0 0 0 0 0 0 0 0 0 0 0 0 0 0 0 0 0 0 0 0 0 0 0 0 0 0 0 0 0 0 0 0 0 0 0 0 0 0 0 0 0 0 0 0 0 0 0 0 0 0 0 0 0 0 0 0 0 0 0 0 0 0 0 0 0 0 0 0 0 149 148 150 150 151 152 151 151 151 152 152 151 151 150 149 151 152 153 152 152 153 152 151 152 153 153 152 153 152 151 151 151 149 149 148 150 150 151 152 152 -193 -193 151 152 149 148 148 148 147 148 149 149 147 150 151 150 149 150 150 150 151 152 152 151 152 152 151 151 152 152 151 153 153 153 154 155 154 153 152 153 153 149 149 148 148 149 149 149 149 144 152 151 -193 -193 150 149 149 149 151 151 151 153 153 152 152 153 152 151 151 151 151 150 148 149 147 146 146 147 151 147 150 151 150 151 151 150 150 147 149 149 148 147 147 143 147 145 144 146 150 151 152 153 -193 152 152 152 151 148 144 142 139 144 141 142 147 149 149 149 149 149 148 149 150 144 143 146 142 146 147 149 -193 -193 -193 154 154 155 155 154 154 153 152 153 152 151 150 150 151 151 151 153 153 153 153 152 152 153 153 154 152 152 153 144 145 141 140 142 141 140 141 141 147 150 147 148 146 146 147 146 148 148 149 151 152 155 154 155 154 154 155 154 155 155 153 155 151 153 154 154 154 152 152 154 153 154 159 161 0 0 0 0 0
    0 0 0 0 0 0 0 0 0 0 0 0 0 0 0 0 0 0 0 0 0 0 0 0 0 0 0 0 0 0 0 0 0 0 0 0 0 0 0 0 0 0 0 0 0 0 0 0 0 0 0 0 0 0 0 0 0 0 0 0 0 0 0 0 0 0 0 0 0 148 147 150 149 151 152 151 151 151 151 151 151 151 151 149 151 153 153 152 153 153 152 151 152 152 152 152 152 151 150 150 150 149 149 148 149 149 151 151 152 151 152 152 152 149 149 148 149 148 149 149 149 146 150 151 150 149 151 151 151 151 152 153 152 152 152 152 151 152 152 151 153 153 153 154 155 154 153 152 153 153 150 149 149 149 149 149 150 150 145 152 151 151 151 151 150 150 149 151 152 152 153 153 153 152 152 152 151 151 151 151 150 149 149 148 148 147 148 151 148 150 151 150 151 151 150 151 148 150 150 150 150 149 147 150 149 149 150 151 152 153 154 153 153 153 153 152 150 149 148 143 147 144 144 149 150 149 -193 149 149 149 150 150 146 146 150 148 150 150 151 152 153 155 154 154 156 155 155 155 154 154 154 154 153 152 152 152 152 152 154 153 154 154 152 152 153 154 154 153 153 153 150 151 150 146 146 146 144 146 145 149 151 148 149 147 147 147 146 148 148 149 151 152 155 154 155 154 154 154 153 154 155 152 155 151 155 -209 155 157 157 155 159 160 161 166 165 0 0 0 0 0
    0 0 0 0 0 0 0 0 0 0 0 0 0 0 0 0 0 0 0 0 0 0 0 0 0 0 0 0 0 0 0 0 0 0 0 0 0 0 0 0 0 0 0 0 0 0 0 0 0 0 0 0 0 0 0 0 0 0 0 0 0 0 0 0 0 0 0 0 0 147 146 149 149 150 151 150 151 151 151 151 151 151 151 149 152 154 154 153 153 153 152 152 152 152 152 151 152 151 151 150 150 149 149 148 149 149 150 151 152 151 152 152 153 149 149 148 149 148 149 149 149 147 151 151 150 149 150 150 150 151 151 153 152 152 152 152 152 152 152 152 153 154 154 154 154 153 152 152 152 152 149 149 148 149 149 149 149 150 145 152 151 151 152 151 151 151 151 153 154 153 154 154 153 152 153 152 151 151 151 151 150 149 150 148 148 147 148 151 149 150 151 150 151 152 150 151 148 150 150 150 150 150 148 151 151 152 152 153 153 153 154 153 153 153 153 153 152 151 151 148 149 147 146 150 150 149 -193 149 149 149 149 150 147 147 150 149 150 149 150 151 152 154 154 155 155 155 155 155 154 154 153 153 153 152 152 152 152 152 154 154 154 155 153 153 154 154 154 153 153 153 152 153 153 151 148 150 149 149 148 150 151 149 150 149 148 149 148 150 150 152 152 153 155 154 155 154 154 154 153 154 155 152 154 146 152 -193 155 156 155 154 158 158 161 164 166 0 0 0 0 0
    0 0 0 0 0 0 0 0 0 0 0 0 0 0 0 0 0 0 0 0 0 0 0 0 0 0 0 0 0 0 0 0 0 0 0 0 0 0 0 0 0 0 0 0 0 0 0 0 0 0 0 0 0 0 0 0 0 0 0 0 0 0 0 0 0 0 0 0 0 147 146 149 148 150 151 150 150 151 151 151 151 152 152 151 154 156 156 154 153 153 152 152 152 152 152 152 152 152 151 151 151 150 150 148 149 149 150 152 152 151 152 152 153 148 148 148 149 147 148 149 149 146 150 151 150 148 150 150 150 150 150 153 152 153 153 154 154 153 154 154 154 155 155 155 154 152 152 152 151 152 149 149 148 148 149 149 149 150 146 152 151 151 152 152 151 152 153 154 155 154 154 154 153 152 152 152 151 151 151 151 150 150 150 148 148 147 149 152 149 151 151 151 152 152 151 151 148 150 150 150 150 150 149 151 151 151 151 152 152 152 153 153 153 153 153 153 152 152 152 149 149 148 148 150 150 149 149 149 149 149 149 150 147 145 149 149 149 148 149 151 151 153 153 154 155 155 155 156 154 154 153 153 153 152 152 152 153 152 154 154 154 154 153 153 153 154 154 153 153 153 152 154 154 153 151 152 152 152 151 152 152 150 151 150 149 150 150 151 151 153 153 153 155 154 154 154 154 154 153 154 154 150 -193 145 152 155 156 157 157 157 159 160 161 163 165 0 0 0 0 0
    0 0 0 0 0 0 0 0 0 0 0 0 0 0 0 0 0 0 0 0 0 0 0 0 0 0 0 0 0 0 0 0 0 0 0 0 0 0 0 0 0 0 0 0 0 0 0 0 0 0 0 0 0 0 0 0 0 0 0 0 0 0 0 0 0 0 0 0 0 147 146 149 148 150 151 150 150 151 151 151 151 152 152 152 155 157 157 155 153 152 152 153 153 153 153 153 153 152 152 151 151 149 149 147 148 148 150 151 152 152 152 152 153 148 148 147 148 147 148 149 149 145 150 150 150 147 148 148 148 148 148 151 150 152 153 154 154 153 155 154 155 155 155 154 153 151 151 151 151 152 149 149 149 149 150 150 150 150 146 152 151 151 151 151 151 151 152 153 154 154 154 154 153 152 152 152 151 151 151 151 150 149 150 148 148 147 148 152 149 151 151 151 152 152 151 151 148 150 150 150 150 150 149 151 150 151 151 152 151 152 152 152 153 153 153 152 152 152 152 150 150 149 148 150 151 149 149 149 150 149 150 150 147 146 150 150 151 149 149 149 150 151 151 151 152 152 153 154 153 153 152 153 153 152 152 152 152 152 154 154 154 154 153 153 153 154 154 153 153 153 152 154 154 153 152 153 153 153 152 153 152 151 152 151 150 151 151 152 151 153 154 153 155 154 154 154 154 154 153 153 153 149 -193 150 156 159 161 164 166 165 167 168 167 167 167 0 0 0 0 0
    0 0 0 0 0 0 0 0 0 0 0 0 0 0 0 0 0 0 0 0 0 0 0 0 0 0 0 0 0 0 0 0 0 0 0 0 0 0 0 0 0 0 0 0 0 0 0 0 0 0 0 0 0 0 0 0 0 0 0 0 0 0 0 0 0 0 0 0 0 145 146 149 148 150 151 150 150 151 151 151 151 152 152 152 155 157 157 155 154 153 152 153 153 153 153 152 152 151 151 151 150 149 148 146 147 147 149 150 151 151 151 151 152 147 147 147 148 147 148 149 148 146 150 150 150 146 147 148 146 146 145 149 148 150 152 152 153 153 155 154 154 155 154 154 153 150 151 151 151 153 150 150 150 150 151 151 150 150 146 151 150 150 151 151 151 151 152 153 153 153 153 153 153 152 152 152 151 151 151 151 150 149 150 148 147 146 148 151 149 151 151 150 151 152 151 151 147 150 150 150 150 150 149 150 150 151 151 152 151 151 152 152 152 152 152 151 151 151 151 150 150 150 149 151 151 149 149 149 150 149 150 150 147 145 150 150 151 149 149 149 149 151 150 151 151 151 152 152 151 152 151 152 152 151 150 151 151 152 154 154 154 155 153 153 153 154 154 153 153 153 152 154 153 153 152 153 153 153 152 154 153 152 152 152 151 152 152 153 151 154 153 153 155 153 153 153 153 153 152 153 154 149 -193 152 158 162 165 166 168 166 168 168 168 167 166 0 0 0 0 0
    0 0 0 0 0 0 0 0 0 0 0 0 0 0 0 0 0 0 0 0 0 0 0 0 0 0 0 0 0 0 0 0 0 0 0 0 0 0 0 0 0 0 0 0 0 0 0 0 0 0 0 0 0 0 0 0 0 0 0 0 0 0 0 0 0 0 0 0 0 144 145 149 148 150 150 150 150 151 151 152 151 152 152 153 155 157 158 156 154 153 152 153 153 153 153 152 152 151 151 151 150 148 148 145 146 146 149 149 150 150 150 150 152 147 147 146 148 147 147 148 148 145 150 150 149 145 147 147 146 145 144 147 147 150 152 152 153 154 155 154 154 155 -193 154 153 150 150 -193 152 155 151 -193 -193 150 151 151 150 150 145 151 149 149 150 150 150 150 151 152 153 153 153 153 152 152 152 152 151 151 151 151 150 149 149 148 147 145 147 151 149 151 151 150 151 151 151 151 147 150 150 150 151 150 150 151 151 151 152 152 151 151 151 151 151 151 151 151 150 151 151 151 151 151 150 152 151 149 149 149 150 149 150 150 147 146 150 150 151 149 149 149 150 152 152 152 152 153 153 153 152 152 151 152 152 151 151 151 151 152 153 153 153 154 153 153 153 154 154 153 153 153 152 154 153 153 151 152 153 154 153 154 153 152 152 152 152 152 152 153 152 153 152 152 154 153 153 152 152 153 150 153 154 150 -193 153 160 163 166 167 168 166 167 167 167 165 165 0 0 0 0 0
    0 0 0 0 0 0 0 0 0 0 0 0 0 0 0 0 0 0 0 0 0 0 0 0 0 0 0 0 0 0 0 0 0 0 0 0 0 0 0 0 0 0 0 0 0 0 0 0 0 0 0 0 0 0 0 0 0 0 0 0 0 0 0 0 0 0 0 0 0 143 144 149 149 151 150 150 150 151 151 152 151 152 151 153 155 158 158 157 155 154 153 154 154 154 153 153 152 152 152 152 150 149 148 145 146 146 148 148 149 149 150 149 152 147 147 147 148 148 147 148 148 145 149 149 149 145 146 148 147 146 145 147 148 151 152 152 153 153 154 154 -209 -193 -193 153 -193 150 150 -193 153 155 -193 -193 -193 150 151 150 150 149 144 149 148 148 149 149 150 150 151 153 153 153 153 153 153 152 152 152 151 151 151 151 150 149 149 148 147 146 148 151 150 151 151 150 151 151 151 151 147 150 150 151 151 151 150 151 152 151 152 152 151 151 151 151 151 151 151 150 150 152 151 152 152 152 151 152 151 149 149 149 150 149 150 150 147 147 151 151 151 150 150 150 151 153 153 153 153 154 153 154 152 152 152 152 152 151 151 151 151 152 153 152 153 154 153 153 153 154 154 153 153 153 152 153 153 152 151 152 153 153 153 154 153 152 152 152 152 152 152 153 152 153 152 152 153 152 152 151 151 151 147 153 154 151 -193 153 161 164 166 167 168 166 167 167 167 165 165 0 0 0 0 0
    0 0 0 0 0 0 0 0 0 0 0 0 0 0 0 0 0 0 0 0 0 0 0 0 0 0 0 0 0 0 0 0 0 0 0 0 0 0 0 0 0 0 0 0 0 0 0 0 0 0 0 0 0 0 0 0 0 0 0 0 0 0 0 0 0 0 0 0 0 144 145 149 149 151 150 150 150 151 152 151 151 151 151 153 155 158 158 157 155 154 153 154 154 154 153 152 151 152 151 152 150 148 148 145 146 146 147 148 149 150 151 150 152 147 148 147 149 148 148 148 148 145 149 149 148 146 146 148 147 147 146 149 150 153 154 154 153 153 153 154 153 -193 -193 152 151 149 150 153 153 155 -193 -193 -193 150 151 150 149 149 143 149 147 148 149 149 150 149 151 153 153 153 153 153 152 152 152 151 150 150 151 151 150 149 149 148 148 146 148 152 150 151 151 151 -193 -193 151 151 147 151 150 151 151 151 151 151 151 151 152 152 151 151 151 151 151 151 151 151 151 153 152 153 153 153 151 153 151 149 149 149 149 149 150 150 147 146 151 151 151 150 150 150 150 152 152 153 152 153 151 152 150 151 150 151 151 150 151 151 151 152 152 152 153 153 153 153 153 154 154 153 153 152 152 153 152 151 151 151 153 153 153 154 153 152 152 152 152 153 153 154 153 154 152 152 152 152 151 150 150 151 143 152 152 151 152 153 159 162 164 167 168 166 167 166 167 165 165 0 0 0 0 0
    0 0 0 0 0 0 0 0 0 0 0 0 0 0 0 0 0 0 0 0 0 0 0 0 0 0 0 0 0 0 0 0 0 0 0 0 0 0 0 0 0 0 0 0 0 0 0 0 0 0 0 0 0 0 0 0 0 0 0 0 0 0 0 0 0 0 0 0 0 144 144 149 149 151 150 150 150 151 152 151 151 151 151 154 156 158 159 157 155 154 153 154 153 153 153 152 151 152 151 151 150 148 148 145 146 145 147 148 148 149 150 149 151 147 147 147 148 148 148 148 148 146 149 149 149 147 146 148 147 146 144 147 149 153 153 154 153 153 154 154 153 154 152 152 151 149 149 153 153 155 150 151 -193 150 151 150 149 149 144 149 147 148 149 149 149 149 151 152 153 152 153 153 152 152 151 151 150 150 151 151 150 150 150 149 149 147 149 152 150 -193 151 -193 -193 -193 -193 -193 148 151 150 151 152 152 152 151 152 151 152 152 151 151 150 151 151 151 151 150 151 153 152 153 153 154 152 153 151 149 149 149 150 150 150 150 147 147 151 151 151 151 151 150 150 152 152 152 152 153 151 151 149 150 148 150 150 150 150 151 151 152 152 152 154 153 153 153 153 153 153 153 153 152 152 153 152 150 150 151 152 152 153 154 153 152 153 153 153 154 153 155 154 154 152 152 152 152 151 150 150 150 142 151 151 152 153 154 159 161 164 167 167 166 167 166 167 165 165 0 0 0 0 0
    0 0 0 0 0 0 0 0 0 0 0 0 0 0 0 0 0 0 0 0 0 0 0 0 0 0 0 0 0 0 0 0 0 0 0 0 0 0 0 0 0 0 0 0 0 0 0 0 0 0 0 0 0 0 0 0 0 0 0 0 0 0 0 0 0 0 0 0 0 143 144 149 150 151 150 150 150 151 152 152 151 151 151 154 155 158 159 157 155 154 153 154 154 154 153 153 151 152 151 152 150 148 148 146 146 144 147 148 147 148 149 148 151 146 146 146 147 148 148 148 148 146 149 149 149 147 145 147 147 145 144 147 148 152 154 155 154 154 155 154 -209 -193 -209 -209 -209 148 148 -193 152 154 149 150 -193 150 150 150 149 148 143 149 147 147 148 148 149 149 151 152 153 152 153 153 152 153 151 151 150 150 151 150 150 149 150 149 149 147 149 153 150 -193 151 151 -193 -193 -193 151 147 151 150 150 151 151 151 150 151 150 152 151 150 150 150 150 150 151 151 150 150 153 152 154 154 154 153 154 151 149 149 150 150 150 150 150 148 148 152 151 151 152 152 152 152 153 153 153 152 153 151 151 148 149 147 150 149 150 150 151 151 151 151 152 154 153 153 153 153 154 154 153 153 152 152 153 151 150 150 151 152 153 155 155 154 153 154 154 154 155 155 155 154 154 152 152 152 152 151 151 150 151 144 153 153 153 156 156 161 163 166 167 167 166 167 166 167 165 165 0 0 0 0 0
    0 0 0 0 0 0 0 0 0 0 0 0 0 0 0 0 0 0 0 0 0 0 0 0 0 0 0 0 0 0 0 0 0 0 0 0 0 0 0 0 0 0 0 0 0 0 0 0 0 0 0 0 0 0 0 0 0 0 0 0 0 0 0 0 0 0 0 0 0 144 145 150 151 152 151 151 151 152 153 152 152 151 151 154 155 157 159 156 155 155 154 155 154 155 154 153 -193 -193 151 152 149 148 147 146 146 144 147 149 148 149 149 149 151 146 146 145 147 148 148 148 148 145 149 149 149 147 145 147 147 145 145 147 149 152 154 154 152 -193 -209 -209 -209 -209 -209 -209 -177 -209 148 -209 152 154 149 150 149 149 150 149 148 147 142 148 147 147 148 147 148 148 150 151 151 151 152 152 153 153 152 151 150 150 150 150 149 148 148 149 148 146 149 153 150 151 151 151 -193 -193 -193 -193 146 151 149 150 151 150 150 150 150 149 151 151 150 150 150 150 150 151 151 150 150 153 152 153 154 154 153 154 151 149 150 150 150 150 151 150 149 150 153 152 153 153 153 153 153 154 153 153 152 153 150 150 147 149 146 150 148 150 150 151 151 151 151 152 154 153 153 -193 -193 154 154 153 153 152 153 153 152 150 151 152 153 154 156 157 155 154 155 154 155 156 155 155 153 154 152 152 152 151 151 150 150 150 144 153 154 154 157 157 162 164 167 168 168 166 167 166 167 166 165 0 0 0 0 0
    0 0 0 0 0 0 0 0 0 0 0 0 0 0 0 0 0 0 0 0 0 0 0 0 0 0 0 0 0 0 0 0 0 0 0 0 0 0 0 0 0 0 0 0 0 0 0 0 0 0 0 0 0 0 0 0 0 0 0 0 0 0 0 0 0 0 0 0 0 143 146 150 153 153 152 152 152 152 153 153 152 151 151 153 155 157 159 156 156 156 154 155 155 155 154 153 -193 -193 149 151 148 147 146 147 146 145 147 149 149 150 149 148 150 146 146 145 147 148 147 148 148 145 148 149 149 147 145 147 147 146 147 148 150 152 154 154 -209 -209 -209 -209 -209 -209 -209 338 -177 -209 -209 -209 153 155 149 150 149 149 149 149 148 147 142 148 146 147 148 147 147 147 150 150 151 150 152 152 153 154 152 152 150 149 150 150 149 148 148 149 147 146 149 152 149 151 150 150 -193 -193 -193 -193 146 152 150 150 151 150 151 150 150 149 151 151 150 150 150 150 150 150 150 150 150 153 152 153 154 154 153 154 151 149 150 150 150 150 151 150 149 151 153 153 153 154 154 153 155 155 154 154 154 154 151 151 148 150 148 151 149 151 151 152 152 152 151 152 154 153 153 153 153 154 154 153 153 152 153 154 152 150 151 153 154 155 157 158 156 154 155 155 156 156 156 156 154 155 152 151 151 151 151 150 150 150 144 153 154 155 156 156 160 163 168 169 168 166 167 166 168 167 165 0 0 0 0 0
    0 0 0 0 0 0 0 0 0 0 0 0 0 0 0 0 0 0 0 0 0 0 0 0 0 0 0 0 0 0 0 0 0 0 0 0 0 0 0 0 0 0 0 0 0 0 0 0 0 0 0 0 0 0 0 0 0 0 0 0 0 0 0 0 0 0 0 0 0 141 144 149 154 153 152 153 152 152 153 153 152 150 150 153 154 156 159 157 156 156 155 -193 -193 -193 154 152 151 -193 148 150 146 146 147 148 147 145 147 -193 -193 150 149 148 150 -193 -193 145 147 148 148 148 148 145 148 149 149 147 146 148 148 147 148 149 151 153 -209 -209 -209 -209 -209 -177 -209 -209 -209 -209 336 -209 -209 -193 153 155 148 149 149 148 149 149 147 147 142 148 -193 147 148 146 146 147 150 150 150 151 153 153 153 155 153 152 151 149 150 -193 -193 148 147 149 147 146 149 152 149 151 150 150 -193 -193 -193 -193 147 152 150 150 152 151 152 150 150 150 152 152 150 150 149 149 150 150 150 150 151 153 152 154 156 155 153 154 151 149 150 150 151 150 151 151 151 153 155 154 154 155 156 154 156 155 -193 155 154 156 153 153 151 152 150 152 150 152 152 153 152 152 151 152 153 153 153 153 153 153 154 154 154 152 154 155 153 153 151 154 155 156 158 158 157 155 155 157 157 157 156 157 154 156 151 151 151 151 150 150 149 150 144 153 157 157 159 157 159 160 165 167 166 164 164 163 166 165 165 0 0 0 0 0
    0 0 0 0 0 0 0 0 0 0 0 0 0 0 0 0 0 0 0 0 0 0 0 0 0 0 0 0 0 0 0 0 0 0 0 0 0 0 0 0 0 0 0 0 0 0 0 0 0 0 0 0 0 0 0 0 0 0 0 0 0 0 0 0 0 0 0 0 0 142 144 149 156 154 -193 154 153 153 154 153 152 150 151 153 154 156 158 157 156 -193 -193 -193 -193 -193 -193 -193 -193 -193 -209 152 148 147 -193 -193 -193 146 147 -209 -209 -209 -193 -193 150 -209 -193 146 148 149 149 148 149 146 148 149 149 -193 -209 -193 -193 -193 148 -209 151 -209 -209 -209 -209 -209 -209 335 -209 -209 -209 -209 -209 -209 -209 155 154 154 148 149 148 148 148 148 146 146 142 148 -193 -193 148 147 147 148 150 150 150 151 153 153 154 155 153 -193 -193 -193 -193 -209 -193 146 147 149 147 146 150 152 149 151 151 -193 -193 -193 -193 -193 148 153 150 151 153 152 -209 151 150 150 152 151 149 150 149 149 150 150 151 150 152 154 153 155 157 157 154 156 151 149 150 150 151 151 152 152 153 154 157 157 156 157 158 155 156 -209 -209 154 154 155 153 153 152 153 150 154 151 152 153 154 153 152 152 152 153 153 153 153 153 153 154 154 154 153 154 156 154 160 157 156 156 158 159 160 158 156 156 157 157 157 156 157 154 156 151 150 150 151 151 150 150 150 147 154 159 161 160 158 160 163 166 167 166 165 166 165 168 166 163 0 0 0 0 0
    0 0 0 0 0 0 0 0 0 0 0 0 0 0 0 0 0 0 0 0 0 0 0 0 0 0 0 0 0 0 0 0 0 0 0 0 0 0 0 0 0 0 0 0 0 0 0 0 0 0 0 0 0 0 0 0 0 0 0 0 0 0 0 0 0 0 0 0 0 148 -209 -209 -209 -193 -209 158 160 157 160 -209 -209 -193 154 154 156 -209 -193 -193 -193 -209 -193 -209 -209 -209 -209 -209 -209 -209 -193 164 -209 -209 -193 -193 291 -209 -193 -209 272 -209 -209 -209 -209 -209 317 325 -209 149 -193 -209 -193 146 148 150 -193 -193 -209 -209 -209 -209 -209 -209 -209 -209 -209 -209 -209 -209 -209 -209 383 -209 -209 -209 -209 -193 -209 -209 153 153 146 148 146 146 147 146 145 145 142 -193 -193 -193 -193 146 147 148 150 -209 149 151 154 154 155 156 -209 -209 -193 -193 -209 -209 -193 145 147 149 148 146 150 152 149 151 151 -193 -193 -193 -193 -193 149 153 150 151 152 151 -209 -193 148 148 151 150 149 -193 -193 149 150 151 151 150 153 155 154 155 158 156 152 154 150 149 150 150 151 151 154 154 155 156 160 160 159 158 161 155 158 -209 -209 -209 153 155 153 153 153 154 151 154 151 153 153 154 154 153 152 153 154 153 153 153 153 153 153 154 154 152 154 156 155 165 168 157 157 158 159 159 157 155 155 155 156 156 155 157 154 156 151 150 150 151 151 151 150 151 148 154 160 162 160 158 160 164 165 166 165 165 165 165 167 165 160 0 0 0 0 0
    0 0 0 0 0 0 0 0 0 0 0 0 0 0 0 0 0 0 0 0 0 0 0 0 0 0 0 0 0 0 0 0 0 0 0 0 0 0 0 0 0 0 0 0 0 0 0 0 0 0 0 0 0 0 0 0 0 0 0 0 0 0 0 0 0 0 0 0 0 -209 -209 -209 -209 -209 174 167 170 171 178 180 183 185 -209 -209 -209 -209 -209 -177 -177 -209 -193 311 311 -209 -209 63 -209 -209 -209 -209 -209 -209 -193 -209 -209 -193 -193 -193 -177 278 288 298 -209 -209 315 323 -193 -209 -177 363 368 -209 -209 -209 -209 471 -209 -209 -209 -209 -209 -209 -209 -209 -209 -209 -209 -209 -209 -209 -193 -209 -209 -209 -193 -209 -209 -209 -209 152 146 148 146 146 146 145 144 144 -209 401 401 406 -209 -209 -209 -209 -193 -209 -193 151 153 155 -193 -193 -209 -209 -209 -209 -209 -209 -209 143 147 150 146 146 150 152 149 151 150 150 150 151 -193 -193 149 -193 150 151 -209 -193 151 149 147 149 152 151 149 -193 -193 149 150 151 151 150 153 155 154 155 157 156 150 152 149 148 149 150 151 151 155 154 156 158 161 161 161 160 163 156 161 -209 -209 -209 153 -193 153 153 -193 154 150 156 152 153 154 154 154 153 153 153 154 154 153 153 153 153 154 154 154 153 154 156 155 -209 -209 157 156 157 159 159 156 154 154 154 157 155 155 156 153 156 151 150 150 151 151 151 150 151 149 154 160 161 161 158 160 164 165 165 165 165 165 163 164 161 154 0 0 0 0 0
    0 0 0 0 0 0 0 0 0 0 0 0 0 0 0 0 0 0 0 0 0 0 0 0 0 0 0 0 0 0 0 0 0 0 0 0 0 0 0 0 0 0 0 0 0 0 0 0 0 0 0 0 0 0 0 0 0 0 0 0 0 0 0 0 0 0 0 0 0 -209 -209 -209 -209 -209 173 171 172 178 181 182 182 184 185 186 188 -209 -209 -209 -209 -209 -209 -209 -209 -209 -209 -209 -209 -209 -209 -209 -209 -209 -209 -209 -209 -209 -209 -209 -209 -209 -209 -209 -209 -209 -193 318 -193 -209 359 363 369 -209 -209 -209 -209 -209 -177 -209 -209 -209 -209 -209 -209 -209 -209 -209 -209 -209 -209 -209 -209 -209 -209 -209 -193 -209 -209 -193 -193 -209 -193 148 147 146 -193 -209 -209 -193 391 391 396 -209 -209 540 540 540 -209 -209 -209 -209 -209 -193 -193 -193 -193 -209 -209 -209 -209 -209 -209 138 145 -193 138 143 149 152 148 150 149 149 149 151 151 -209 -193 -209 -209 81 -209 -209 -209 -193 151 154 156 -209 150 150 148 149 150 150 150 150 152 154 154 155 157 157 150 151 150 149 150 151 153 152 157 156 157 159 162 163 162 160 164 157 163 -209 -209 152 153 156 154 154 -193 155 149 158 -209 154 154 155 155 153 153 154 154 154 153 153 153 154 154 154 154 153 155 157 -209 -209 -209 -209 -209 -209 158 157 155 -209 150 153 -193 -209 154 154 150 154 150 150 150 150 151 151 150 151 148 154 159 161 160 159 160 164 166 166 165 165 166 165 165 161 153 0 0 0 0 0
    0 0 0 0 0 0 0 0 0 0 0 0 0 0 0 0 0 0 0 0 0 0 0 0 0 0 0 0 0 0 0 0 0 0 0 0 0 0 0 0 0 0 0 0 0 0 0 0 0 0 0 0 0 0 0 0 0 0 0 0 0 0 0 0 0 0 0 0 0 178 176 178 177 176 173 173 175 180 182 183 183 186 186 186 189 -209 -209 -209 -209 -209 -209 -209 -209 -209 -209 -209 -209 -209 -177 -177 -177 -209 -193 -177 -209 -177 -209 -209 -209 -209 -209 -209 -209 -209 -209 -209 -209 -209 -209 -209 -193 -193 -209 -209 -193 -193 -209 -209 -209 -209 -193 -209 -209 -209 -209 -193 -209 -209 -209 -209 -209 -209 -193 -209 -209 -209 -209 -209 781 -193 783 -193 -209 -209 -177 -177 -209 -193 -209 -193 -209 534 539 541 541 539 -209 -209 -209 -209 -209 -209 -209 -193 -209 -209 -209 -209 -209 -209 -209 -209 -209 -209 129 -209 -193 -209 148 150 149 149 150 152 -209 -193 -193 -209 -209 81 -209 -209 -209 -209 -193 163 -209 -209 -209 150 -193 148 149 150 151 150 153 155 155 156 160 162 155 -209 -209 151 152 152 157 153 159 157 159 161 163 163 163 161 164 158 165 -209 -209 -209 156 159 161 158 -209 -209 -209 -209 -209 -209 -209 -209 -209 -209 -209 -209 -209 -209 153 153 152 154 154 154 154 153 156 -209 -193 -193 -193 -193 0 -209 -209 -209 -209 -209 141 151 -209 -209 -209 -209 150 154 150 151 150 150 151 151 150 151 149 154 158 160 159 157 159 164 165 164 165 166 166 166 165 161 152 0 0 0 0 0
    0 0 0 0 0 0 0 0 0 0 0 0 0 0 0 0 0 0 0 0 0 0 0 0 0 0 0 0 0 0 0 0 0 0 0 0 0 0 0 0 0 0 0 0 0 0 0 0 0 0 0 0 0 0 0 0 0 0 0 0 0 0 0 0 0 0 0 0 0 178 -177 176 175 176 173 173 175 180 182 183 -193 189 186 187 190 -209 -209 -209 -209 -209 -193 -209 -209 -209 -209 -209 -209 -209 -193 -177 -209 -209 -209 -209 -209 -209 -209 -209 -209 -209 -209 -209 -209 -209 -193 -209 -209 -209 -193 -177 -177 -177 -177 -209 -209 -193 -209 182 -209 -193 182 -209 -193 -193 -209 -209 -209 -193 -193 -193 -177 -177 189 -209 -209 -193 -209 -209 -209 -193 -193 -209 184 -209 -193 -209 526 -193 -193 -209 530 534 540 542 543 -193 -193 -193 -193 -193 -209 -193 -209 -209 -209 -209 -193 -209 -193 0 -209 -193 -209 -209 -209 -209 -209 181 187 -209 -209 151 153 157 166 -209 -209 -209 -209 -193 88 -193 -209 -209 -209 175 -209 -193 -209 -209 -209 -193 -209 -209 -209 -193 155 155 158 161 165 166 169 -209 -209 -193 156 154 163 154 163 158 160 162 164 164 165 164 166 164 170 -209 -209 -209 176 -209 174 -209 -209 -209 189 -209 -209 -209 248 -209 -209 -209 -209 374 377 -209 153 153 152 154 154 155 156 155 159 -209 -193 -209 0 0 0 0 -209 -209 -209 -209 -209 -209 -209 -209 -209 -209 -193 155 152 152 150 150 152 152 151 153 151 154 160 162 162 159 160 165 164 163 164 165 165 164 161 155 150 0 0 0 0 0
    0 0 0 0 0 0 0 0 0 0 0 0 0 0 0 0 0 0 0 0 0 0 0 0 0 0 0 0 0 0 0 0 0 0 0 0 0 0 0 0 0 0 0 0 0 0 0 0 0 0 0 0 0 0 0 0 0 0 0 0 0 0 0 0 0 0 0 0 0 178 -177 174 175 175 173 172 175 179 181 182 183 189 185 187 190 194 -209 -209 -209 -209 -193 -209 -209 -209 -209 -193 -209 -209 -209 -209 -209 -209 -209 -209 -209 -209 -209 -209 -209 -193 -209 177 180 182 185 187 192 194 -193 -209 -193 -193 -177 -193 -209 -193 -209 183 -209 -193 183 -209 -193 -193 -209 183 185 181 183 185 186 186 187 185 -209 -209 -209 -193 -193 -193 -193 -209 184 184 -209 -193 -193 -193 -193 -209 -193 -193 540 544 -193 -193 178 178 175 176 -193 177 -209 -193 -209 -209 -193 -209 -209 0 -209 177 179 181 182 182 181 181 183 187 -209 -209 165 165 170 182 179 178 180 182 -193 -193 182 182 176 180 -193 42 -193 -177 -209 -209 -209 -209 -209 -193 162 162 164 166 167 170 173 178 178 173 -209 -209 172 -209 -209 162 163 165 166 166 -193 -209 -193 171 174 177 176 180 181 178 176 179 174 179 186 184 -193 -193 -193 -209 -209 -209 278 -209 -209 -209 -193 -209 154 158 -209 -209 -193 -209 -209 -209 -193 -209 0 0 0 0 0 -209 -209 -209 -209 -209 -209 -193 -209 -209 -193 163 154 155 151 150 153 152 152 154 153 156 165 165 166 164 165 166 166 164 166 166 166 165 156 152 147 0 0 0 0 0
    0 0 0 0 0 0 0 0 0 0 0 0 0 0 0 0 0 0 0 0 0 0 0 0 0 0 0 0 0 0 0 0 0 0 0 0 0 0 0 0 0 0 0 0 0 0 0 0 0 0 0 0 0 0 0 0 0 0 0 0 0 0 0 0 0 0 0 0 0 179 178 175 176 177 175 174 176 179 180 181 182 185 184 186 188 190 -209 -209 -209 -209 -209 -209 -209 -209 -209 -209 -193 -193 182 -209 -209 -209 -209 -209 -209 -209 -209 -209 -193 181 181 180 181 182 185 186 189 190 -193 -193 -193 -209 -209 -209 -209 184 -209 183 -209 182 183 183 184 -193 184 183 185 182 184 185 187 186 187 185 185 184 185 185 -193 183 -193 183 183 183 183 -193 -193 -193 -209 182 -193 -193 -193 -193 -193 -193 178 178 176 177 174 179 184 186 187 189 188 187 185 -209 179 178 179 180 181 180 180 180 179 184 183 175 176 170 173 182 179 180 -193 -193 181 181 182 183 178 182 -193 -209 -193 -193 -193 -209 -209 -209 -209 -209 169 171 169 168 168 171 173 177 179 -193 -193 -209 -209 -209 -209 -193 165 167 167 167 -209 -209 -193 174 177 179 179 181 181 178 177 180 177 178 185 186 191 -209 -193 198 -193 -209 -209 -209 -209 -209 -209 -209 -209 -209 -209 -209 -209 -209 -209 -209 -209 -209 0 0 0 0 0 -193 -193 -209 -209 176 178 180 -177 -177 -177 173 -209 -209 -193 151 156 154 -193 158 160 161 169 169 169 169 169 168 169 166 167 168 169 168 160 -209 148 0 0 0 0 0
    0 0 0 0 0 0 0 0 0 0 0 0 0 0 0 0 0 0 0 0 0 0 0 0 0 0 0 0 0 0 0 0 0 0 0 0 0 0 0 0 0 0 0 0 0 0 0 0 0 0 0 0 0 0 0 0 0 0 0 0 0 0 0 0 0 0 0 0 0 180 179 177 178 178 177 177 178 180 180 181 182 184 183 184 186 187 -193 -193 -209 -193 -193 -193 -209 -209 -209 -209 182 -193 181 -193 -209 -209 -209 -209 185 -193 183 183 -193 182 182 181 182 183 184 186 188 188 -193 -193 187 186 -209 -209 -193 184 183 183 183 182 182 183 183 183 183 183 184 183 184 185 187 186 186 184 184 183 185 184 183 183 182 182 183 183 183 -193 -193 182 -193 183 -193 -193 -193 -193 -193 179 178 179 176 177 175 180 185 185 186 186 186 184 183 183 179 177 179 179 180 180 180 180 179 183 183 181 180 174 176 182 180 180 180 181 181 181 182 183 179 182 182 185 185 185 185 186 185 185 188 186 186 181 -193 -209 -193 174 173 -193 -193 -193 -209 -209 -209 -193 -193 -209 166 168 169 -209 -209 -209 177 181 181 181 181 182 182 180 179 181 178 178 186 186 190 198 197 198 198 -193 -209 -209 -209 -209 -193 178 174 178 -193 -193 -193 -193 -193 -193 -209 -209 -209 -209 -193 0 0 -193 -193 -193 -193 181 181 182 183 180 -193 -193 -209 -209 -193 -209 164 -209 -209 -209 -193 -209 -193 170 170 170 170 170 170 169 168 170 -193 166 -209 -209 144 0 0 0 0 0
    0 0 0 0 0 0 0 0 0 0 0 0 0 0 0 0 0 0 0 0 0 0 0 0 0 0 0 0 0 0 0 0 0 0 0 0 0 0 0 0 0 0 0 0 0 0 0 0 0 0 0 0 0 0 0 0 0 0 0 0 0 0 0 0 0 0 0 0 0 181 180 178 179 179 179 179 179 180 179 180 180 183 182 184 185 186 -209 -209 -209 188 186 188 -209 -209 -193 -209 182 182 181 182 182 -193 -209 -209 185 184 184 183 182 183 182 182 182 183 184 185 188 187 -193 -209 187 186 -209 -193 184 184 183 183 183 182 182 183 183 183 183 183 183 183 184 186 187 185 185 184 184 183 185 184 183 183 182 182 183 182 183 -193 -193 -193 -193 182 -193 -193 -193 -193 180 179 179 179 177 179 178 182 185 185 185 185 184 182 181 181 178 176 178 179 180 180 180 180 180 182 182 181 180 176 178 182 180 180 181 181 181 181 183 183 181 183 184 185 185 186 185 186 185 185 187 186 185 183 181 -209 -209 178 174 178 -193 -193 182 -193 -193 184 187 191 -209 -209 180 -209 -209 -209 185 184 183 182 182 183 182 181 180 181 178 178 185 185 187 -193 193 195 -193 -209 -209 -209 -209 -209 177 178 177 181 183 183 -193 -193 -193 -193 -193 -193 -209 -209 -209 -209 -209 -193 -193 -193 -193 182 182 182 183 181 -193 -193 -193 -193 -193 -193 -209 -193 175 -193 -193 -193 -193 -193 172 171 170 168 168 -209 -209 -209 -209 142 147 147 146 0 0 0 0 0
    0 0 0 0 0 0 0 0 0 0 0 0 0 0 0 0 0 0 0 0 0 0 0 0 0 0 0 0 0 0 0 0 0 0 0 0 0 0 0 0 0 0 0 0 0 0 0 0 0 0 0 0 0 0 0 0 0 0 0 0 0 0 0 0 0 0 0 0 0 181 180 179 180 180 179 178 179 180 179 180 180 182 182 184 185 186 183 186 185 188 186 187 186 -209 183 -193 182 182 180 181 181 182 183 183 184 184 183 183 183 183 182 182 183 183 183 185 186 186 -209 185 186 185 184 185 184 184 183 183 182 181 182 182 183 183 182 183 183 184 185 186 187 186 185 184 184 183 185 184 183 183 182 182 183 182 -193 -193 -193 -193 -193 182 -193 -193 -193 180 181 180 179 179 178 180 180 182 185 185 185 184 183 181 181 181 179 176 178 179 180 180 180 180 180 183 182 182 181 178 179 182 180 180 181 181 181 182 184 184 183 184 185 186 186 186 185 185 184 185 187 186 185 183 182 -209 -193 180 177 180 180 179 182 183 184 184 187 190 187 186 184 186 -193 187 187 186 184 183 183 183 182 181 180 181 178 178 184 184 185 188 190 192 -193 -193 -209 -209 -209 183 178 179 179 181 183 183 -193 183 -193 -209 -209 -209 -209 -209 -209 -209 -209 -193 184 182 182 183 183 182 183 182 180 -193 -193 -193 -193 -193 175 175 175 177 180 -193 -193 172 172 171 -209 -193 -193 91 99 -209 -177 135 142 147 -193 0 0 0 0 0
    0 0 0 0 0 0 0 0 0 0 0 0 0 0 0 0 0 0 0 0 0 0 0 0 0 0 0 0 0 0 0 0 0 0 0 0 0 0 0 0 0 0 0 0 0 0 0 0 0 0 0 0 0 0 0 0 0 0 0 0 0 0 0 0 0 0 0 0 0 181 180 179 180 179 178 177 177 180 178 179 179 182 181 183 184 185 183 186 185 187 186 187 186 -193 184 -193 182 182 180 181 182 182 183 183 183 183 183 183 183 183 183 182 183 183 183 185 186 185 185 184 185 185 185 185 184 184 184 184 182 182 182 182 182 183 182 182 182 184 185 186 187 185 184 183 183 183 184 183 182 183 182 182 183 182 182 -193 -193 182 180 182 181 181 181 180 182 180 180 180 180 182 181 184 186 185 185 185 183 182 182 181 179 177 179 179 180 180 181 181 181 183 183 183 181 180 179 182 181 181 181 182 181 182 184 184 183 184 185 186 185 185 183 183 183 183 184 184 183 182 182 182 181 181 178 180 181 179 182 182 184 184 187 190 186 184 183 185 184 186 186 185 184 183 183 183 182 182 180 181 178 178 183 183 184 -193 188 189 -193 -209 -209 -209 -209 181 177 178 178 181 183 183 183 183 184 -209 -209 -193 -193 -209 -193 183 -209 184 184 182 182 183 183 183 183 182 181 181 181 -193 -193 179 178 177 176 179 181 179 178 173 172 171 -209 -209 -193 89 95 -209 -209 -209 -209 -177 180 0 0 0 0 0
    0 0 0 0 0 0 0 0 0 0 0 0 0 0 0 0 0 0 0 0 0 0 0 0 0 0 0 0 0 0 0 0 0 0 0 0 0 0 0 0 0 0 0 0 0 0 0 0 0 0 0 0 0 0 0 0 0 0 0 0 0 0 0 0 0 0 0 0 0 180 180 179 179 177 177 176 176 179 177 178 178 181 180 182 183 183 182 186 185 187 186 186 -209 -193 184 -193 183 183 181 182 182 183 183 183 183 183 182 183 183 183 183 183 183 183 183 185 186 185 185 184 185 185 185 185 184 184 184 184 182 182 182 182 182 183 183 183 182 185 185 186 187 184 184 182 182 182 183 183 182 183 182 181 182 182 182 181 181 181 179 182 181 180 181 180 182 180 180 180 179 182 182 184 185 184 185 184 183 182 182 181 179 178 179 180 180 181 182 182 182 184 184 184 183 182 181 182 181 181 182 182 182 182 184 184 184 184 184 185 184 184 183 182 182 182 183 183 182 181 182 181 180 180 177 179 180 179 181 182 184 184 186 188 185 184 183 184 184 185 185 185 184 183 183 183 183 182 181 181 179 179 183 183 184 -193 188 189 -193 -209 -209 -209 -209 181 177 178 178 181 183 183 183 183 -193 -209 -209 -193 -193 -193 -193 183 186 185 184 183 183 183 183 183 183 182 182 181 182 182 181 179 180 178 177 179 181 180 179 175 174 172 171 -193 -209 -209 -209 -193 -209 176 180 182 181 0 0 0 0 0
    0 0 0 0 0 0 0 0 0 0 0 0 0 0 0 0 0 0 0 0 0 0 0 0 0 0 0 0 0 0 0 0 0 0 0 0 0 0 0 0 0 0 0 0 0 0 0 0 0 0 0 0 0 0 0 0 0 0 0 0 0 0 0 0 0 0 0 0 0 180 180 179 179 177 178 176 176 178 176 177 177 180 179 182 182 181 181 185 185 186 186 186 -193 184 184 184 182 183 181 182 183 184 184 184 183 184 183 183 183 183 182 183 183 183 183 185 186 185 185 185 185 185 186 186 185 184 183 184 182 182 182 182 183 183 183 184 183 186 187 187 187 183 182 181 181 181 182 183 182 183 182 181 182 181 181 181 181 181 179 182 181 181 181 181 182 181 181 180 180 183 183 184 185 183 184 183 183 182 182 181 180 179 180 180 181 181 182 183 183 184 184 185 184 183 183 183 181 182 182 182 181 182 184 184 184 185 185 185 184 184 182 181 182 181 182 182 182 182 182 182 182 181 179 180 181 180 182 182 185 185 185 188 185 183 183 184 184 -193 184 185 184 183 184 183 183 182 181 182 179 179 183 183 183 185 187 188 187 184 -193 185 -193 183 179 178 178 181 183 183 183 182 -193 -193 -209 185 -193 185 184 184 187 185 184 183 183 184 184 183 183 182 182 182 182 182 182 180 181 180 178 180 181 181 180 178 176 176 175 176 180 177 175 174 176 178 180 182 182 0 0 0 0 0
    0 0 0 0 0 0 0 0 0 0 0 0 0 0 0 0 0 0 0 0 0 0 0 0 0 0 0 0 0 0 0 0 0 0 0 0 0 0 0 0 0 0 0 0 0 0 0 0 0 0 0 0 0 0 0 0 0 0 0 0 0 0 0 0 0 0 0 0 0 180 180 180 180 178 178 176 176 178 176 176 176 180 179 182 181 180 181 186 185 188 186 187 185 184 184 184 182 182 181 182 183 184 -193 184 184 184 183 183 183 183 182 183 183 183 182 184 185 184 184 184 184 185 186 186 185 -209 183 184 182 181 182 182 183 183 184 185 184 187 190 -209 -177 -209 -193 179 179 181 181 182 181 184 182 182 182 181 181 181 181 181 179 182 182 182 -209 -193 184 182 182 182 181 184 183 183 -209 182 184 182 182 181 181 180 179 177 179 179 180 181 182 183 183 184 184 184 183 183 183 183 181 182 182 182 182 184 185 184 185 185 185 186 184 183 182 181 181 181 182 182 182 183 183 183 184 183 182 182 183 182 183 184 185 185 185 185 184 183 183 184 183 184 183 184 185 184 184 184 183 183 182 182 181 179 183 183 183 184 187 187 187 185 187 187 185 185 183 181 180 181 183 183 183 183 183 183 185 185 184 184 183 183 186 184 183 183 183 184 184 183 183 182 182 182 182 182 182 180 182 181 179 181 183 182 181 180 180 180 177 180 181 179 178 177 181 180 183 184 183 0 0 0 0 0
    0 0 0 0 0 0 0 0 0 0 0 0 0 0 0 0 0 0 0 0 0 0 0 0 0 0 0 0 0 0 0 0 0 0 0 0 0 0 0 0 0 0 0 0 0 0 0 0 0 0 0 0 0 0 0 0 0 0 0 0 0 0 0 0 0 0 0 0 0 181 181 181 180 178 178 177 176 179 176 177 176 179 178 181 180 179 181 -193 186 188 186 187 185 184 185 184 182 182 180 182 183 184 -193 185 184 185 183 183 183 183 182 183 183 183 181 184 -193 184 183 183 184 184 185 186 185 -209 181 184 181 180 182 182 183 183 184 185 184 187 193 -209 -177 -209 -209 -193 179 180 181 182 181 184 182 182 182 181 181 180 181 181 178 183 182 -209 -209 -209 -193 -193 183 -209 182 184 -193 -193 -209 -193 183 181 181 181 180 179 178 176 179 179 180 181 183 183 184 184 183 183 182 183 183 183 182 182 183 183 183 185 186 185 186 186 186 187 185 184 182 181 181 181 182 183 182 183 184 184 186 185 184 183 183 183 184 184 185 184 184 184 183 183 183 183 183 183 183 184 185 184 184 185 184 184 183 184 183 182 184 185 185 185 186 186 186 186 187 188 186 185 184 182 183 182 183 183 183 182 183 183 185 185 184 184 183 183 185 183 183 182 182 183 184 182 182 182 182 182 182 182 181 180 181 181 180 181 183 181 180 181 182 183 180 181 181 178 179 179 182 182 183 185 184 0 0 0 0 0
    0 0 0 0 0 0 0 0 0 0 0 0 0 0 0 0 0 0 0 0 0 0 0 0 0 0 0 0 0 0 0 0 0 0 0 0 0 0 0 0 0 0 0 0 0 0 0 0 0 0 0 0 0 0 0 0 0 0 0 0 0 0 0 0 0 0 0 0 0 180 181 181 180 178 178 176 175 178 177 177 176 179 177 181 180 178 181 -209 -209 187 186 186 185 184 185 185 182 183 181 182 183 184 185 185 184 184 183 183 184 183 183 183 182 183 181 184 -193 -193 183 182 183 184 185 186 -209 -193 179 183 181 180 182 182 183 183 184 185 184 188 -209 -193 -177 -209 -193 -193 -193 -193 181 182 181 -193 182 182 183 181 181 180 180 181 178 182 181 -209 -209 -209 -209 -193 -209 -209 181 -193 -193 573 -193 -193 -193 -193 181 180 180 178 178 175 179 179 181 182 183 184 185 184 183 183 182 183 183 183 182 183 183 184 184 186 187 186 186 186 186 187 185 183 181 180 181 181 182 183 182 183 184 184 186 186 185 184 183 183 183 184 185 183 183 183 182 183 182 183 182 182 182 184 185 184 185 185 184 185 184 185 184 182 184 184 183 183 184 182 183 183 185 186 185 185 185 182 183 182 182 182 181 181 182 182 183 184 183 183 183 184 186 184 183 183 183 183 183 182 181 181 181 181 181 182 181 179 180 181 181 181 183 181 180 181 182 184 181 181 180 175 178 180 184 183 182 183 183 0 0 0 0 0
    0 0 0 0 0 0 0 0 0 0 0 0 0 0 0 0 0 0 0 0 0 0 0 0 0 0 0 0 0 0 0 0 0 0 0 0 0 0 0 0 0 0 0 0 0 0 0 0 0 0 0 0 0 0 0 0 0 0 0 0 0 0 0 0 0 0 0 0 0 180 181 181 180 176 176 174 173 176 176 176 176 178 177 181 180 -193 -209 -177 -209 187 186 186 185 184 185 186 183 183 182 183 184 185 185 185 184 184 183 183 183 183 182 183 182 182 181 183 -193 -193 182 182 182 183 185 186 -209 831 -193 183 181 180 182 183 183 184 185 186 -209 188 -209 -193 1008 -209 -177 -177 -193 -193 -193 -177 -177 185 183 183 183 181 181 180 181 181 178 182 180 -209 -193 -209 -209 -209 -209 -209 -193 -193 -193 573 575 574 -193 -193 181 180 180 178 178 175 180 181 182 183 -193 -193 186 184 183 183 182 183 183 183 183 183 184 185 186 188 188 187 187 187 186 187 184 183 181 180 181 181 182 183 182 184 184 184 186 186 185 184 183 183 183 184 185 183 182 181 180 182 182 182 181 182 182 184 184 184 185 185 185 185 185 185 184 182 183 183 -193 -193 -193 182 182 182 184 185 184 185 185 183 184 182 182 182 182 182 182 182 183 183 183 184 185 185 186 184 183 184 184 184 184 182 182 180 181 181 181 181 180 179 180 180 181 181 182 182 180 181 181 184 183 182 180 176 178 181 185 185 183 183 182 0 0 0 0 0
    0 0 0 0 0 0 0 0 0 0 0 0 0 0 0 0 0 0 0 0 0 0 0 0 0 0 0 0 0 0 0 0 0 0 0 0 0 0 0 0 0 0 0 0 0 0 0 0 0 0 0 0 0 0 0 0 0 0 0 0 0 0 0 0 0 0 0 0 0 179 181 181 180 176 176 173 173 -225 176 177 176 178 174 179 -209 -209 -209 331 -209 0 -256 -1 -13928 183 185 186 183 184 183 184 186 187 187 186 184 184 183 183 183 182 182 182 181 181 181 183 -193 -193 182 181 181 183 186 -193 -209 831 -193 183 -193 181 182 183 184 184 186 187 -209 -193 -193 -193 -193 -193 909 909 -177 -177 -209 -193 -177 -193 183 184 184 181 181 181 181 181 179 -193 -193 -209 782 -209 -209 -193 -209 -193 -193 -209 -193 573 574 574 -209 -193 181 181 180 178 177 175 181 182 -193 185 -193 -193 187 185 184 184 182 184 184 184 183 184 185 186 186 189 188 187 -193 187 186 186 184 182 181 179 181 181 182 182 182 183 184 184 186 186 185 184 183 183 183 184 185 182 181 180 179 181 181 181 181 181 181 183 184 184 185 186 186 186 185 186 185 182 183 182 -193 -193 180 181 181 182 184 185 184 185 186 183 183 182 181 181 181 182 182 181 181 182 -193 184 185 185 185 183 183 184 185 184 183 182 181 180 181 181 180 181 180 179 180 180 181 180 182 182 181 181 181 184 185 183 182 177 180 182 186 185 182 182 182 0 0 0 0 0
    0 0 0 0 0 0 0 0 0 0 0 0 0 0 0 0 0 0 0 0 0 0 0 0 0 0 0 0 0 0 0 0 0 0 0 0 0 0 0 0 0 0 0 0 0 0 0 0 0 0 0 0 0 0 0 0 0 0 0 0 0 0 0 0 0 0 0 0 0 178 179 180 178 174 175 -225 -225 -225 -225 -225 -225 -225 -225 177 -209 -209 -193 -193 -209 -209 -193 545 -193 -193 -193 187 184 185 186 186 188 189 188 188 185 184 -193 182 182 182 182 182 -193 181 180 183 -193 -193 182 179 180 -193 -193 -209 -193 -193 -209 -209 -209 -193 183 184 185 185 187 189 -193 -209 -193 -193 -193 -209 -177 -193 -193 -193 -209 -209 -193 -193 184 184 184 182 181 -193 182 181 178 -193 -193 -209 -209 -209 -209 -209 -209 -209 -209 -209 -209 573 -193 574 -209 -193 -193 182 180 178 175 172 186 -193 -193 188 -193 -193 -193 -193 -193 -209 182 184 184 184 184 -193 -209 -193 -209 189 -193 -193 -209 187 185 185 183 181 180 179 180 181 181 182 182 183 184 184 187 186 186 185 184 184 183 184 185 182 181 180 179 181 181 181 181 181 181 183 185 185 185 186 186 186 186 187 185 184 183 -193 -209 -193 179 179 181 182 185 186 185 186 187 185 -209 -193 -193 181 -209 -209 182 181 181 182 -209 -193 185 185 185 183 184 185 185 184 183 181 181 180 181 181 180 180 180 180 180 180 181 181 183 183 181 180 180 185 186 184 181 176 179 182 185 184 180 177 178 0 0 0 0 0
    0 0 0 0 0 0 0 0 0 0 0 0 0 0 0 0 0 0 0 0 0 0 0 0 0 0 0 0 0 0 0 0 0 0 0 0 0 0 0 0 0 0 0 0 0 0 0 0 0 0 0 0 0 0 0 0 0 0 0 0 0 0 0 0 0 0 0 0 0 -225 -225 -225 -225 -225 -225 -225 -225 -225 -225 -225 -225 -225 -225 -225 -225 -225 -225 -225 -209 548 548 546 545 547 -193 190 186 188 189 188 189 191 190 189 185 186 -209 -193 183 183 182 183 -193 181 180 181 184 184 185 -209 -193 -193 -193 -193 -193 -193 -209 -209 -209 179 182 -209 -209 -209 190 -209 326 331 -193 -193 -193 -209 -193 -177 -209 -193 -209 -209 -193 188 185 -193 -209 -209 -209 -209 -209 -193 -193 0 -209 -209 -209 -209 -209 -209 -209 -209 -209 -209 -209 -193 -193 -193 -209 -193 -193 179 174 173 171 164 -193 -209 190 -193 -193 -193 -193 769 -193 -209 182 184 -209 185 -209 -193 19 -177 -193 -193 -193 -193 -193 188 187 186 183 182 180 180 181 181 182 183 183 184 184 186 189 187 187 186 184 184 184 185 185 182 182 180 179 182 181 181 181 181 181 184 186 185 186 187 188 187 187 188 187 185 -209 -209 -209 -209 -193 180 182 183 186 188 187 189 189 187 -209 -209 -193 180 -193 -193 182 182 181 -209 -209 -193 186 186 186 184 184 185 186 184 182 181 181 179 181 180 180 180 179 180 179 179 181 180 183 183 183 181 181 185 186 185 183 179 181 183 185 184 181 177 177 0 0 0 0 0
    0 0 0 0 0 0 0 0 0 0 0 0 0 0 0 0 0 0 0 0 0 0 0 0 0 0 0 0 0 0 0 0 0 0 0 0 0 0 0 0 0 0 0 0 0 0 0 0 0 0 0 0 0 0 0 0 0 0 0 0 0 0 0 0 0 0 0 0 0 -225 -225 -225 -225 -225 -225 -225 -225 -225 -225 -225 -225 -225 -225 -225 -225 -225 -225 -225 -225 -225 -225 -225 -225 -225 -225 -225 -225 188 190 190 190 191 190 -177 186 187 -193 -209 -209 -193 182 -209 -177 -209 -209 181 -193 -209 -209 -209 -193 481 486 -225 -225 -225 -209 -193 -209 -209 -209 373 373 374 -193 -193 323 331 -225 -225 -225 -209 -209 -177 -209 -209 -209 -209 -209 -209 -209 -209 -209 -209 -209 -209 -209 -193 0 0 0 -209 -209 -225 -209 -209 -193 -193 1008 1008 1008 -209 -193 -193 -209 844 844 844 844 167 162 155 -209 -209 -193 -225 -225 -225 771 771 -193 -193 179 -193 635 -209 -209 -177 -177 19 23 -193 -193 189 -193 193 191 190 186 184 180 181 182 183 183 185 185 186 186 188 191 189 189 187 185 185 184 185 185 182 182 180 179 183 181 181 181 180 181 184 187 186 186 188 190 189 189 189 187 -209 -209 -209 -209 -209 -193 178 182 184 186 188 187 188 189 188 -193 -209 -193 180 -193 -193 181 182 -193 -209 -209 -209 186 186 185 184 183 185 186 183 181 180 181 178 180 180 179 180 179 180 180 180 182 182 185 185 185 186 185 187 187 186 -193 181 183 184 186 185 181 179 177 0 0 0 0 0
    0 0 0 0 0 0 0 0 0 0 0 0 0 0 0 0 0 0 0 0 0 0 0 0 0 0 0 0 0 0 0 0 0 0 0 0 0 0 0 0 0 0 0 0 0 0 0 0 0 0 0 0 0 0 0 0 0 0 0 0 0 0 0 0 0 0 0 0 0 -225 -225 -225 -225 -225 -225 -225 -225 -225 -225 -225 -225 -225 -225 -225 -225 -225 -225 -225 -225 -225 -225 -225 -225 -225 -225 -225 -225 -225 -225 -225 -225 -225 -225 -225 -225 -225 -225 -225 -225 -225 -225 -225 -225 -225 -225 -225 -225 -225 -225 -225 -225 -225 -225 -225 -225 -225 -225 -225 -225 -225 -225 -225 -225 -225 -225 -225 -225 -225 -225 -225 -225 -225 -225 -225 -193 291 293 302 -209 -209 -209 318 -193 384 -193 -209 -209 -193 -193 -193 433 -225 -225 -225 -225 -225 -225 -225 -225 -225 -225 -225 -225 -225 -225 -225 -225 -225 -225 -225 -225 -225 -225 -225 -225 -225 -225 -225 -225 -225 -225 -225 -193 -193 -193 -209 27 -177 25 22 -177 -177 -177 -193 -177 197 200 197 195 183 180 180 181 183 184 185 185 186 185 187 189 188 188 187 184 184 184 185 185 182 182 180 180 184 182 182 181 179 180 180 185 185 186 189 192 191 190 190 -193 -193 -209 -209 -209 -209 -193 173 179 183 186 187 186 187 188 187 -193 -209 181 179 -193 -209 182 -209 -209 -209 -209 -209 -193 186 185 -193 184 -193 -193 183 180 180 180 178 180 180 179 179 179 180 180 180 183 184 186 186 187 188 187 188 187 186 -193 181 183 184 185 185 181 179 176 0 0 0 0 0
    0 0 0 0 0 0 0 0 0 0 0 0 0 0 0 0 0 0 0 0 0 0 0 0 0 0 0 0 0 0 0 0 0 0 0 0 0 0 0 0 0 0 0 0 0 0 0 0 0 0 0 0 0 0 0 0 0 0 0 0 0 0 0 0 0 0 0 0 0 -225 -225 -225 -225 -225 -225 -225 -225 -225 -225 -225 -225 -225 -225 -225 -225 -225 -225 -225 -225 -225 -225 -225 -225 -225 -225 -225 -225 -225 -225 -225 -225 -225 -225 -225 -225 -225 -225 -225 -225 -225 -225 -225 -225 -225 -225 -225 -225 -225 -225 -225 -225 -225 -225 -225 -225 -225 -225 -225 -225 -225 -225 -225 -225 -225 -225 -225 -225 -225 -225 -225 -225 -225 -225 -225 -225 -225 -225 -225 -225 -225 -225 -225 -225 -225 -225 -225 -225 -225 -225 -225 -225 -225 -225 -225 -225 -225 -225 -225 -225 -225 -225 -225 -225 -225 -225 -225 -225 -225 -225 -225 -225 -225 -225 -225 -225 -225 -225 -225 -225 -225 -225 -225 -225 -225 40 -193 38 36 -177 24 22 -177 -177 -209 -209 -209 -193 198 199 185 183 181 179 183 184 186 186 -225 183 185 189 188 188 186 183 184 183 186 184 178 181 179 -193 185 181 180 179 178 180 -193 184 -193 186 189 -193 -193 191 -193 -209 -193 -209 -193 -209 -209 -193 171 175 181 184 184 184 186 186 -193 -193 -193 178 178 -193 -193 -209 -209 -209 -209 -209 -209 -209 -209 -209 -209 -209 -209 -209 -209 -209 -193 -193 -193 180 180 179 179 179 181 181 181 184 185 187 189 -193 190 189 191 187 -193 -209 -209 -209 182 184 183 177 177 -209 0 0 0 0 0
    0 0 0 0 0 0 0 0 0 0 0 0 0 0 0 0 0 0 0 0 0 0 0 0 0 0 0 0 0 0 0 0 0 0 0 0 0 0 0 0 0 0 0 0 0 0 0 0 0 0 0 0 0 0 0 0 0 0 0 0 0 0 0 0 0 0 0 0 0 -225 -225 -225 -225 -225 -225 -225 -225 -225 -225 -225 -225 -225 -225 -225 -225 -225 -225 -225 -225 -225 -225 -225 -225 -225 -225 -225 -225 -225 -225 -225 -225 -225 -225 -225 -225 -225 -225 -225 -225 -225 -225 -225 -225 -225 -225 -225 -225 -225 -225 -225 -225 -225 -225 -225 -225 -225 -225 -225 -225 -225 -225 -225 -225 -225 -225 -225 -225 -225 -225 -225 -225 -225 -225 -225 -225 -225 -225 -225 -225 -225 -225 -225 -225 -225 -225 -225 -225 -225 -225 -225 -225 -225 -225 -225 -225 -225 -225 -225 -225 -225 -225 -225 -225 -225 -225 -225 -225 -225 -225 -225 -225 -225 -225 -225 -225 -225 -225 -225 -225 -225 -225 -225 -225 -225 -225 -225 -225 -225 -225 -225 -225 -225 -225 -225 -225 -225 -225 -225 -225 -225 -225 -225 -225 -225 -225 -225 -225 -225 -225 -225 -225 -225 -225 -225 -225 -193 -209 -209 166 167 172 -193 -193 180 178 179 178 176 181 -193 -193 -225 -225 -193 -209 389 -193 420 -177 -209 24 26 -209 -193 -209 -209 -209 178 182 182 -177 187 188 -209 -193 -193 -209 -193 -209 -209 -209 -209 -209 -209 -209 -209 -209 -209 -209 -209 -209 -209 -209 -209 -177 -177 -177 -177 -209 -209 -193 180 180 182 182 182 186 187 190 197 198 198 198 198 192 -209 -209 -209 -209 -209 -209 -209 -209 -209 -209 0 0 0 0 0
    0 0 0 0 0 0 0 0 0 0 0 0 0 0 0 0 0 0 0 0 0 0 0 0 0 0 0 0 0 0 0 0 0 0 0 0 0 0 0 0 0 0 0 0 0 0 0 0 0 0 0 0 0 0 0 0 0 0 0 0 0 0 0 0 0 0 0 0 0 -225 -225 -225 -225 -225 -225 -225 -225 -225 -225 -225 -225 -225 -225 -225 -225 -225 -225 -225 -225 -225 -225 -225 -225 -225 -225 -225 -225 -225 -225 -225 -225 -225 -225 -225 -225 -225 -225 -225 -225 -225 -225 -225 -225 -225 -225 -225 -225 -225 -225 -225 -225 -225 -225 -225 -225 -225 -225 -225 -225 -225 -225 -225 -225 -225 -225 -225 -225 -225 -225 -225 -225 -225 -225 -225 -225 -225 -225 -225 -225 -225 -225 -225 -225 -225 -225 -225 -225 -225 -225 -225 -225 -225 -225 -225 -225 -225 -225 -225 -225 -225 -225 -225 -225 -225 -225 -225 -225 -225 -225 -225 -225 -225 -225 -225 -225 -225 -225 -225 -225 -225 -225 -225 -225 -225 -225 -225 -225 -225 -225 -225 -225 -225 -225 -225 -225 -225 -225 -225 -225 -225 -225 -225 -225 -225 -225 -225 -225 -225 -225 -225 -225 -225 -225 -225 -225 -225 -225 -225 -225 -225 -225 -225 -225 -225 -225 -225 -225 -225 -225 -225 -225 -225 -225 -225 -225 -225 -225 -225 -225 -225 -225 -225 -225 -209 -193 102 97 -209 -209 -209 -177 -177 -209 -209 -209 -209 -209 305 -209 -209 -209 -209 -209 -209 -193 -209 -209 -209 -209 -209 -209 -193 -193 -209 -193 -177 -177 -177 -209 -209 -209 -209 -209 -209 184 182 186 188 192 199 202 206 213 206 -209 209 -209 -209 -209 -209 -209 -209 -209 -209 -209 0 0 0 0 0
    0 0 0 0 0 0 0 0 0 0 0 0 0 0 0 0 0 0 0 0 0 0 0 0 0 0 0 0 0 0 0 0 0 0 0 0 0 0 0 0 0 0 0 0 0 0 0 0 0 0 0 0 0 0 0 0 0 0 0 0 0 0 0 0 0 0 0 0 0 -225 -225 -225 -225 -225 -225 -225 -225 -225 -225 -225 -225 -225 -225 -225 -225 -225 -225 -225 -225 -225 -225 -225 -225 -225 -225 -225 -225 -225 -225 -225 -225 -225 -225 -225 -225 -225 -225 -225 -225 -225 -225 -225 -225 -225 -225 -225 -225 -225 -225 -225 -225 -225 -225 -225 -225 -225 -225 -225 -225 -225 -225 -225 -225 -225 -225 -225 -225 -225 -225 -225 -225 -225 -225 -225 -225 -225 -225 -225 -225 -225 -225 -225 -225 -225 -225 -225 -225 -225 -225 -225 -225 -225 -225 -225 -225 -225 -225 -225 -225 -225 -225 -225 -225 -225 -225 -225 -225 -225 -225 -225 -225 -225 -225 -225 -225 -225 -225 -225 -225 -225 -225 -225 -225 -225 -225 -225 -225 -225 -225 -225 -225 -225 -225 -225 -225 -225 -225 -225 -225 -225 -225 -225 -225 -225 -225 -225 -225 -225 -225 -225 -225 -225 -225 -225 -225 -225 -225 -225 -225 -225 -225 -225 -225 -225 -225 -225 -225 -225 -225 -225 -225 -225 -225 -225 -225 -225 -225 -225 -225 -225 -225 -225 -225 -225 -225 -225 -225 -225 -225 -225 -225 -225 -225 -225 -225 -225 -225 -225 -209 -209 -209 -209 -209 -193 0 -209 -209 -209 -209 -193 -193 -193 -193 -209 -209 -193 -193 -209 -209 -209 -209 -209 -209 -209 -209 -209 187 -193 193 -193 -209 -209 -193 214 212 215 219 -193 -193 -193 213 205 205 207 204 0 0 0 0 0
    0 0 0 0 0 0 0 0 0 0 0 0 0 0 0 0 0 0 0 0 0 0 0 0 0 0 0 0 0 0 0 0 0 0 0 0 0 0 0 0 0 0 0 0 0 0 0 0 0 0 0 0 0 0 0 0 0 0 0 0 0 0 0 0 0 0 0 0 0 -225 -225 -225 -225 -225 -225 -225 -225 -225 -225 -225 -225 -225 -225 -225 -225 -225 -225 -225 -225 -225 -225 -225 -225 -225 -225 -225 -225 -225 -225 -225 -225 -225 -225 -225 -225 -225 -225 -225 -225 -225 -225 -225 -225 -225 -225 -225 -225 -225 -225 -225 -225 -225 -225 -225 -225 -225 -225 -225 -225 -225 -225 -225 -225 -225 -225 -225 -225 -225 -225 -225 -225 -225 -225 -225 -225 -225 -225 -225 -225 -225 -225 -225 -225 -225 -225 -225 -225 -225 -225 -225 -225 -225 -225 -225 -225 -225 -225 -225 -225 -225 -225 -225 -225 -225 -225 -225 -225 -225 -225 -225 -225 -225 -225 -225 -225 -225 -225 -225 -225 -225 -225 -225 -225 -225 -225 -225 -225 -225 -225 -225 -225 -225 -225 -225 -225 -225 -225 -225 -225 -225 -225 -225 -225 -225 -225 -225 -225 -225 -225 -225 -225 -225 -225 -225 -225 -225 -225 -225 -225 -225 -225 -225 -225 -225 -225 -225 -225 -225 -225 -225 -225 -225 -225 -225 -225 -225 -225 -225 -225 -225 -225 -225 -225 -225 -225 -225 -225 -225 -225 -225 -225 -225 -225 -225 -225 -225 -225 -225 -225 -225 -225 -225 -209 -209 0 -209 -209 -209 -209 -193 -193 -193 -193 -209 -209 -193 -209 -209 -209 -209 -209 -209 -193 -209 -209 -209 -209 -209 -209 -209 -209 -209 -209 -209 211 215 219 219 219 -193 216 207 207 209 205 0 0 0 0 0
    0 0 0 0 0 0 0 0 0 0 0 0 0 0 0 0 0 0 0 0 0 0 0 0 0 0 0 0 0 0 0 0 0 0 0 0 0 0 0 0 0 0 0 0 0 0 0 0 0 0 0 0 0 0 0 0 0 0 0 0 0 0 0 0 0 0 0 0 0 -225 -225 -225 -225 -225 -225 -225 -225 -225 -225 -225 -225 -225 -225 -225 -225 -225 -225 -225 -225 -225 -225 -225 -225 -225 -225 -225 -225 -225 -225 -225 -225 -225 -225 -225 -225 -225 -225 -225 -225 -225 -225 -225 -225 -225 -225 -225 -225 -225 -225 -225 -225 -225 -225 -225 -225 -225 -225 -225 -225 -225 -225 -225 -225 -225 -225 -225 -225 -225 -225 -225 -225 -225 -225 -225 -225 -225 -225 -225 -225 -225 -225 -225 -225 -225 -225 -225 -225 -225 -225 -225 -225 -225 -225 -225 -225 -225 -225 -225 -225 -225 -225 -225 -225 -225 -225 -225 -225 -225 -225 -225 -225 -225 -225 -225 -225 -225 -225 -225 -225 -225 -225 -225 -225 -225 -225 -225 -225 -225 -225 -225 -225 -225 -225 -225 -225 -225 -225 -225 -225 -225 -225 -225 -225 -225 -225 -225 -225 -225 -225 -225 -225 -225 -225 -225 -225 -225 -225 -225 -225 -225 -225 -225 -225 -225 -225 -225 -225 -225 -225 -225 -225 -225 -225 -225 -225 -225 -225 -225 -225 -225 -225 -225 -225 -225 -225 -225 -225 -225 -225 -225 -225 -225 -225 -225 -225 -225 -225 -225 -225 -225 -225 -225 -209 -209 -209 -209 -209 -209 -209 -193 0 -193 -193 -193 -209 0 -209 -209 -209 -209 -209 -209 -209 -209 -177 -177 -209 -209 -209 -177 -209 -209 -209 -209 208 214 219 219 219 217 216 207 207 207 204 0 0 0 0 0
    0 0 0 0 0 0 0 0 0 0 0 0 0 0 0 0 0 0 0 0 0 0 0 0 0 0 0 0 0 0 0 0 0 0 0 0 0 0 0 0 0 0 0 0 0 0 0 0 0 0 0 0 0 0 0 0 0 0 0 0 0 0 0 0 0 0 0 0 0 -225 -225 -225 -225 -225 -225 -225 -225 -225 -225 -225 -225 -225 -225 -225 -225 -225 -225 -225 -225 -225 -225 -225 -225 -225 -225 -225 -225 -225 -225 -225 -225 -225 -225 -225 -225 -225 -225 -225 -225 -225 -225 -225 -225 -225 -225 -225 -225 -225 -225 -225 -225 -225 -225 -225 -225 -225 -225 -225 -225 -225 -225 -225 -225 -225 -225 -225 -225 -225 -225 -225 -225 -225 -225 -225 -225 -225 -225 -225 -225 -225 -225 -225 -225 -225 -225 -225 -225 -225 -225 -225 -225 -225 -225 -225 -225 -225 -225 -225 -225 -225 -225 -225 -225 -225 -225 -225 -225 -225 -225 -225 -225 -225 -225 -225 -225 -225 -225 -225 -225 -225 -225 -225 -225 -225 -225 -225 -225 -225 -225 -225 -225 -225 -225 -225 -225 -225 -225 -225 -225 -225 -225 -225 -225 -225 -225 -225 -225 -225 -225 -225 -225 -225 -225 -225 -225 -225 -225 -225 -225 -225 -225 -225 -225 -225 -225 -225 -225 -225 -225 -225 -225 -225 -225 -225 -225 -225 -225 -225 -225 -225 -225 -225 -225 -225 -225 -225 -225 -225 -225 -225 -225 -225 -225 -225 -225 -225 -225 -225 -225 -225 234 -209 -209 -209 -209 -209 -209 -209 -209 -209 0 -193 0 0 -209 -193 -193 -209 -209 44 42 -209 37 38 39 -177 -177 -209 -209 -209 -209 -209 -209 -209 -177 216 221 221 222 218 217 211 210 209 205 0 0 0 0 0
    0 0 0 0 0 0 0 0 0 0 0 0 0 0 0 0 0 0 0 0 0 0 0 0 0 0 0 0 0 0 0 0 0 0 0 0 0 0 0 0 0 0 0 0 0 0 0 0 0 0 0 0 0 0 0 0 0 0 0 0 0 0 0 0 0 0 0 0 0 -225 -225 -225 -225 -225 -225 -225 -225 -225 -225 -225 -225 -225 -225 -225 -225 -225 -225 -225 -225 -225 -225 -225 -225 -225 -225 -225 -225 -225 -225 -225 -225 -225 -225 -225 -225 -225 -225 -225 -225 -225 -225 -225 -225 -225 -225 -225 -225 -225 -225 -225 -225 -225 -225 -225 -225 -225 -225 -225 -225 -225 -225 -225 -225 -225 -225 -225 -225 -225 -225 -225 -225 -225 -225 -225 -225 -225 -225 -225 -225 -225 -225 -225 -225 -225 -225 -225 -225 -225 -225 -225 -225 -225 -225 -225 -225 -225 -225 -225 -225 -225 -225 -225 -225 -225 -225 -225 -225 -225 -225 -225 -225 -225 -225 -225 -225 -225 -225 -225 -225 -225 -225 -225 -225 -225 -225 -225 -225 -225 -225 -225 -225 -225 -225 -225 -225 -225 -225 -225 -225 -225 -225 -225 -225 -225 -225 -225 -225 -225 -225 -225 -225 -225 -225 -225 -225 -225 -225 -225 -225 -225 -225 -225 -225 -225 -225 -225 -225 -225 -225 -225 -225 -225 -225 -225 -225 -225 -225 -225 -225 -225 -225 -225 -225 -225 -225 -225 -225 -225 -225 -225 -225 -225 -225 -225 -225 -225 -225 236 237 236 235 234 -193 -209 -209 -209 -209 -209 -209 -209 -209 -209 -209 -193 -209 -209 -193 -209 -209 -209 39 35 35 36 38 -177 -177 -177 -177 -209 -209 -209 -209 -209 -193 217 225 224 225 220 218 214 212 211 206 0 0 0 0 0
    0 0 0 0 0 0 0 0 0 0 0 0 0 0 0 0 0 0 0 0 0 0 0 0 0 0 0 0 0 0 0 0 0 0 0 0 0 0 0 0 0 0 0 0 0 0 0 0 0 0 0 0 0 0 0 0 0 0 0 0 0 0 0 0 0 0 0 0 0 -225 -225 -225 -225 -225 -225 -225 -225 -225 -225 -225 -225 -225 -225 -225 -225 -225 -225 -225 -225 -225 -225 -225 -225 -225 -225 -225 -225 -225 -225 -225 -225 -225 -225 -225 -225 -225 -225 -225 -225 -225 -225 -225 -225 -225 -225 -225 -225 -225 -225 -225 -225 -225 -225 -225 -225 -225 -225 -225 -225 -225 -225 -225 -225 -225 -225 -225 -225 -225 -225 -225 -225 -225 -225 -225 -225 -225 -225 -225 -225 -225 -225 -225 -225 -225 -225 -225 -225 -225 -225 -225 -225 -225 -225 -225 -225 -225 -225 -225 -225 -225 -225 -225 -225 -225 -225 -225 -225 -225 -225 -225 -225 -225 -225 -225 -225 -225 -225 -225 -225 -225 -225 -225 -225 -225 -225 -225 -225 -225 -225 -225 -225 -225 -225 -225 -225 -225 -225 -225 -225 -225 -225 -225 -225 -225 -225 -225 -225 -225 -225 -225 -225 -225 -225 -225 -225 -225 -225 -225 -225 -225 -225 -225 -225 -225 -225 -225 -225 -225 -225 -225 -225 -225 -225 -225 -225 -225 -225 -225 -225 -225 -225 -225 -225 -225 -225 -225 -225 -225 -225 -225 -225 -225 -225 -225 -225 -225 242 236 237 236 236 236 235 235 -193 -209 -209 -209 -209 -209 -209 -209 -209 -209 -209 -209 -209 -209 -209 -209 38 37 35 35 37 -177 -177 -177 -177 -209 -209 -209 -209 -209 -209 220 227 227 227 220 218 213 212 211 209 0 0 0 0 0
    0 0 0 0 0 0 0 0 0 0 0 0 0 0 0 0 0 0 0 0 0 0 0 0 0 0 0 0 0 0 0 0 0 0 0 0 0 0 0 0 0 0 0 0 0 0 0 0 0 0 0 0 0 0 0 0 0 0 0 0 0 0 0 0 0 0 0 0 0 -225 -225 -225 -225 -225 -225 -225 -225 -225 -225 -225 -225 -225 -225 -225 -225 -225 -225 -225 -225 -225 -225 -225 -225 -225 -225 -225 -225 -225 -225 -225 -225 -225 -225 -225 -225 -225 -225 -225 -225 -225 -225 -225 -225 -225 -225 -225 -225 -225 -225 -225 -225 -225 -225 -225 -225 -225 -225 -225 -225 -225 -225 -225 -225 -225 -225 -225 -225 -225 -225 -225 -225 -225 -225 -225 -225 -225 -225 -225 -225 -225 -225 -225 -225 -225 -225 -225 -225 -225 -225 -225 -225 -225 -225 -225 -225 -225 -225 -225 -225 -225 -225 -225 -225 -225 -225 -225 -225 -225 -225 -225 -225 -225 -225 -225 -225 -225 -225 -225 -225 -225 -225 -225 -225 -225 -225 -225 -225 -225 -225 -225 -225 -225 -225 -225 -225 -225 -225 -225 -225 -225 -225 -225 -225 -225 -225 -225 -225 -225 -225 -225 -225 -225 -225 -225 -225 -225 -225 -225 -225 -225 -225 -225 -225 -225 -225 -225 -225 -225 -225 -225 -225 -225 -225 -225 -225 -225 -225 -225 -225 -225 -225 -225 -225 -225 -225 -225 -225 -225 -225 -225 -225 -225 -225 -225 -225 230 242 236 238 236 235 235 235 235 235 233 -193 -209 -193 -209 -209 -209 -209 -209 -209 -209 -209 -209 -209 -209 39 38 36 35 36 -177 -177 -177 34 -209 -209 -209 -209 -209 -209 220 228 228 229 222 219 212 212 212 211 0 0 0 0 0
    0 0 0 0 0 0 0 0 0 0 0 0 0 0 0 0 0 0 0 0 0 0 0 0 0 0 0 0 0 0 0 0 0 0 0 0 0 0 0 0 0 0 0 0 0 0 0 0 0 0 0 0 0 0 0 0 0 0 0 0 0 0 0 0 0 0 0 0 0 -225 -225 -225 -225 -225 -225 -225 -225 -225 -225 -225 -225 -225 -225 -225 -225 -225 -225 -225 -225 -225 -225 -225 -225 -225 -225 -225 -225 -225 -225 -225 -225 -225 -225 -225 -225 -225 -225 -225 -225 -225 -225 -225 -225 -225 -225 -225 -225 -225 -225 -225 -225 -225 -225 -225 -225 -225 -225 -225 -225 -225 -225 -225 -225 -225 -225 -225 -225 -225 -225 -225 -225 -225 -225 -225 -225 -225 -225 -225 -225 -225 -225 -225 -225 -225 -225 -225 -225 -225 -225 -225 -225 -225 -225 -225 -225 -225 -225 -225 -225 -225 -225 -225 -225 -225 -225 -225 -225 -225 -225 -225 -225 -225 -225 -225 -225 -225 -225 -225 -225 -225 -225 -225 -225 -225 -225 -225 -225 -225 -225 -225 -225 -225 -225 -225 -225 -225 -225 -225 -225 -225 -225 -225 -225 -225 -225 -225 -225 -225 -225 -225 -225 -225 -225 -225 -225 -225 -225 -225 -225 -225 -225 -225 -225 -225 -225 -225 -225 -225 -225 -225 -225 -225 -225 -225 -225 -225 -225 -225 -225 -225 -225 -225 -225 -225 -225 -225 -225 -225 -225 -225 -225 -225 -225 -225 -225 230 242 236 238 236 235 235 235 235 235 233 -193 -209 -193 -209 -209 -209 -209 -209 -209 -209 -209 -209 -209 -209 -209 38 37 37 37 39 39 37 34 30 -209 -209 -209 -209 -209 -209 -177 -177 -177 -177 -177 211 213 213 212 0 0 0 0 0
    0 0 0 0 0 0 0 0 0 0 0 0 0 0 0 0 0 0 0 0 0 0 0 0 0 0 0 0 0 0 0 0 0 0 0 0 0 0 0 0 0 0 0 0 0 0 0 0 0 0 0 0 0 0 0 0 0 0 0 0 0 0 0 0 0 0 0 0 0 -225 -225 -225 -225 -225 -225 -225 -225 -225 -225 -225 -225 -225 -225 -225 -225 -225 -225 -225 -225 -225 -225 -225 -225 -225 -225 -225 -225 -225 -225 -225 -225 -225 -225 -225 -225 -225 -225 -225 -225 -225 -225 -225 -225 -225 -225 -225 -225 -225 -225 -225 -225 -225 -225 -225 -225 -225 -225 -225 -225 -225 -225 -225 -225 -225 -225 -225 -225 -225 -225 -225 -225 -225 -225 -225 -225 -225 -225 -225 -225 -225 -225 -225 -225 -225 -225 -225 -225 -225 -225 -225 -225 -225 -225 -225 -225 -225 -225 -225 -225 -225 -225 -225 -225 -225 -225 -225 -225 -225 -225 -225 -225 -225 -225 -225 -225 -225 -225 -225 -225 -225 -225 -225 -225 -225 -225 -225 -225 -225 -225 -225 -225 -225 -225 -225 -225 -225 -225 -225 -225 -225 -225 -225 -225 -225 -225 -225 -225 -225 -225 -225 -225 -225 -225 -225 -225 -225 -225 -225 -225 -225 -225 -225 -225 -225 -225 -225 -225 -225 -225 -225 -225 -225 -225 -225 -225 -225 -225 -225 -225 -225 -225 -225 -225 -225 -225 -225 -225 -225 -225 -225 -225 -225 -225 -225 -225 230 242 236 238 236 235 235 235 235 235 233 -193 -209 -193 -209 -209 -209 -209 -209 -209 -209 -209 -209 -209 -209 -209 42 39 40 39 39 38 36 31 28 -209 -209 -209 -209 -209 -209 -209 236 -177 -177 -177 -209 211 215 214 0 0 0 0 0
    0 0 0 0 0 0 0 0 0 0 0 0 0 0 0 0 0 0 0 0 0 0 0 0 0 0 0 0 0 0 0 0 0 0 0 0 0 0 0 0 0 0 0 0 0 0 0 0 0 0 0 0 0 0 0 0 0 0 0 0 0 0 0 0 0 0 0 0 0 -225 -225 -225 -225 -225 -225 -225 -225 -225 -225 -225 -225 -225 -225 -225 -225 -225 -225 -225 -225 -225 -225 -225 -225 -225 -225 -225 -225 -225 -225 -225 -225 -225 -225 -225 -225 -225 -225 -225 -225 -225 -225 -225 -225 -225 -225 -225 -225 -225 -225 -225 -225 -225 -225 -225 -225 -225 -225 -225 -225 -225 -225 -225 -225 -225 -225 -225 -225 -225 -225 -225 -225 -225 -225 -225 -225 -225 -225 -225 -225 -225 -225 -225 -225 -225 -225 -225 -225 -225 -225 -225 -225 -225 -225 -225 -225 -225 -225 -225 -225 -225 -225 -225 -225 -225 -225 -225 -225 -225 -225 -225 -225 -225 -225 -225 -225 -225 -225 -225 -225 -225 -225 -225 -225 -225 -225 -225 -225 -225 -225 -225 -225 -225 -225 -225 -225 -225 -225 -225 -225 -225 -225 -225 -225 -225 -225 -225 -225 -225 -225 -225 -225 -225 -225 -225 -225 -225 -225 -225 -225 -225 -225 -225 -225 -225 -225 -225 -225 -225 -225 -225 -225 -225 -225 -225 -225 -225 -225 -225 -225 -225 -225 -225 -225 -225 -225 -225 -225 -225 -225 -225 -225 -225 -225 -225 -225 230 242 236 238 236 235 235 235 235 235 233 -193 -209 -193 -209 -209 -209 -209 -209 -209 -209 -209 -209 -209 -209 -209 -209 -209 42 41 39 -177 30 26 24 -193 -193 0 -193 0 -193 -209 -193 242 243 242 -209 -209 -209 214 0 0 0 0 0
    0 0 0 0 0 0 0 0 0 0 0 0 0 0 0 0 0 0 0 0 0 0 0 0 0 0 0 0 0 0 0 0 0 0 0 0 0 0 0 0 0 0 0 0 0 0 0 0 0 0 0 0 0 0 0 0 0 0 0 0 0 0 0 0 0 0 0 0 0 -225 -225 -225 -225 -225 -225 -225 -225 -225 -225 -225 -225 -225 -225 -225 -225 -225 -225 -225 -225 -225 -225 -225 -225 -225 -225 -225 -225 -225 -225 -225 -225 -225 -225 -225 -225 -225 -225 -225 -225 -225 -225 -225 -225 -225 -225 -225 -225 -225 -225 -225 -225 -225 -225 -225 -225 -225 -225 -225 -225 -225 -225 -225 -225 -225 -225 -225 -225 -225 -225 -225 -225 -225 -225 -225 -225 -225 -225 -225 -225 -225 -225 -225 -225 -225 -225 -225 -225 -225 -225 -225 -225 -225 -225 -225 -225 -225 -225 -225 -225 -225 -225 -225 -225 -225 -225 -225 -225 -225 -225 -225 -225 -225 -225 -225 -225 -225 -225 -225 -225 -225 -225 -225 -225 -225 -225 -225 -225 -225 -225 -225 -225 -225 -225 -225 -225 -225 -225 -225 -225 -225 -225 -225 -225 -225 -225 -225 -225 -225 -225 -225 -225 -225 -225 -225 -225 -225 -225 -225 -225 -225 -225 -225 -225 -225 -225 -225 -225 -225 -225 -225 -225 -225 -225 -225 -225 -225 -225 -225 -225 -225 -225 -225 -225 -225 -225 -225 -225 -225 -225 -225 -225 -225 -225 -225 -225 230 242 236 238 236 235 235 235 235 235 233 -193 -209 -209 -209 -209 -209 -209 -209 -209 -209 -209 -209 -209 -209 -209 -209 -209 -209 -209 -209 -209 -209 24 21 -193 0 0 0 0 0 -209 -193 241 243 243 -209 -209 -209 -209 0 0 0 0 0
    0 0 0 0 0 0 0 0 0 0 0 0 0 0 0 0 0 0 0 0 0 0 0 0 0 0 0 0 0 0 0 0 0 0 0 0 0 0 0 0 0 0 0 0 0 0 0 0 0 0 0 0 0 0 0 0 0 0 0 0 0 0 0 0 0 0 0 0 0 -225 -225 -225 -225 -225 -225 -225 -225 -225 -225 -225 -225 -225 -225 -225 -225 -225 -225 -225 -225 -225 -225 -225 -225 -225 -225 -225 -225 -225 -225 -225 -225 -225 -225 -225 -225 -225 -225 -225 -225 -225 -225 -225 -225 -225 -225 -225 -225 -225 -225 -225 -225 -225 -225 -225 -225 -225 -225 -225 -225 -225 -225 -225 -225 -225 -225 -225 -225 -225 -225 -225 -225 -225 -225 -225 -225 -225 -225 -225 -225 -225 -225 -225 -225 -225 -225 -225 -225 -225 -225 -225 -225 -225 -225 -225 -225 -225 -225 -225 -225 -225 -225 -225 -225 -225 -225 -225 -225 -225 -225 -225 -225 -225 -225 -225 -225 -225 -225 -225 -225 -225 -225 -225 -225 -225 -225 -225 -225 -225 -225 -225 -225 -225 -225 -225 -225 -225 -225 -225 -225 -225 -225 -225 -225 -225 -225 -225 -225 -225 -225 -225 -225 -225 -225 -225 -225 -225 -225 -225 -225 -225 -225 -225 -225 -225 -225 -225 -225 -225 -225 -225 -225 -225 -225 -225 -225 -225 -225 -225 -225 -225 -225 -225 -225 -225 -225 -225 -225 -225 -225 -225 -225 -225 -225 -225 -225 230 242 236 238 236 235 235 235 235 236 233 -193 -209 -209 -209 -209 -209 -209 -209 -209 -209 -209 -209 -209 -209 -209 -209 -209 676 -209 -209 -209 -209 -209 -209 -193 0 0 0 0 0 -193 239 240 242 242 248 -209 -209 -209 0 0 0 0 0
    0 0 0 0 0 0 0 0 0 0 0 0 0 0 0 0 0 0 0 0 0 0 0 0 0 0 0 0 0 0 0 0 0 0 0 0 0 0 0 0 0 0 0 0 0 0 0 0 0 0 0 0 0 0 0 0 0 0 0 0 0 0 0 0 0 0 0 0 0 -225 -225 -225 -225 -225 -225 -225 -225 -225 -225 -225 -225 -225 -225 -225 -225 -225 -225 -225 -225 -225 -225 -225 -225 -225 -225 -225 -225 -225 -225 -225 -225 -225 -225 -225 -225 -225 -225 -225 -225 -225 -225 -225 -225 -225 -225 -225 -225 -225 -225 -225 -225 -225 -225 -225 -225 -225 -225 -225 -225 -225 -225 -225 -225 -225 -225 -225 -225 -225 -225 -225 -225 -225 -225 -225 -225 -225 -225 -225 -225 -225 -225 -225 -225 -225 -225 -225 -225 -225 -225 -225 -225 -225 -225 -225 -225 -225 -225 -225 -225 -225 -225 -225 -225 -225 -225 -225 -225 -225 -225 -225 -225 -225 -225 -225 -225 -225 -225 -225 -225 -225 -225 -225 -225 -225 -225 -225 -225 -225 -225 -225 -225 -225 -225 -225 -225 -225 -225 -225 -225 -225 -225 -225 -225 -225 -225 -225 -225 -225 -225 -225 -225 -225 -225 -225 -225 -225 -225 -225 -225 -225 -225 -225 -225 -225 -225 -225 -225 -225 -225 -225 -225 -225 -225 -225 -225 -225 -225 -225 -225 -225 -225 -225 -225 -225 -225 -225 -225 -225 -225 -225 -225 -225 -225 -225 -225 -225 241 235 238 236 235 236 235 236 236 234 235 -209 -209 -209 -209 -209 -209 -209 -209 -209 -209 -209 -209 -209 -209 -209 -209 -209 -209 -209 -209 -209 -209 -209 -209 0 0 0 0 0 -209 240 242 245 -193 250 -193 -209 -209 0 0 0 0 0
    0 0 0 0 0 0 0 0 0 0 0 0 0 0 0 0 0 0 0 0 0 0 0 0 0 0 0 0 0 0 0 0 0 0 0 0 0 0 0 0 0 0 0 0 0 0 0 0 0 0 0 0 0 0 0 0 0 0 0 0 0 0 0 0 0 0 0 0 0 -225 -225 -225 -225 -225 -225 -225 -225 -225 -225 -225 -225 -225 -225 -225 -225 -225 -225 -225 -225 -225 -225 -225 -225 -225 -225 -225 -225 -225 -225 -225 -225 -225 -225 -225 -225 -225 -225 -225 -225 -225 -225 -225 -225 -225 -225 -225 -225 -225 -225 -225 -225 -225 -225 -225 -225 -225 -225 -225 -225 -225 -225 -225 -225 -225 -225 -225 -225 -225 -225 -225 -225 -225 -225 -225 -225 -225 -225 -225 -225 -225 -225 -225 -225 -225 -225 -225 -225 -225 -225 -225 -225 -225 -225 -225 -225 -225 -225 -225 -225 -225 -225 -225 -225 -225 -225 -225 -225 -225 -225 -225 -225 -225 -225 -225 -225 -225 -225 -225 -225 -225 -225 -225 -225 -225 -225 -225 -225 -225 -225 -225 -225 -225 -225 -225 -225 -225 -225 -225 -225 -225 -225 -225 -225 -225 -225 -225 -225 -225 -225 -225 -225 -225 -225 -225 -225 -225 -225 -225 -225 -225 -225 -225 -225 -225 -225 -225 -225 -225 -225 -225 -225 -225 -225 -225 -225 -225 -225 -225 -225 -225 -225 -225 -225 -225 -225 -225 -225 -225 -225 -225 -225 -225 -225 -225 -225 -225 -225 236 239 235 234 236 236 237 237 236 238 -209 -209 -209 -209 -209 -209 -209 -209 -209 -209 -209 -209 -209 -209 -209 -209 -209 -209 -209 -209 -209 -209 -209 -209 -193 0 -193 0 0 -209 -209 -193 -209 -209 252 253 253 255 0 0 0 0 0
    0 0 0 0 0 0 0 0 0 0 0 0 0 0 0 0 0 0 0 0 0 0 0 0 0 0 0 0 0 0 0 0 0 0 0 0 0 0 0 0 0 0 0 0 0 0 0 0 0 0 0 0 0 0 0 0 0 0 0 0 0 0 0 0 0 0 0 0 0 -225 -225 -225 -225 -225 -225 -225 -225 -225 -225 -225 -225 -225 -225 -225 -225 -225 -225 -225 -225 -225 -225 -225 -225 -225 -225 -225 -225 -225 -225 -225 -225 -225 -225 -225 -225 -225 -225 -225 -225 -225 -225 -225 -225 -225 -225 -225 -225 -225 -225 -225 -225 -225 -225 -225 -225 -225 -225 -225 -225 -225 -225 -225 -225 -225 -225 -225 -225 -225 -225 -225 -225 -225 -225 -225 -225 -225 -225 -225 -225 -225 -225 -225 -225 -225 -225 -225 -225 -225 -225 -225 -225 -225 -225 -225 -225 -225 -225 -225 -225 -225 -225 -225 -225 -225 -225 -225 -225 -225 -225 -225 -225 -225 -225 -225 -225 -225 -225 -225 -225 -225 -225 -225 -225 -225 -225 -225 -225 -225 -225 -225 -225 -225 -225 -225 -225 -225 -225 -225 -225 -225 -225 -225 -225 -225 -225 -225 -225 -225 -225 -225 -225 -225 -225 -225 -225 -225 -225 -225 -225 -225 -225 -225 -225 -225 -225 -225 -225 -225 -225 -225 -225 -225 -225 -225 -225 -225 -225 -225 -225 -225 -225 -225 -225 -225 -225 -225 -225 -225 -225 -225 -225 -225 -225 -225 -225 -225 -225 -225 -225 -209 231 234 236 236 -209 -209 -209 -209 -209 -209 -209 -209 -209 -209 -209 -209 -209 -209 -209 60 -209 -209 -209 -209 -209 -209 -209 -209 -209 190 195 -193 -193 -209 0 0 -209 -209 -209 -209 -209 252 252 253 257 0 0 0 0 0
    0 0 0 0 0 0 0 0 0 0 0 0 0 0 0 0 0 0 0 0 0 0 0 0 0 0 0 0 0 0 0 0 0 0 0 0 0 0 0 0 0 0 0 0 0 0 0 0 0 0 0 0 0 0 0 0 0 0 0 0 0 0 0 0 0 0 0 0 0 -225 -225 -225 -225 -225 -225 -225 -225 -225 -225 -225 -225 -225 -225 -225 -225 -225 -225 -225 -225 -225 -225 -225 -225 -225 -225 -225 -225 -225 -225 -225 -225 -225 -225 -225 -225 -225 -225 -225 -225 -225 -225 -225 -225 -225 -225 -225 -225 -225 -225 -225 -225 -225 -225 -225 -225 -225 -225 -225 -225 -225 -225 -225 -225 -225 -225 -225 -225 -225 -225 -225 -225 -225 -225 -225 -225 -225 -225 -225 -225 -225 -225 -225 -225 -225 -225 -225 -225 -225 -225 -225 -225 -225 -225 -225 -225 -225 -225 -225 -225 -225 -225 -225 -225 -225 -225 -225 -225 -225 -225 -225 -225 -225 -225 -225 -225 -225 -225 -225 -225 -225 -225 -225 -225 -225 -225 -225 -225 -225 -225 -225 -225 -225 -225 -225 -225 -225 -225 -225 -225 -225 -225 -225 -225 -225 -225 -225 -225 -225 -225 -225 -225 -225 -225 -225 -225 -225 -225 -225 -225 -225 -225 -225 -225 -225 -225 -225 -225 -225 -225 -225 -225 -225 -225 -225 -225 -225 -225 -225 -225 -225 -225 -225 -225 -225 -225 -225 -225 -225 -225 -225 -225 -225 -225 -225 -225 -225 -225 -225 -225 -225 -225 -209 -209 -209 -209 -209 -209 -209 -209 -209 -209 -209 -209 -209 -209 -209 -209 -209 -209 57 -209 -209 -209 -209 -209 -209 -209 -209 -209 194 199 199 -209 -209 -193 0 -209 -209 -209 -209 -209 -193 -209 -193 -209 0 0 0 0 0
    0 0 0 0 0 0 0 0 0 0 0 0 0 0 0 0 0 0 0 0 0 0 0 0 0 0 0 0 0 0 0 0 0 0 0 0 0 0 0 0 0 0 0 0 0 0 0 0 0 0 0 0 0 0 0 0 0 0 0 0 0 0 0 0 0 0 0 0 0 -225 -225 -225 -225 -225 -225 -225 -225 -225 -225 -225 -225 -225 -225 -225 -225 -225 -225 -225 -225 -225 -225 -225 -225 -225 -225 -225 -225 -225 -225 -225 -225 -225 -225 -225 -225 -225 -225 -225 -225 -225 -225 -225 -225 -225 -225 -225 -225 -225 -225 -225 -225 -225 -225 -225 -225 -225 -225 -225 -225 -225 -225 -225 -225 -225 -225 -225 -225 -225 -225 -225 -225 -225 -225 -225 -225 -225 -225 -225 -225 -225 -225 -225 -225 -225 -225 -225 -225 -225 -225 -225 -225 -225 -225 -225 -225 -225 -225 -225 -225 -225 -225 -225 -225 -225 -225 -225 -225 -225 -225 -225 -225 -225 -225 -225 -225 -225 -225 -225 -225 -225 -225 -225 -225 -225 -225 -225 -225 -225 -225 -225 -225 -225 -225 -225 -225 -225 -225 -225 -225 -225 -225 -225 -225 -225 -225 -225 -225 -225 -225 -225 -225 -225 -225 -225 -225 -225 -225 -225 -225 -225 -225 -225 -225 -225 -225 -225 -225 -225 -225 -225 -225 -225 -225 -225 -225 -225 -225 -225 -225 -225 -225 -225 -225 -225 -225 -225 -225 -225 -225 -225 -225 -225 -225 -225 -225 -225 -225 -225 -225 -225 -225 -209 -209 -209 -209 -209 -209 -209 -209 -209 -209 -209 -209 -209 -209 -209 -209 -209 -209 -209 -209 -209 -209 -209 -209 -209 199 198 -193 196 -193 -209 -193 -209 -209 -209 -209 -209 -209 -209 -209 -209 -209 -209 -193 0 0 0 0 0
    0 0 0 0 0 0 0 0 0 0 0 0 0 0 0 0 0 0 0 0 0 0 0 0 0 0 0 0 0 0 0 0 0 0 0 0 0 0 0 0 0 0 0 0 0 0 0 0 0 0 0 0 0 0 0 0 0 0 0 0 0 0 0 0 0 0 0 0 0 -225 -225 -225 -225 -225 -225 -225 -225 -225 -225 -225 -225 -225 -225 -225 -225 -225 -225 -225 -225 -225 -225 -225 -225 -225 -225 -225 -225 -225 -225 -225 -225 -225 -225 -225 -225 -225 -225 -225 -225 -225 -225 -225 -225 -225 -225 -225 -225 -225 -225 -225 -225 -225 -225 -225 -225 -225 -225 -225 -225 -225 -225 -225 -225 -225 -225 -225 -225 -225 -225 -225 -225 -225 -225 -225 -225 -225 -225 -225 -225 -225 -225 -225 -225 -225 -225 -225 -225 -225 -225 -225 -225 -225 -225 -225 -225 -225 -225 -225 -225 -225 -225 -225 -225 -225 -225 -225 -225 -225 -225 -225 -225 -225 -225 -225 -225 -225 -225 -225 -225 -225 -225 -225 -225 -225 -225 -225 -225 -225 -225 -225 -225 -225 -225 -225 -225 -225 -225 -225 -225 -225 -225 -225 -225 -225 -225 -225 -225 -225 -225 -225 -225 -225 -225 -225 -225 -225 -225 -225 -225 -225 -225 -225 -225 -225 -225 -225 -225 -225 -225 -225 -225 -225 -225 -225 -225 -225 -225 -225 -225 -225 -225 -225 -225 -225 -225 -225 -225 -225 -225 -225 -225 -225 -225 -225 -225 -225 -225 -225 -225 -225 -209 -209 -209 -209 -209 -209 -209 -209 -209 -209 -209 -209 -209 -193 -193 -193 0 0 -193 -209 -209 -209 -209 -209 -209 -209 -209 -209 -209 -209 -209 -209 -209 -209 -209 -209 -209 -209 -209 -209 -209 -209 -193 -209 -209 0 0 0 0 0</data></disparity>
</opencv_storage>
