<?xml version="1.0"?>
<opencv_storage>
<gps_time_stamp>28542</gps_time_stamp>
<gps_x>-6.6160917282104492e+000</gps_x>
<gps_y>1.0299414396286011e+000</gps_y>
<gps_z>-2.0017597675323486e+000</gps_z>
<image_time_stamp>16464</image_time_stamp>
<disparity type_id="opencv-matrix">
  <rows>76</rows>
  <cols>320</cols>
  <dt>s</dt>
  <data>
    0 0 0 0 0 0 0 0 0 0 0 0 0 0 0 0 0 0 0 0 0 0 0 0 0 0 0 0 0 0 0 0 0 0 0 0 0 0 0 0 0 0 0 0 0 0 0 0 0 0 0 0 0 0 0 0 0 0 0 0 0 0 0 0 0 0 0 0 0 -225 135 135 134 136 135 135 136 136 136 136 136 137 -193 137 136 -209 -193 -209 -209 -209 -209 -209 -209 -209 -209 -209 -209 -209 132 -193 132 -193 -193 -193 -193 128 129 132 132 132 133 -193 -193 133 -193 -193 -209 -193 -193 -193 -193 -193 -209 -193 -209 -193 -193 -209 -209 -209 -209 -209 -193 -177 941 942 -193 -209 -209 -209 -193 385 387 387 389 388 -193 -193 -193 136 135 -209 -209 -193 -209 133 -209 -209 -193 -193 129 131 131 129 131 129 132 -193 134 135 -209 -193 -193 -193 135 134 133 132 130 126 128 128 129 128 131 132 133 133 134 133 133 133 133 133 131 128 126 126 128 128 125 129 128 130 130 132 131 130 130 131 129 129 129 130 127 129 129 128 129 130 131 132 132 133 131 132 130 131 130 131 129 130 130 133 132 133 133 135 132 132 133 131 131 131 132 131 129 133 133 131 135 133 134 133 132 133 131 132 133 132 133 135 134 133 134 133 133 132 132 132 128 127 127 122 122 121 119 117 116 115 117 118 119 121 126 126 128 130 130 129 127 127 126 -209 -209 -209 -209 -209 -209 -209 -209 135 136 137 137 140 139 140 139 139 138 139 139 140 138 0 0 0 0 0
    0 0 0 0 0 0 0 0 0 0 0 0 0 0 0 0 0 0 0 0 0 0 0 0 0 0 0 0 0 0 0 0 0 0 0 0 0 0 0 0 0 0 0 0 0 0 0 0 0 0 0 0 0 0 0 0 0 0 0 0 0 0 0 0 0 0 0 0 0 -225 -225 -225 -225 135 -209 136 136 -193 -193 -193 138 138 -193 138 -209 -193 -193 429 424 -225 -193 -193 -193 308 -209 -209 -209 -209 -193 -193 -193 -193 -193 -193 -193 128 129 -193 -193 -193 -193 -193 -209 -193 -193 -209 -209 -209 603 605 -209 -193 -209 -193 -193 -193 -209 -209 -209 -193 -209 -209 -193 938 940 941 -193 -209 -209 -209 -209 384 386 384 387 387 -193 -193 137 135 133 -193 470 -193 -193 -209 -209 -209 -209 -193 -193 131 130 128 131 -193 -193 -209 133 -209 -177 -177 -177 -193 135 134 133 132 130 126 128 128 130 128 131 132 133 133 134 -193 -193 -193 133 -193 -193 -193 126 125 127 127 124 128 127 129 129 132 130 130 130 131 129 129 129 130 127 130 129 129 130 131 132 133 133 133 131 133 130 131 131 131 129 130 130 134 132 133 134 135 132 132 133 131 131 131 132 131 130 133 134 131 136 133 134 132 132 133 131 132 132 132 133 135 134 133 133 132 131 130 130 130 124 123 123 112 116 116 114 114 116 117 119 120 121 122 126 126 128 129 127 128 126 126 125 -209 -209 98 91 91 91 94 -209 -177 137 138 137 140 139 140 139 139 139 139 139 140 138 0 0 0 0 0
    0 0 0 0 0 0 0 0 0 0 0 0 0 0 0 0 0 0 0 0 0 0 0 0 0 0 0 0 0 0 0 0 0 0 0 0 0 0 0 0 0 0 0 0 0 0 0 0 0 0 0 0 0 0 0 0 0 0 0 0 0 0 0 0 0 0 0 0 0 -225 -225 -225 -225 -225 -225 -225 -225 -225 -225 -193 -193 -225 -225 -225 -225 -225 -225 -225 -225 -225 -225 -225 -225 -225 -225 -225 -209 -209 -209 -209 -209 -193 -193 -193 -193 -193 -193 226 227 226 -209 -209 -193 -193 -177 -209 594 595 598 -209 -209 -209 565 -193 566 -209 -193 -193 -209 -209 -209 -193 -193 -193 -193 -209 -225 -225 -225 -225 -225 -225 385 382 386 387 -209 -209 -209 -193 -209 -209 -177 -177 -177 -209 -209 424 -193 -193 -177 -177 596 -193 -209 -209 -209 -209 -193 -209 -177 815 815 816 816 817 -193 132 128 125 126 126 128 127 129 131 132 133 -193 -193 -193 -209 -193 -209 -193 -193 125 124 126 126 123 126 125 127 128 131 130 130 130 130 128 128 128 129 127 131 129 130 131 132 133 134 133 133 130 133 129 131 130 130 128 129 130 134 132 133 134 135 132 131 133 131 130 131 132 131 131 133 134 -193 -193 -193 134 132 132 132 130 132 133 133 134 135 134 133 133 133 131 129 129 129 123 121 -209 107 112 114 113 113 115 116 118 119 120 122 126 126 127 128 126 126 125 125 124 -209 96 98 93 92 93 97 -209 -177 137 138 138 140 140 140 140 140 139 140 140 141 139 0 0 0 0 0
    0 0 0 0 0 0 0 0 0 0 0 0 0 0 0 0 0 0 0 0 0 0 0 0 0 0 0 0 0 0 0 0 0 0 0 0 0 0 0 0 0 0 0 0 0 0 0 0 0 0 0 0 0 0 0 0 0 0 0 0 0 0 0 0 0 0 0 0 0 -225 -225 -225 -225 -225 -225 -225 -225 -225 -225 -225 -225 -225 -225 -225 -225 -225 -225 -225 -225 -225 -225 -225 -225 -225 -225 -225 -225 -225 -225 -225 -225 -225 -209 -193 232 -225 -225 -225 232 234 -225 -225 -209 -177 -177 -209 -209 591 590 -209 -209 -209 -193 -193 -209 -209 476 478 -193 481 484 -209 404 404 -225 -225 -225 -225 -225 -225 -225 -225 -225 -225 -225 -177 -193 -209 -209 -209 -209 -209 -177 -177 477 474 -209 -193 -193 -209 -177 -193 -193 -193 557 557 563 560 -209 -193 -193 815 814 815 815 816 -193 -209 -209 -193 -193 -193 125 -193 127 131 -193 -209 -209 -209 -177 -209 -209 -209 -209 -209 124 124 125 125 121 124 123 124 127 130 129 129 129 130 128 127 128 128 128 132 131 133 134 134 134 135 134 134 130 132 128 130 129 130 128 128 129 133 131 134 134 135 132 131 133 131 130 131 131 131 131 133 134 -193 -193 -193 -193 132 132 133 131 131 133 133 135 135 135 133 132 133 131 127 127 127 -193 114 110 106 114 116 114 115 116 118 119 120 120 121 124 124 126 129 126 126 125 125 125 119 -209 99 94 93 96 101 -209 -177 137 138 138 140 140 140 140 140 139 140 141 142 139 0 0 0 0 0
    0 0 0 0 0 0 0 0 0 0 0 0 0 0 0 0 0 0 0 0 0 0 0 0 0 0 0 0 0 0 0 0 0 0 0 0 0 0 0 0 0 0 0 0 0 0 0 0 0 0 0 0 0 0 0 0 0 0 0 0 0 0 0 0 0 0 0 0 0 -225 -225 -225 -225 -225 -225 -225 -225 -225 -225 -225 -225 -225 -225 -225 -225 -225 -225 -225 -225 -225 -225 -225 -225 -225 -225 -225 -225 -225 -225 -225 -225 -225 -225 -225 -225 -225 -225 -225 -225 -225 -225 -225 -225 -225 -225 -225 -225 -225 -225 -225 -225 -225 -225 -225 -225 -225 -225 -225 -225 -225 -225 -225 -225 -225 -225 -225 -225 -225 -225 -225 -225 -225 -225 -225 -225 -225 -225 360 360 -209 -177 -209 -209 -193 -209 -193 474 477 -209 -209 -209 -209 568 -193 565 565 567 -225 -225 -225 -225 -225 -225 812 815 815 -209 -209 -177 -177 -193 -193 -225 -225 -225 -193 -193 -193 -193 373 -209 -193 -209 -209 -209 -193 -209 124 125 125 121 123 -193 123 -193 -193 -193 -209 129 -193 125 124 125 124 128 131 -193 133 134 134 135 135 135 135 131 132 128 130 -193 130 127 127 128 132 130 133 132 134 132 131 133 131 130 131 131 131 131 132 134 -193 -177 -193 -193 -193 131 132 129 128 131 132 135 135 134 132 132 133 131 126 125 125 121 113 108 107 114 117 116 117 118 119 120 121 120 121 123 124 125 128 124 124 125 128 126 123 123 -193 -193 102 -193 -193 -193 -193 136 137 137 140 140 140 140 140 139 140 141 142 138 0 0 0 0 0
    0 0 0 0 0 0 0 0 0 0 0 0 0 0 0 0 0 0 0 0 0 0 0 0 0 0 0 0 0 0 0 0 0 0 0 0 0 0 0 0 0 0 0 0 0 0 0 0 0 0 0 0 0 0 0 0 0 0 0 0 0 0 0 0 0 0 0 0 0 -225 -225 -225 -225 -225 -225 -225 -225 -225 -225 -225 -225 -225 -225 -225 -225 -225 -225 -225 -225 -225 -225 -225 -225 -225 -225 -225 -225 -225 -225 -225 -225 -225 -225 -225 -225 -225 -225 -225 -225 -225 -225 -225 -225 -225 -225 -225 -225 -225 -225 -225 -225 -225 -225 -225 -225 -225 -225 -225 -225 -225 -225 -225 -225 -225 -225 -225 -225 -225 -225 -225 -225 -225 -225 -225 -225 -225 -225 -225 -225 -225 -225 -225 -225 -225 -225 -225 -225 -225 -225 -225 -225 -225 -225 -225 -225 -225 -225 -225 -225 -225 -225 -225 -225 -225 -225 -225 -225 -225 -225 -225 -225 -225 -225 -225 -225 -225 -225 -209 -209 -193 -177 -177 -209 -209 -193 -177 -209 124 125 124 122 124 -193 126 -193 -193 -193 -209 -193 -193 -193 122 121 121 125 125 -225 -225 -225 135 136 -209 -193 -177 -209 -209 -193 -177 -177 -193 127 126 127 131 129 132 131 133 133 132 134 132 131 132 132 132 132 131 134 -193 -177 -193 -193 -193 130 131 126 125 129 132 136 135 133 130 130 132 128 122 122 122 -193 110 104 104 113 117 115 116 118 119 120 121 120 121 123 124 125 128 124 123 124 127 126 122 123 122 115 114 -193 -193 -193 -193 134 136 137 141 140 141 141 141 140 141 142 144 139 0 0 0 0 0
    0 0 0 0 0 0 0 0 0 0 0 0 0 0 0 0 0 0 0 0 0 0 0 0 0 0 0 0 0 0 0 0 0 0 0 0 0 0 0 0 0 0 0 0 0 0 0 0 0 0 0 0 0 0 0 0 0 0 0 0 0 0 0 0 0 0 0 0 0 -225 -225 -225 -225 -225 -225 -225 -225 -225 -225 -225 -225 -225 -225 -225 -225 -225 -225 -225 -225 -225 -225 -225 -225 -225 -225 -225 -225 -225 -225 -225 -225 -225 -225 -225 -225 -225 -225 -225 -225 -225 -225 -225 -225 -225 -225 -225 -225 -225 -225 -225 -225 -225 -225 -225 -225 -225 -225 -225 -225 -225 -225 -225 -225 -225 -225 -225 -225 -225 -225 -225 -225 -225 -225 -225 -225 -225 -225 -225 -225 -225 -225 -225 -225 -225 -225 -225 -225 -225 -225 -225 -225 -225 -225 -225 -225 -225 -225 -225 -225 -225 -225 -225 -225 -225 -225 -225 -225 -225 -225 -225 -225 -225 -225 -225 -225 -225 -225 -225 -225 -225 -225 -225 -225 -225 -225 -225 -225 -225 -225 -225 -225 -225 -225 -225 -225 -225 -225 -225 -225 -225 -225 -225 -225 -225 -225 -225 -225 -225 -225 -225 -225 -225 -225 -225 58 61 60 -177 -177 -193 -177 -177 127 132 129 132 131 132 134 134 135 133 133 134 134 132 133 -193 -193 410 411 -177 -177 -193 -193 130 125 123 128 131 135 135 133 128 128 131 125 117 118 118 -193 110 104 104 111 114 114 115 117 119 120 121 120 120 124 125 126 128 124 125 126 129 128 124 124 123 -193 -193 -193 114 119 120 131 137 138 140 140 141 142 143 142 143 142 142 138 0 0 0 0 0
    0 0 0 0 0 0 0 0 0 0 0 0 0 0 0 0 0 0 0 0 0 0 0 0 0 0 0 0 0 0 0 0 0 0 0 0 0 0 0 0 0 0 0 0 0 0 0 0 0 0 0 0 0 0 0 0 0 0 0 0 0 0 0 0 0 0 0 0 0 -225 -225 -225 -225 -225 -225 -225 -225 -225 -225 -225 -225 -225 -225 -225 -225 -225 -225 -225 -225 -225 -225 -225 -225 -225 -225 -225 -225 -225 -225 -225 -225 -225 -225 -225 -225 -225 -225 -225 -225 -225 -225 -225 -225 -225 -225 -225 -225 -225 -225 -225 -225 -225 -225 -225 -225 -225 -225 -225 -225 -225 -225 -225 -225 -225 -225 -225 -225 -225 -225 -225 -225 -225 -225 -225 -225 -225 -225 -225 -225 -225 -225 -225 -225 -225 -225 -225 -225 -225 -225 -225 -225 -225 -225 -225 -225 -225 -225 -225 -225 -225 -225 -225 -225 -225 -225 -225 -225 -225 -225 -225 -225 -225 -225 -225 -225 -225 -225 -225 -225 -225 -225 -225 -225 -225 -225 -225 -225 -225 -225 -225 -225 -225 -225 -225 -225 -225 -225 -225 -225 -225 -225 -225 -225 -225 -225 -225 -225 -225 -225 -225 -225 -225 -225 -225 -225 -225 -225 -225 -225 -225 -225 -225 -225 -225 -225 -225 -225 -225 -225 -225 -225 -225 -225 -225 -225 -225 -225 -225 -225 -225 -225 -225 -225 -225 -225 127 125 124 129 131 134 133 132 133 120 117 112 108 109 113 111 109 109 112 118 115 114 115 117 119 121 123 122 123 126 127 129 131 127 128 128 130 129 126 126 125 -193 -193 -193 117 121 122 131 137 139 139 140 142 143 144 143 148 145 136 141 0 0 0 0 0
    0 0 0 0 0 0 0 0 0 0 0 0 0 0 0 0 0 0 0 0 0 0 0 0 0 0 0 0 0 0 0 0 0 0 0 0 0 0 0 0 0 0 0 0 0 0 0 0 0 0 0 0 0 0 0 0 0 0 0 0 0 0 0 0 0 0 0 0 0 -225 -225 -225 -225 -225 -225 -225 -225 -225 -225 -225 -225 -225 -225 -225 -225 -225 -225 -225 -225 -225 -225 -225 -225 -225 -225 -225 -225 -225 -225 -225 -225 -225 -225 -225 -225 -225 -225 -225 -225 -225 -225 -225 -225 -225 -225 -225 -225 -225 -225 -225 -225 -225 -225 -225 -225 -225 -225 -225 -225 -225 -225 -225 -225 -225 -225 -225 -225 -225 -225 -225 -225 -225 -225 -225 -225 -225 -225 -225 -225 -225 -225 -225 -225 -225 -225 -225 -225 -225 -225 -225 -225 -225 -225 -225 -225 -225 -225 -225 -225 -225 -225 -225 -225 -225 -225 -225 -225 -225 -225 -225 -225 -225 -225 -225 -225 -225 -225 -225 -225 -225 -225 -225 -225 -225 -225 -225 -225 -225 -225 -225 -225 -225 -225 -225 -225 -225 -225 -225 -225 -225 -225 -225 -225 -225 -225 -225 -225 -225 -225 -225 -225 -225 -225 -225 -225 -225 -225 -225 -225 -225 -225 -225 -225 -225 -225 -225 -225 -225 -225 -225 -225 -225 -225 -225 -225 -225 -225 -225 -225 -225 -225 -225 -225 -225 -225 -225 -225 -225 -225 -225 -225 -225 -225 -225 -225 -225 110 109 110 115 118 118 120 125 134 133 120 121 122 125 124 124 122 123 126 127 129 132 127 128 129 131 130 128 129 129 126 128 126 123 123 132 135 138 139 139 140 142 144 146 146 149 147 142 146 0 0 0 0 0
    0 0 0 0 0 0 0 0 0 0 0 0 0 0 0 0 0 0 0 0 0 0 0 0 0 0 0 0 0 0 0 0 0 0 0 0 0 0 0 0 0 0 0 0 0 0 0 0 0 0 0 0 0 0 0 0 0 0 0 0 0 0 0 0 0 0 0 0 0 -225 -225 -225 -225 -225 -225 -225 -225 -225 -225 -225 -225 -225 -225 -225 -225 -225 -225 -225 -225 -225 -225 -225 -225 -225 -225 -225 -225 -225 -225 -225 -225 -225 -225 -225 -225 -225 -225 -225 -225 -225 -225 -225 -225 -225 -225 -225 -225 -225 -225 -225 -225 -225 -225 -225 -225 -225 -225 -225 -225 -225 -225 -225 -225 -225 -225 -225 -225 -225 -225 -225 -225 -225 -225 -225 -225 -225 -225 -225 -225 -225 -225 -225 -225 -225 -225 -225 -225 -225 -225 -225 -225 -225 -225 -225 -225 -225 -225 -225 -225 -225 -225 -225 -225 -225 -225 -225 -225 -225 -225 -225 -225 -225 -225 -225 -225 -225 -225 -225 -225 -225 -225 -225 -225 -225 -225 -225 -225 -225 -225 -225 -225 -225 -225 -225 -225 -225 -225 -225 -225 -225 -225 -225 -225 -225 -225 -225 -225 -225 -225 -225 -225 -225 -225 -225 -225 -225 -225 -225 -225 -225 -225 -225 -225 -225 -225 -225 -225 -225 -225 -225 -225 -225 -225 -225 -225 -225 -225 -225 -225 -225 -225 -225 -225 -225 -225 -225 -225 -225 -225 -225 -225 -225 -225 -225 -225 -225 -225 -225 -225 -225 -225 122 122 126 134 135 136 137 136 137 134 134 133 131 131 130 129 131 127 129 130 132 130 129 130 128 126 127 126 123 123 133 135 138 139 140 142 143 144 146 147 150 149 139 142 0 0 0 0 0
    0 0 0 0 0 0 0 0 0 0 0 0 0 0 0 0 0 0 0 0 0 0 0 0 0 0 0 0 0 0 0 0 0 0 0 0 0 0 0 0 0 0 0 0 0 0 0 0 0 0 0 0 0 0 0 0 0 0 0 0 0 0 0 0 0 0 0 0 0 -225 -225 -225 -225 -225 -225 -225 -225 -225 -225 -225 -225 -225 -225 -225 -225 -225 -225 -225 -225 -225 -225 -225 -225 -225 -225 -225 -225 -225 -225 -225 -225 -225 -225 -225 -225 -225 -225 -225 -225 -225 -225 -225 -225 -225 -225 -225 -225 -225 -225 -225 -225 -225 -225 -225 -225 -225 -225 -225 -225 -225 -225 -225 -225 -225 -225 -225 -225 -225 -225 -225 -225 -225 -225 -225 -225 -225 -225 -225 -225 -225 -225 -225 -225 -225 -225 -225 -225 -225 -225 -225 -225 -225 -225 -225 -225 -225 -225 -225 -225 -225 -225 -225 -225 -225 -225 -225 -225 -225 -225 -225 -225 -225 -225 -225 -225 -225 -225 -225 -225 -225 -225 -225 -225 -225 -225 -225 -225 -225 -225 -225 -225 -225 -225 -225 -225 -225 -225 -225 -225 -225 -225 -225 -225 -225 -225 -225 -225 -225 -225 -225 -225 -225 -225 -225 -225 -225 -225 -225 -225 -225 -225 -225 -225 -225 -225 -225 -225 -225 -225 -225 -225 -225 -225 -225 -225 -225 -225 -225 -225 -225 -225 -225 -225 -225 -225 -225 -225 -225 -225 -225 -225 -225 -225 -225 -225 -225 -225 -225 -225 -225 -225 -225 -225 -225 -225 137 136 138 137 136 137 137 137 134 133 130 130 133 130 130 130 132 130 130 131 131 127 128 128 127 126 133 135 137 139 139 142 145 146 147 149 151 150 140 147 0 0 0 0 0
    0 0 0 0 0 0 0 0 0 0 0 0 0 0 0 0 0 0 0 0 0 0 0 0 0 0 0 0 0 0 0 0 0 0 0 0 0 0 0 0 0 0 0 0 0 0 0 0 0 0 0 0 0 0 0 0 0 0 0 0 0 0 0 0 0 0 0 0 0 -225 -225 -225 -225 -225 -225 -225 -225 -225 -225 -225 -225 -225 -225 -225 -225 -225 -225 -225 -225 -225 -225 -225 -225 -225 -225 -225 -225 -225 -225 -225 -225 -225 -225 -225 -225 -225 -225 -225 -225 -225 -225 -225 -225 -225 -225 -225 -225 -225 -225 -225 -225 -225 -225 -225 -225 -225 -225 -225 -225 -225 -225 -225 -225 -225 -225 -225 -225 -225 -225 -225 -225 -225 -225 -225 -225 -225 -225 -225 -225 -225 -225 -225 -225 -225 -225 -225 -225 -225 -225 -225 -225 -225 -225 -225 -225 -225 -225 -225 -225 -225 -225 -225 -225 -225 -225 -225 -225 -225 -225 -225 -225 -225 -225 -225 -225 -225 -225 -225 -225 -225 -225 -225 -225 -225 -225 -225 -225 -225 -225 -225 -225 -225 -225 -225 -225 -225 -225 -225 -225 -225 -225 -225 -225 -225 -225 -225 -225 -225 -225 -225 -225 -225 -225 -225 -225 -225 -225 -225 -225 -225 -225 -225 -225 -225 -225 -225 -225 -225 -225 -225 -225 -225 -225 -225 -225 -225 -225 -225 -225 -225 -225 -225 -225 -225 -225 -225 -225 -225 -225 -225 -225 -225 -225 -225 -225 -225 -225 -225 -225 -225 -225 -225 -225 -225 -225 -225 -225 -225 -225 137 137 137 137 133 134 136 134 136 133 132 133 133 132 131 132 132 128 129 130 129 127 133 136 136 137 138 141 144 144 146 149 151 149 139 147 0 0 0 0 0
    0 0 0 0 0 0 0 0 0 0 0 0 0 0 0 0 0 0 0 0 0 0 0 0 0 0 0 0 0 0 0 0 0 0 0 0 0 0 0 0 0 0 0 0 0 0 0 0 0 0 0 0 0 0 0 0 0 0 0 0 0 0 0 0 0 0 0 0 0 -225 -225 -225 -225 -225 -225 -225 -225 -225 -225 -225 -225 -225 -225 -225 -225 -225 -225 -225 -225 -225 -225 -225 -225 -225 -225 -225 -225 -225 -225 -225 -225 -225 -225 -225 -225 -225 -225 -225 -225 -225 -225 -225 -225 -225 -225 -225 -225 -225 -225 -225 -225 -225 -225 -225 -225 -225 -225 -225 -225 -225 -225 -225 -225 -225 -225 -225 -225 -225 -225 -225 -225 -225 -225 -225 -225 -225 -225 -225 -225 -225 -225 -225 -225 -225 -225 -225 -225 -225 -225 -225 -225 -225 -225 -225 -225 -225 -225 -225 -225 -225 -225 -225 -225 -225 -225 -225 -225 -225 -225 -225 -225 -225 -225 -225 -225 -225 -225 -225 -225 -225 -225 -225 -225 -225 -225 -225 -225 -225 -225 -225 -225 -225 -225 -225 -225 -225 -225 -225 -225 -225 -225 -225 -225 -225 -225 -225 -225 -225 -225 -225 -225 -225 -225 -225 -225 -225 -225 -225 -225 -225 -225 -225 -225 -225 -225 -225 -225 -225 -225 -225 -225 -225 -225 -225 -225 -225 -225 -225 -225 -225 -225 -225 -225 -225 -225 -225 -225 -225 -225 -225 -225 -225 -225 -225 -225 -225 -225 -225 -225 -225 -225 -225 -225 -225 -225 -225 -225 -225 -225 -225 -225 136 135 134 134 136 132 133 132 131 132 134 131 129 131 133 130 129 129 127 124 128 135 136 136 138 141 144 145 148 151 152 151 -193 148 0 0 0 0 0
    0 0 0 0 0 0 0 0 0 0 0 0 0 0 0 0 0 0 0 0 0 0 0 0 0 0 0 0 0 0 0 0 0 0 0 0 0 0 0 0 0 0 0 0 0 0 0 0 0 0 0 0 0 0 0 0 0 0 0 0 0 0 0 0 0 0 0 0 0 -225 -225 -225 -225 -225 -225 -225 -225 -225 -225 -225 -225 -225 -225 -225 -225 -225 -225 -225 -225 -225 -225 -225 -225 -225 -225 -225 -225 -225 -225 -225 -225 -225 -225 -225 -225 -225 -225 -225 -225 -225 -225 -225 -225 -225 -225 -225 -225 -225 -225 -225 -225 -225 -225 -225 -225 -225 -225 -225 -225 -225 -225 -225 -225 -225 -225 -225 -225 -225 -225 -225 -225 -225 -225 -225 -225 -225 -225 -225 -225 -225 -225 -225 -225 -225 -225 -225 -225 -225 -225 -225 -225 -225 -225 -225 -225 -225 -225 -225 -225 -225 -225 -225 -225 -225 -225 -225 -225 -225 -225 -225 -225 -225 -225 -225 -225 -225 -225 -225 -225 -225 -225 -225 -225 -225 -225 -225 -225 -225 -225 -225 -225 -225 -225 -225 -225 -225 -225 -225 -225 -225 -225 -225 -225 -225 -225 -225 -225 -225 -225 -225 -225 -225 -225 -225 -225 -225 -225 -225 -225 -225 -225 -225 -225 -225 -225 -225 -225 -225 -225 -225 -225 -225 -225 -225 -225 -225 -225 -225 -225 -225 -225 -225 -225 -225 -225 -225 -225 -225 -225 -225 -225 -225 -225 -225 -225 -225 -225 -225 -225 -225 -225 -225 -225 -225 -225 -225 -225 -225 -225 -225 -225 -225 134 132 -209 -209 -209 -209 -209 -209 -209 -209 -209 124 129 133 -209 -209 -209 121 122 123 132 135 130 136 140 143 146 150 153 154 154 -193 153 0 0 0 0 0
    0 0 0 0 0 0 0 0 0 0 0 0 0 0 0 0 0 0 0 0 0 0 0 0 0 0 0 0 0 0 0 0 0 0 0 0 0 0 0 0 0 0 0 0 0 0 0 0 0 0 0 0 0 0 0 0 0 0 0 0 0 0 0 0 0 0 0 0 0 -225 -225 -225 -225 -225 -225 -225 -225 -225 -225 -225 -225 -225 -225 -225 -225 -225 -225 -225 -225 -225 -225 -225 -225 -225 -225 -225 -225 -225 -225 -225 -225 -225 -225 -225 -225 -225 -225 -225 -225 -225 -225 -225 -225 -225 -225 -225 -225 -225 -225 -225 -225 -225 -225 -225 -225 -225 -225 -225 -225 -225 -225 -225 -225 -225 -225 -225 -225 -225 -225 -225 -225 -225 -225 -225 -225 -225 -225 -225 -225 -225 -225 -225 -225 -225 -225 -225 -225 -225 -225 -225 -225 -225 -225 -225 -225 -225 -225 -225 -225 -225 -225 -225 -225 -225 -225 -225 -225 -225 -225 -225 -225 -225 -225 -225 -225 -225 -225 -225 -225 -225 -225 -225 -225 -225 -225 -225 -225 -225 -225 -225 -225 -225 -225 -225 -225 -225 -225 -225 -225 -225 -225 -225 -225 -225 -225 -225 -225 -225 -225 -225 -225 -225 -225 -225 -225 -225 -225 -225 -225 -225 -225 -225 -225 -225 -225 -225 -225 -225 -225 -225 -225 -225 -225 -225 -225 -225 -225 -225 -225 -225 -225 -225 -225 -225 -225 -225 -225 -225 -225 -225 -225 -225 -225 -225 -225 -225 -225 -225 -225 -225 -225 -225 -225 -225 -225 -225 -225 -225 -225 -225 -225 -225 -225 -209 -209 -209 -209 -209 -209 -209 -209 -209 -209 -209 -209 -209 -209 -209 -209 113 117 -209 -209 -209 -209 137 142 146 146 150 154 155 156 156 157 0 0 0 0 0
    0 0 0 0 0 0 0 0 0 0 0 0 0 0 0 0 0 0 0 0 0 0 0 0 0 0 0 0 0 0 0 0 0 0 0 0 0 0 0 0 0 0 0 0 0 0 0 0 0 0 0 0 0 0 0 0 0 0 0 0 0 0 0 0 0 0 0 0 0 -193 223 -193 221 222 222 224 225 226 -177 -177 -225 -225 -225 -225 -225 -225 -225 -225 -225 -225 -225 -225 -225 -225 -225 -225 -225 -225 -225 -225 -225 -225 -225 -225 -225 -225 -225 -225 -225 -225 -225 -225 -225 -225 -225 -225 -225 -225 -225 -225 -225 -225 -225 -225 -225 -225 -225 -225 -225 -225 -193 -209 542 -193 -193 -225 -225 -225 -225 -225 -225 -225 -225 -225 -225 -225 -225 -225 -225 -225 -225 -225 -225 -225 -225 -225 -225 -225 -225 -225 -225 -225 -225 -225 -225 -225 -225 -225 -225 -225 -225 -225 -225 -225 -225 -225 -225 -225 -225 -225 -225 -225 -225 -225 -225 -225 -225 -225 -225 -225 -225 -225 -225 -225 -225 -225 -225 -225 -225 -225 -225 -225 -225 -225 -225 -225 -225 -225 -225 -225 -225 -225 -225 -225 -225 -225 -225 -225 -225 -225 -225 -225 -225 -225 -225 -225 -225 -225 -225 -225 -225 -225 -225 -225 -225 -225 -225 -225 -225 -225 -225 -225 -225 -225 -225 -225 -225 -225 -225 -225 -225 -225 -225 -225 -225 -225 -225 -225 -225 -225 -225 -225 -225 -225 -225 -225 -225 -225 -225 -225 -225 -225 -225 -225 -225 -225 -225 -225 -225 -225 -225 -225 -225 -209 -209 -209 -209 -209 -209 -209 -209 -209 -209 -209 -209 -209 -209 -209 -209 -209 -209 -209 -209 -209 -209 143 147 151 150 152 156 156 157 157 158 0 0 0 0 0
    0 0 0 0 0 0 0 0 0 0 0 0 0 0 0 0 0 0 0 0 0 0 0 0 0 0 0 0 0 0 0 0 0 0 0 0 0 0 0 0 0 0 0 0 0 0 0 0 0 0 0 0 0 0 0 0 0 0 0 0 0 0 0 0 0 0 0 0 0 222 223 -193 221 222 223 225 226 -193 -177 -177 -193 690 695 -193 -193 -209 -209 -193 223 223 225 226 229 227 227 228 233 -225 -225 -225 -225 -225 -225 -225 -225 -225 -193 -177 -193 479 479 477 478 -225 -225 -225 -225 -225 -225 -209 -209 -209 -209 -209 -209 -193 561 559 556 -209 -209 -209 -193 -209 -209 -209 -209 388 -193 -209 -225 -225 -225 -225 -225 -225 -225 -225 -225 -225 -225 -225 -225 -225 -225 -225 -225 -225 -225 -225 -225 -225 -225 -225 -225 -225 -225 -225 -225 -225 -225 -225 -225 -225 -225 -225 -225 -225 -225 -225 -225 -225 -225 -225 -225 -225 -225 -225 -225 -225 -225 -225 -225 -225 -225 -225 -225 -225 -225 -225 -225 -225 -225 -225 -225 -225 -225 -225 -225 -225 -225 -225 -225 -225 -225 -225 -225 -225 -225 -225 -225 -225 -225 -225 -225 -225 -225 -225 -225 -225 -225 -225 -225 -225 -225 -225 -225 -225 -225 -225 -225 -225 -225 -225 -225 -225 -225 -225 -225 -225 -225 -225 -225 -225 -225 -225 -225 -225 -225 -225 -225 -225 -225 -225 -225 -225 -225 -225 -225 -225 -225 -225 -225 -225 -225 -225 -225 -225 -225 -225 -225 -225 -225 0 0 0 -193 -209 -209 -209 -209 -209 -209 -209 -209 -209 -209 -209 -209 -209 -209 -209 -209 -209 -193 -209 142 146 148 -193 164 168 169 167 169 0 0 0 0 0
    0 0 0 0 0 0 0 0 0 0 0 0 0 0 0 0 0 0 0 0 0 0 0 0 0 0 0 0 0 0 0 0 0 0 0 0 0 0 0 0 0 0 0 0 0 0 0 0 0 0 0 0 0 0 0 0 0 0 0 0 0 0 0 0 0 0 0 0 0 222 222 222 221 222 222 224 226 226 -193 -193 -193 -209 -193 -193 -193 225 225 223 224 225 226 227 229 228 228 229 233 233 234 236 236 232 231 230 228 228 227 228 227 -193 481 -177 -177 -177 -177 -177 465 -177 -209 -209 -193 -193 -193 -209 -209 -209 -177 -177 -193 -209 -209 -209 328 -209 -209 -193 -193 383 -193 -193 -193 -209 -225 -225 -225 -225 -225 -225 447 450 -177 523 525 524 523 526 -209 -193 -209 -193 -193 -209 -209 -209 -193 17 -177 -177 -177 -177 -209 -209 -193 -193 230 -209 -225 -225 221 223 223 222 221 222 219 219 218 -225 -225 -225 -225 -225 -225 -225 -225 -225 -225 -225 -225 -225 -225 -225 -225 -225 -225 -225 -225 -225 -225 -225 -225 -225 -225 -225 -225 -225 -225 -225 -225 -225 -225 -225 -225 -225 -225 -225 -225 -225 -225 -225 -225 -225 -225 -225 -225 -225 -225 -225 -225 -225 -225 -225 -225 -225 -225 -225 -225 -225 -225 -225 -225 -225 -225 -225 -225 -225 -225 -225 -225 -225 -225 -225 -225 -225 -225 -225 -225 -225 -225 -225 -225 -225 -225 -225 -225 -225 -225 -225 -225 -225 -225 -225 -225 -209 -193 -209 -193 -209 -209 -209 -209 -209 -209 -209 -209 -209 -209 -209 -209 -209 -209 -209 -209 -209 97 -209 -209 141 147 -193 170 182 183 183 178 0 0 0 0 0
    0 0 0 0 0 0 0 0 0 0 0 0 0 0 0 0 0 0 0 0 0 0 0 0 0 0 0 0 0 0 0 0 0 0 0 0 0 0 0 0 0 0 0 0 0 0 0 0 0 0 0 0 0 0 0 0 0 0 0 0 0 0 0 0 0 0 0 0 0 223 223 222 222 222 223 225 227 225 228 224 223 224 223 224 226 225 226 223 224 225 226 228 229 228 228 230 234 234 234 235 235 231 231 229 228 227 227 227 226 226 226 223 225 -193 -193 -193 -209 -177 -209 45 49 53 -193 -209 -209 -209 -193 -209 -209 -209 -209 -209 325 -209 -209 -209 380 381 -209 -177 -177 -193 -209 -225 -193 -209 -193 444 446 450 -177 -193 -209 -209 521 524 523 530 -209 -193 -193 -209 646 -193 -177 -209 -193 -193 -177 -177 -209 -193 220 223 225 -193 925 -193 220 222 222 222 222 223 221 220 220 220 219 219 217 220 220 223 224 223 -193 222 -193 -193 -209 -193 -193 -193 220 221 -193 -193 -225 -225 -225 -225 -225 -225 -225 -225 -225 -225 -225 -225 -225 -225 -225 -225 -225 -225 -225 -225 -225 -225 -225 -225 -225 -225 -225 -225 -225 -225 -225 -225 -225 -225 -225 -225 -225 -209 414 -209 -225 -225 512 -193 326 -209 -209 -209 -209 -209 -209 -209 37 37 38 37 38 39 39 38 40 -209 -225 -225 -225 -225 -225 -225 -225 -225 -225 -225 -225 -225 88 -209 -209 -209 -209 -209 -209 -209 -209 -209 -209 -209 -209 -209 -209 -209 -209 -209 -209 -209 -209 -209 95 -209 -209 -209 -177 -193 170 182 184 184 180 0 0 0 0 0
    0 0 0 0 0 0 0 0 0 0 0 0 0 0 0 0 0 0 0 0 0 0 0 0 0 0 0 0 0 0 0 0 0 0 0 0 0 0 0 0 0 0 0 0 0 0 0 0 0 0 0 0 0 0 0 0 0 0 0 0 0 0 0 0 0 0 0 0 0 223 223 222 223 222 223 225 227 224 228 225 224 225 224 224 226 225 226 223 224 225 226 227 228 228 228 230 233 233 233 234 235 231 231 230 228 227 228 227 226 225 226 223 224 225 225 223 -193 -209 -209 -193 53 55 -177 -193 -193 220 -209 -209 -209 -209 -209 -209 -209 -209 -209 -209 380 -193 919 924 929 -193 -193 335 -209 -209 442 445 447 450 453 -209 -209 -209 -177 522 523 532 -209 -209 -193 219 220 224 -209 220 222 221 224 223 222 222 220 223 223 223 224 221 221 223 221 223 222 224 221 221 222 221 221 221 220 222 221 224 225 222 223 222 224 225 222 224 -193 221 221 221 221 220 219 220 214 -225 -225 -225 -225 -225 -225 -225 -225 -225 239 -193 149 -209 -209 -193 214 -209 -209 -209 -193 -209 -193 -209 -225 -209 -209 -193 310 -193 -209 -193 -193 -193 -209 -193 -209 -209 -193 -193 -209 327 328 330 -193 -209 -209 -193 -193 -209 -209 -209 -209 -209 -193 40 -209 -209 -209 -209 -209 -209 -193 60 62 -209 -209 -209 -225 -225 -209 -193 -209 -209 -209 -209 -209 -209 -209 -209 -209 -209 -209 -209 -193 -209 -209 -209 -209 -209 -209 -209 -209 -209 -209 -209 203 -209 -209 -209 -209 182 184 184 179 0 0 0 0 0
    0 0 0 0 0 0 0 0 0 0 0 0 0 0 0 0 0 0 0 0 0 0 0 0 0 0 0 0 0 0 0 0 0 0 0 0 0 0 0 0 0 0 0 0 0 0 0 0 0 0 0 0 0 0 0 0 0 0 0 0 0 0 0 0 0 0 0 0 0 224 223 223 223 222 222 225 227 223 228 224 224 225 224 225 226 226 226 223 225 226 226 227 228 228 227 230 233 233 233 233 234 231 231 230 228 228 228 227 226 225 226 222 223 224 223 223 -193 -193 -193 -209 -193 -193 -193 -193 221 222 -193 -193 -193 -193 -209 -209 -209 -209 -209 -209 -193 -193 -177 -177 -177 -193 229 -193 -193 -193 -193 -193 -193 -209 -193 -209 221 -193 -209 -193 -193 -209 -209 220 221 221 221 224 223 222 223 222 224 223 223 223 221 222 223 222 224 221 222 223 222 223 223 224 222 221 223 221 222 221 220 222 222 224 224 222 222 222 224 224 222 223 221 221 221 222 221 220 219 221 217 220 221 224 228 228 229 232 -193 228 233 -209 -193 -193 -193 -193 215 218 216 219 -193 -193 -193 219 222 224 217 -209 -193 -209 -209 -209 -209 -209 -193 219 219 -193 -193 -193 -193 -193 -177 -193 -209 -209 216 216 216 218 -209 -209 -193 -209 -193 -209 -209 -209 206 -193 214 -193 -209 -193 -193 32 31 -209 -209 -193 -193 209 214 -193 -209 -193 -209 -209 -209 -209 -209 -209 -209 -209 -209 -209 -209 -209 -209 -209 -209 -209 -209 -209 209 211 212 210 -209 -209 -209 186 188 188 179 0 0 0 0 0
    0 0 0 0 0 0 0 0 0 0 0 0 0 0 0 0 0 0 0 0 0 0 0 0 0 0 0 0 0 0 0 0 0 0 0 0 0 0 0 0 0 0 0 0 0 0 0 0 0 0 0 0 0 0 0 0 0 0 0 0 0 0 0 0 0 0 0 0 0 223 223 222 223 222 222 225 226 222 228 224 223 225 224 224 225 226 226 224 225 226 226 227 228 228 226 229 232 231 232 231 232 229 230 229 228 227 227 227 225 224 225 222 222 -193 -193 223 -193 -193 -193 -193 -193 -193 -193 223 222 223 225 -193 223 225 -209 -193 -193 -209 -193 -193 -193 -193 -177 924 931 226 229 227 226 224 224 225 226 227 225 221 222 226 225 223 222 222 222 222 224 223 223 225 225 223 224 222 225 223 223 224 221 222 223 222 225 222 222 223 222 223 223 224 222 221 223 221 221 221 220 222 221 223 223 221 221 222 223 224 221 223 221 221 221 222 221 220 220 222 219 222 222 224 227 226 229 230 229 225 226 221 -193 219 218 217 216 218 216 218 218 218 217 218 220 220 217 -193 -193 -193 -209 -193 -193 -193 218 219 220 -209 -193 219 218 -193 -209 -193 -193 217 217 217 217 218 -209 212 210 -193 -193 -193 209 -193 207 -193 214 -193 -193 -193 -193 -193 33 -193 -193 -193 209 211 214 214 213 213 -193 -193 -209 -209 -209 -209 -209 -209 -209 -209 -209 -209 -209 -193 -193 -209 -209 -209 -209 212 213 210 203 204 -209 -209 -209 -209 -193 0 0 0 0 0
    0 0 0 0 0 0 0 0 0 0 0 0 0 0 0 0 0 0 0 0 0 0 0 0 0 0 0 0 0 0 0 0 0 0 0 0 0 0 0 0 0 0 0 0 0 0 0 0 0 0 0 0 0 0 0 0 0 0 0 0 0 0 0 0 0 0 0 0 0 223 223 223 224 222 222 225 226 223 228 225 223 225 224 224 225 226 226 224 225 226 225 227 228 228 225 228 230 230 230 230 230 228 228 228 227 226 226 226 225 224 225 222 222 -193 -193 222 -193 -193 -193 -193 -193 -193 223 224 222 223 225 226 223 224 223 225 227 -193 -193 225 226 -193 -193 -177 -193 226 229 227 225 223 223 225 225 226 225 220 222 226 226 224 223 223 224 223 224 224 224 225 226 223 224 222 225 223 223 224 221 222 222 222 225 222 222 223 222 223 223 224 222 221 223 221 221 221 220 221 222 223 223 221 221 222 222 223 221 222 221 221 221 222 221 221 220 222 220 222 222 224 227 226 229 228 227 224 223 220 219 219 218 217 217 218 216 217 217 217 217 217 218 218 217 218 -193 219 218 218 219 218 218 219 219 218 216 218 217 218 217 218 218 218 217 218 218 219 217 214 212 209 -193 211 211 206 209 -193 -193 -177 -177 -193 -193 -193 -193 -193 211 211 210 211 214 213 213 213 212 212 212 211 -209 -209 -209 -209 -209 -209 -209 -209 -209 -193 -209 -209 -209 -193 -193 217 218 215 215 212 -209 -209 -193 -193 -193 0 0 0 0 0
    0 0 0 0 0 0 0 0 0 0 0 0 0 0 0 0 0 0 0 0 0 0 0 0 0 0 0 0 0 0 0 0 0 0 0 0 0 0 0 0 0 0 0 0 0 0 0 0 0 0 0 0 0 0 0 0 0 0 0 0 0 0 0 0 0 0 0 0 0 224 224 223 224 223 222 227 227 224 227 225 224 226 225 225 225 226 226 224 225 226 224 226 227 227 224 226 230 229 229 228 229 227 227 227 226 225 226 225 224 223 224 222 222 221 -193 221 -193 -193 220 221 222 223 223 224 223 224 225 225 224 225 224 225 225 227 226 225 226 225 224 -193 225 226 229 226 225 223 223 225 224 225 224 221 223 226 226 224 223 223 224 223 224 224 224 225 226 224 225 223 225 223 223 224 222 222 222 222 224 222 222 223 222 222 222 223 222 221 224 222 222 221 221 222 222 223 223 221 221 222 222 223 221 222 221 221 221 222 221 221 220 222 221 223 222 224 226 226 228 227 227 223 221 219 218 218 217 217 216 217 216 218 218 218 218 217 218 218 217 218 218 219 218 218 220 218 219 219 219 218 217 218 217 218 217 218 218 218 218 218 219 219 218 215 214 212 212 213 214 211 212 -209 -193 -193 -193 -193 -193 -193 -193 -193 211 212 211 211 214 213 213 213 213 212 212 212 213 -209 -209 -209 -209 -209 -209 -209 -209 -193 -193 -193 -193 218 218 218 219 217 217 217 219 -209 219 -193 223 0 0 0 0 0
    0 0 0 0 0 0 0 0 0 0 0 0 0 0 0 0 0 0 0 0 0 0 0 0 0 0 0 0 0 0 0 0 0 0 0 0 0 0 0 0 0 0 0 0 0 0 0 0 0 0 0 0 0 0 0 0 0 0 0 0 0 0 0 0 0 0 0 0 0 224 224 223 226 223 222 229 227 225 227 226 224 226 225 225 225 226 226 224 225 225 224 226 227 227 224 225 229 228 227 227 227 226 225 225 225 224 225 224 224 222 223 221 222 221 221 221 -193 -193 221 221 222 223 223 224 223 223 224 224 224 225 223 224 223 226 226 225 226 224 224 224 225 225 228 224 224 222 223 224 223 223 224 220 223 225 226 224 223 224 225 224 224 225 225 226 226 225 225 223 225 224 224 225 223 223 222 222 224 222 222 223 222 222 222 223 222 222 224 222 222 222 221 222 222 223 223 221 221 222 222 223 221 222 221 221 221 222 222 221 220 223 221 223 223 224 226 225 228 227 227 224 222 220 219 219 217 217 217 217 216 218 218 218 218 217 218 218 218 218 218 218 218 218 220 219 219 219 219 218 218 218 217 218 217 218 218 218 218 218 219 219 218 216 214 213 212 214 214 213 213 -209 -193 -193 -193 -193 -193 -193 -193 214 211 213 212 212 214 213 213 213 213 212 213 212 213 214 216 215 214 217 218 219 221 221 220 218 218 219 219 218 219 217 217 217 218 219 219 220 222 0 0 0 0 0
    0 0 0 0 0 0 0 0 0 0 0 0 0 0 0 0 0 0 0 0 0 0 0 0 0 0 0 0 0 0 0 0 0 0 0 0 0 0 0 0 0 0 0 0 0 0 0 0 0 0 0 0 0 0 0 0 0 0 0 0 0 0 0 0 0 0 0 0 0 225 225 224 226 224 224 230 228 225 227 226 224 226 225 225 225 226 226 224 224 225 224 226 227 228 224 224 228 227 226 226 226 224 223 224 224 223 224 223 223 222 223 222 222 221 221 221 221 221 222 222 222 223 223 225 223 223 224 223 223 225 224 224 223 226 226 225 225 223 222 223 224 223 227 223 222 222 222 223 222 222 223 220 223 226 226 224 224 225 226 225 225 226 225 226 226 225 226 223 224 224 224 224 223 222 222 222 224 222 221 223 222 222 222 223 223 222 225 222 223 222 222 223 223 223 222 221 221 222 222 223 221 222 221 221 222 222 221 221 220 223 222 223 223 224 226 225 228 226 226 224 223 222 219 219 217 217 216 216 215 217 217 218 218 218 218 218 218 218 218 219 218 219 220 219 219 219 218 218 218 218 217 218 217 218 218 219 218 218 219 219 218 216 215 213 213 215 215 214 213 216 217 -193 -193 -193 -193 -193 -193 215 212 213 213 212 214 213 213 213 213 212 213 212 213 214 216 215 215 217 218 218 221 220 219 218 219 219 218 218 218 217 218 217 218 218 218 220 223 0 0 0 0 0
    0 0 0 0 0 0 0 0 0 0 0 0 0 0 0 0 0 0 0 0 0 0 0 0 0 0 0 0 0 0 0 0 0 0 0 0 0 0 0 0 0 0 0 0 0 0 0 0 0 0 0 0 0 0 0 0 0 0 0 0 0 0 0 0 0 0 0 0 0 226 226 225 227 226 226 231 229 226 227 226 225 226 225 225 224 225 226 224 224 225 224 225 227 228 224 223 227 226 225 224 225 223 222 223 224 222 223 222 222 221 222 221 222 221 221 222 222 222 223 223 223 223 224 225 223 223 224 222 223 224 224 223 222 225 226 225 223 222 221 222 223 221 227 222 221 221 222 223 222 222 223 220 224 226 227 225 224 225 226 225 224 226 225 225 225 225 225 222 223 224 223 224 222 222 222 222 224 222 222 223 222 222 223 224 224 223 225 223 223 223 222 223 223 222 222 221 221 222 222 223 221 222 221 221 222 223 221 221 220 222 222 223 222 223 224 223 226 225 225 223 222 221 219 219 217 218 217 216 216 217 218 218 220 219 218 218 219 219 219 220 219 219 221 219 219 219 219 219 219 218 218 218 218 218 218 218 218 218 218 218 217 216 215 214 213 215 215 215 214 216 216 -193 -193 -193 -193 -193 214 215 212 214 213 212 213 212 213 213 213 213 213 212 213 214 216 215 216 217 218 219 220 220 219 218 218 218 217 217 218 217 217 217 218 218 219 220 223 0 0 0 0 0
    0 0 0 0 0 0 0 0 0 0 0 0 0 0 0 0 0 0 0 0 0 0 0 0 0 0 0 0 0 0 0 0 0 0 0 0 0 0 0 0 0 0 0 0 0 0 0 0 0 0 0 0 0 0 0 0 0 0 0 0 0 0 0 0 0 0 0 0 0 226 226 225 227 227 226 231 228 227 227 226 224 226 225 224 224 225 226 224 224 0 -256 -1 -25275 227 224 222 225 223 223 223 223 222 221 222 223 222 222 221 221 221 221 221 222 221 221 223 223 223 225 224 225 224 225 226 223 224 224 222 223 223 224 223 222 226 225 224 222 221 220 221 222 220 226 221 221 221 222 223 222 222 223 220 223 226 227 224 224 225 225 224 223 225 224 223 224 224 224 222 223 223 223 224 223 222 222 222 224 223 223 223 222 222 223 224 224 223 224 222 223 222 222 222 222 222 222 220 221 222 221 223 221 221 221 221 222 223 221 221 220 222 222 223 223 223 223 223 225 224 224 222 222 221 219 219 218 218 217 216 216 217 218 219 221 220 219 219 220 219 220 220 219 219 221 220 220 220 220 219 220 219 219 219 219 219 219 219 219 218 219 218 217 217 216 215 215 216 216 217 216 218 217 218 217 -193 -193 217 215 215 213 217 215 213 214 213 213 214 214 213 213 213 214 214 216 216 216 217 -193 -193 -193 218 218 217 218 218 216 216 217 216 217 217 218 218 218 219 221 0 0 0 0 0
    0 0 0 0 0 0 0 0 0 0 0 0 0 0 0 0 0 0 0 0 0 0 0 0 0 0 0 0 0 0 0 0 0 0 0 0 0 0 0 0 0 0 0 0 0 0 0 0 0 0 0 0 0 0 0 0 0 0 0 0 0 0 0 0 0 0 0 0 0 226 226 225 226 227 226 232 229 228 228 227 224 226 226 224 223 225 226 224 224 225 224 224 226 227 225 221 224 222 222 222 222 221 221 221 222 221 221 220 220 220 221 220 221 220 220 223 223 223 226 225 226 224 225 226 224 225 225 223 224 222 223 222 220 224 222 221 220 220 220 221 221 220 224 221 221 221 221 222 221 221 222 220 223 225 226 223 223 224 224 223 223 224 224 222 224 224 224 222 222 223 222 223 223 222 222 222 224 223 223 223 222 222 222 223 224 223 223 222 222 222 221 222 222 220 221 220 220 222 221 223 221 221 221 221 222 223 221 222 220 223 223 223 223 222 222 222 224 223 223 221 221 220 219 219 217 217 217 215 216 217 219 220 223 221 220 220 220 220 220 220 220 219 221 219 220 220 219 219 220 219 219 220 220 219 219 220 219 219 219 219 218 217 217 217 216 217 218 218 218 218 218 218 218 217 217 217 215 216 215 218 217 214 214 214 214 215 214 214 214 213 215 215 217 216 216 -193 -209 -209 -193 217 217 216 217 217 216 216 216 216 217 216 217 217 217 218 220 0 0 0 0 0
    0 0 0 0 0 0 0 0 0 0 0 0 0 0 0 0 0 0 0 0 0 0 0 0 0 0 0 0 0 0 0 0 0 0 0 0 0 0 0 0 0 0 0 0 0 0 0 0 0 0 0 0 0 0 0 0 0 0 0 0 0 0 0 0 0 0 0 0 0 226 226 225 226 227 226 232 229 229 227 228 224 226 226 224 223 224 225 224 224 225 224 223 225 227 224 221 223 222 222 221 221 221 220 221 222 221 221 220 220 221 223 221 222 221 221 223 224 224 226 224 225 224 225 226 224 224 225 222 224 221 221 220 219 222 220 220 220 219 220 221 222 221 224 221 221 221 221 222 220 221 222 219 222 224 225 223 222 224 224 223 223 224 224 221 223 223 223 221 222 222 222 222 223 222 222 222 224 224 223 223 222 221 222 223 225 223 222 221 222 222 221 221 221 220 220 220 220 222 220 223 221 221 221 222 222 223 221 221 220 222 223 223 222 222 221 222 223 222 222 220 220 219 218 218 216 216 216 215 216 217 220 220 224 221 221 220 220 220 220 220 219 218 220 219 219 219 219 218 219 219 220 220 220 220 220 220 220 219 220 218 218 217 217 217 216 217 218 218 218 218 217 218 217 217 217 217 215 216 215 218 218 215 215 214 215 215 215 215 214 214 216 216 217 216 216 -193 -209 -209 -193 216 217 216 217 217 216 216 216 216 216 217 217 217 217 218 221 0 0 0 0 0
    0 0 0 0 0 0 0 0 0 0 0 0 0 0 0 0 0 0 0 0 0 0 0 0 0 0 0 0 0 0 0 0 0 0 0 0 0 0 0 0 0 0 0 0 0 0 0 0 0 0 0 0 0 0 0 0 0 0 0 0 0 0 0 0 0 0 0 0 0 226 226 226 225 227 227 232 230 229 228 228 224 226 226 224 222 223 225 224 223 224 224 223 224 226 224 221 223 222 222 221 221 221 221 221 222 221 221 220 221 222 224 223 223 221 221 223 224 224 225 224 224 223 224 225 223 223 224 221 222 220 220 220 218 221 220 219 220 219 220 221 222 221 224 222 221 221 222 222 221 221 222 220 222 223 224 222 221 223 223 223 222 223 222 220 222 222 222 220 221 221 221 222 223 222 222 222 223 224 222 223 221 221 221 223 224 223 222 221 222 222 222 221 221 220 221 220 219 222 221 222 221 221 221 222 223 224 221 221 220 222 222 222 221 221 220 220 221 221 220 219 219 218 217 218 216 216 216 215 216 219 221 221 225 221 221 220 220 220 219 219 219 218 219 219 219 219 219 219 220 219 221 220 220 220 220 221 220 219 220 218 218 218 218 217 217 217 218 218 218 218 218 218 217 217 217 217 215 216 216 219 218 215 215 214 215 216 215 215 -193 215 -193 -193 218 217 216 -193 -209 -209 -193 216 216 216 217 217 215 215 216 215 216 216 217 216 215 217 220 0 0 0 0 0
    0 0 0 0 0 0 0 0 0 0 0 0 0 0 0 0 0 0 0 0 0 0 0 0 0 0 0 0 0 0 0 0 0 0 0 0 0 0 0 0 0 0 0 0 0 0 0 0 0 0 0 0 0 0 0 0 0 0 0 0 0 0 0 0 0 0 0 0 0 226 227 226 226 228 228 232 231 229 228 228 224 225 226 223 222 223 225 224 223 224 224 222 224 226 225 221 224 222 222 221 221 221 221 221 222 221 221 221 222 224 225 225 225 222 222 224 224 224 225 224 224 222 224 224 222 223 224 221 221 220 221 220 219 222 220 219 219 218 219 220 221 220 223 221 221 221 222 223 221 221 222 220 221 223 222 221 220 221 222 221 220 221 221 220 221 221 222 220 221 221 221 222 223 222 222 222 223 224 222 222 221 221 221 223 224 222 222 221 222 223 222 221 221 220 220 220 219 221 221 222 221 221 221 222 223 224 221 221 220 222 222 221 221 221 219 219 220 219 219 218 218 217 217 217 216 216 216 215 216 219 222 221 225 221 221 220 220 220 219 219 219 218 220 219 219 220 219 219 220 220 222 220 220 220 220 221 220 219 220 218 219 219 219 219 218 218 219 219 219 218 218 217 217 217 217 217 215 215 216 218 218 215 215 214 215 -193 215 -193 -193 -193 -193 218 219 219 217 218 -193 -209 -193 216 216 216 216 216 215 214 215 215 215 215 215 215 214 217 218 0 0 0 0 0
    0 0 0 0 0 0 0 0 0 0 0 0 0 0 0 0 0 0 0 0 0 0 0 0 0 0 0 0 0 0 0 0 0 0 0 0 0 0 0 0 0 0 0 0 0 0 0 0 0 0 0 0 0 0 0 0 0 0 0 0 0 0 0 0 0 0 0 0 0 225 226 226 225 228 229 232 232 230 228 227 223 224 225 223 222 222 225 224 223 224 224 223 224 226 225 222 224 222 222 221 221 221 221 221 221 221 221 222 222 225 225 226 226 223 223 225 224 224 225 224 224 222 224 224 222 223 225 221 221 219 221 219 219 222 220 219 219 218 219 220 220 220 223 221 221 221 222 223 222 221 222 220 221 222 221 220 219 220 220 219 219 219 220 219 220 220 221 220 220 220 220 221 222 221 221 221 222 223 222 222 220 220 221 223 223 222 221 221 222 222 222 221 220 220 220 219 219 221 220 222 221 221 221 222 223 224 221 221 221 221 222 221 220 220 218 219 219 218 218 218 218 217 217 218 216 216 216 215 216 218 220 220 224 221 221 220 220 220 219 219 219 218 220 219 219 220 219 219 220 220 222 220 220 220 220 221 220 219 220 218 219 218 219 219 218 218 219 219 218 218 217 217 216 216 216 216 215 215 216 218 218 216 216 215 216 -193 215 -193 -193 -193 -193 219 220 220 218 218 218 -193 -193 215 216 215 215 216 214 214 215 215 215 215 215 215 214 217 217 0 0 0 0 0
    0 0 0 0 0 0 0 0 0 0 0 0 0 0 0 0 0 0 0 0 0 0 0 0 0 0 0 0 0 0 0 0 0 0 0 0 0 0 0 0 0 0 0 0 0 0 0 0 0 0 0 0 0 0 0 0 0 0 0 0 0 0 0 0 0 0 0 0 0 224 225 225 225 226 228 231 231 228 226 226 223 223 225 222 221 222 225 223 223 224 224 223 224 225 225 222 223 222 222 221 221 221 221 221 221 221 222 222 222 225 225 226 226 224 223 225 225 224 226 225 225 223 224 224 223 224 226 221 221 219 220 219 220 221 220 218 218 218 219 219 220 219 223 221 221 221 222 223 222 222 222 220 221 223 222 220 219 219 219 218 219 218 219 219 219 219 220 219 220 220 219 220 221 220 220 220 221 222 221 221 219 220 221 223 223 222 221 221 222 222 222 221 219 219 220 219 219 221 220 222 221 221 221 222 223 224 221 221 221 221 222 221 220 219 218 218 218 218 218 217 218 217 217 217 216 216 215 215 215 217 218 219 224 220 221 220 220 219 219 219 220 219 220 219 219 220 220 220 220 220 222 220 220 220 220 221 220 219 219 218 218 218 218 218 218 218 218 218 218 217 217 216 216 215 216 215 215 215 216 218 218 216 216 216 -193 218 216 -193 -193 -193 -193 220 220 220 217 218 217 217 216 215 216 216 215 216 214 214 215 215 215 215 215 215 214 216 -193 0 0 0 0 0
    0 0 0 0 0 0 0 0 0 0 0 0 0 0 0 0 0 0 0 0 0 0 0 0 0 0 0 0 0 0 0 0 0 0 0 0 0 0 0 0 0 0 0 0 0 0 0 0 0 0 0 0 0 0 0 0 0 0 0 0 0 0 0 0 0 0 0 0 0 222 223 224 223 224 226 228 229 226 224 225 222 222 224 221 221 221 224 223 222 223 223 222 223 224 224 221 223 222 221 221 221 221 221 221 221 222 222 223 223 226 225 226 225 223 222 225 224 224 226 225 225 223 224 225 223 225 226 223 222 219 221 220 220 221 220 219 219 218 219 220 220 220 223 222 221 221 222 223 222 222 222 220 221 223 221 220 219 219 218 218 218 218 217 218 218 219 219 219 219 219 219 220 220 220 220 220 220 221 222 221 219 220 221 224 223 222 221 220 221 222 222 221 219 219 219 218 218 221 220 221 221 221 221 222 223 224 221 222 221 221 222 221 220 219 217 218 218 218 218 217 218 217 217 218 217 217 217 218 217 219 220 220 225 221 222 220 220 219 219 219 220 219 220 219 219 221 220 220 221 220 222 220 220 220 219 220 219 219 219 217 218 217 218 218 218 218 218 218 219 218 217 216 215 215 215 215 215 216 216 217 217 216 216 216 217 218 216 217 216 -193 220 220 220 220 217 217 217 216 217 215 216 -209 -209 216 215 214 215 215 215 215 214 215 214 217 -193 0 0 0 0 0
    0 0 0 0 0 0 0 0 0 0 0 0 0 0 0 0 0 0 0 0 0 0 0 0 0 0 0 0 0 0 0 0 0 0 0 0 0 0 0 0 0 0 0 0 0 0 0 0 0 0 0 0 0 0 0 0 0 0 0 0 0 0 0 0 0 0 0 0 0 221 222 223 222 222 226 227 228 226 224 224 221 222 223 221 220 221 224 222 222 223 223 222 223 224 223 221 222 222 221 221 221 221 221 221 221 222 221 222 222 225 225 225 224 222 221 224 223 222 224 225 225 223 224 225 224 225 226 223 222 220 222 222 221 221 220 219 219 219 220 220 220 220 224 222 221 222 222 223 222 222 222 219 220 222 220 220 219 219 218 218 218 218 217 217 218 218 219 219 219 218 219 220 220 220 219 219 219 221 221 220 218 219 221 223 223 222 221 220 221 222 222 220 219 219 219 218 218 220 219 220 220 221 220 221 222 223 221 222 221 221 221 221 219 219 217 218 218 218 218 217 217 217 217 218 217 217 217 219 219 221 221 220 224 221 222 220 219 219 219 219 219 218 219 218 219 220 220 219 220 219 221 219 220 219 218 220 219 219 219 217 218 218 219 219 218 219 219 219 220 218 217 216 215 215 215 214 215 215 216 217 217 216 216 216 217 217 216 216 216 217 220 220 220 219 217 217 217 216 217 216 216 -209 -209 216 215 215 215 215 215 215 214 215 215 217 216 0 0 0 0 0
    0 0 0 0 0 0 0 0 0 0 0 0 0 0 0 0 0 0 0 0 0 0 0 0 0 0 0 0 0 0 0 0 0 0 0 0 0 0 0 0 0 0 0 0 0 0 0 0 0 0 0 0 0 0 0 0 0 0 0 0 0 0 0 0 0 0 0 0 0 220 222 223 222 221 225 226 228 226 225 224 222 222 223 220 221 221 224 222 222 223 223 222 223 223 223 221 223 222 221 221 221 221 221 221 221 222 220 221 222 224 224 -193 223 221 220 222 221 221 222 225 224 223 224 224 223 225 225 223 221 220 221 221 220 220 219 219 220 219 220 220 220 220 225 222 221 222 222 223 222 222 222 219 220 221 220 220 219 219 218 218 218 218 217 218 218 218 218 218 218 218 218 219 220 220 219 219 219 221 221 220 218 219 221 223 223 222 221 221 222 223 222 221 219 219 219 218 219 220 219 220 220 220 220 221 222 223 220 221 220 220 221 220 219 219 217 218 218 217 217 217 217 217 217 218 217 216 217 219 218 221 220 219 221 220 221 220 219 219 218 218 219 218 219 217 218 219 219 218 219 218 220 219 219 219 218 219 219 219 219 217 218 218 220 220 218 219 220 219 220 218 217 216 215 215 214 214 214 215 216 216 216 216 216 216 217 217 215 216 216 216 218 219 219 218 216 216 216 216 217 217 216 -209 -209 216 215 215 215 215 215 215 213 214 215 217 216 0 0 0 0 0
    0 0 0 0 0 0 0 0 0 0 0 0 0 0 0 0 0 0 0 0 0 0 0 0 0 0 0 0 0 0 0 0 0 0 0 0 0 0 0 0 0 0 0 0 0 0 0 0 0 0 0 0 0 0 0 0 0 0 0 0 0 0 0 0 0 0 0 0 0 220 221 222 221 221 224 224 226 225 223 225 222 222 223 220 221 221 224 222 222 223 222 222 224 224 223 221 223 223 221 222 221 221 221 221 220 222 220 221 221 223 223 224 223 221 221 223 221 221 222 226 223 223 224 223 222 224 224 222 220 220 221 221 220 219 219 219 219 218 219 219 219 219 226 222 222 222 222 222 222 222 222 219 220 221 219 220 219 219 219 219 219 218 218 218 218 218 218 218 218 217 217 218 219 219 218 218 218 220 220 219 218 219 222 223 223 223 221 221 222 223 223 221 220 220 219 218 219 220 219 219 219 220 219 220 221 222 220 221 220 220 220 219 218 219 217 217 218 217 217 217 218 217 218 219 218 217 218 219 218 220 218 217 219 218 220 219 219 218 218 218 219 218 219 218 218 219 219 218 218 218 220 218 219 218 217 218 218 218 218 217 218 218 220 220 218 219 220 219 220 218 217 216 216 215 214 214 214 215 216 217 217 216 216 216 216 216 214 215 214 215 217 218 218 217 215 215 215 216 217 217 216 -209 -209 216 215 215 215 214 214 214 212 214 214 217 216 0 0 0 0 0
    0 0 0 0 0 0 0 0 0 0 0 0 0 0 0 0 0 0 0 0 0 0 0 0 0 0 0 0 0 0 0 0 0 0 0 0 0 0 0 0 0 0 0 0 0 0 0 0 0 0 0 0 0 0 0 0 0 0 0 0 0 0 0 0 0 0 0 0 0 220 221 223 221 221 224 224 225 225 223 225 222 223 223 220 221 222 225 223 222 223 222 222 224 224 223 221 223 223 222 223 221 221 221 221 221 222 221 222 222 223 222 223 223 222 221 223 221 221 222 227 224 223 224 224 223 224 224 223 220 221 221 222 220 220 219 219 219 218 218 218 218 218 226 222 222 222 222 222 222 222 222 218 220 220 219 220 219 218 218 218 218 218 217 218 217 217 218 218 218 218 217 218 218 219 217 217 217 218 219 218 217 218 222 223 222 223 222 221 222 223 223 221 220 221 219 218 219 219 219 218 218 219 219 220 220 221 220 220 220 220 220 219 218 219 217 218 218 218 218 218 219 218 219 220 219 218 218 218 218 218 217 216 217 217 219 219 219 218 218 219 219 219 220 218 219 220 219 218 218 217 218 217 218 217 216 218 218 218 218 217 218 218 220 220 219 220 220 219 220 218 217 216 216 215 215 214 215 216 217 217 216 216 216 216 216 216 214 214 213 214 216 217 216 216 214 215 215 215 217 217 216 -193 -193 216 214 214 214 214 214 213 212 214 214 217 216 0 0 0 0 0
    0 0 0 0 0 0 0 0 0 0 0 0 0 0 0 0 0 0 0 0 0 0 0 0 0 0 0 0 0 0 0 0 0 0 0 0 0 0 0 0 0 0 0 0 0 0 0 0 0 0 0 0 0 0 0 0 0 0 0 0 0 0 0 0 0 0 0 0 0 221 222 224 222 222 224 223 224 225 223 225 222 223 222 220 222 223 225 223 222 223 222 223 224 224 223 220 222 223 222 222 221 222 221 221 221 222 221 222 222 223 222 222 223 222 221 223 221 221 222 227 224 224 225 224 224 225 224 223 221 221 221 222 220 219 219 219 218 217 217 217 216 217 227 222 221 222 222 222 221 222 222 218 219 220 218 219 219 218 217 217 217 217 217 217 217 217 218 219 219 218 217 218 218 219 218 217 217 218 218 218 217 219 221 222 222 223 222 221 222 223 222 221 219 220 218 218 218 218 218 218 218 218 218 219 220 220 220 220 220 220 220 219 218 219 217 218 218 218 219 219 220 220 220 221 219 218 218 218 218 218 216 216 217 217 219 219 219 218 218 219 219 219 220 218 219 220 219 218 217 217 217 217 217 216 216 217 217 217 217 216 218 218 220 220 219 219 219 219 219 217 216 215 215 214 213 214 214 217 217 217 216 215 215 215 216 215 213 213 212 212 214 214 214 214 212 213 214 215 216 -193 -193 -193 -193 216 214 214 214 214 214 213 213 214 215 217 216 0 0 0 0 0
    0 0 0 0 0 0 0 0 0 0 0 0 0 0 0 0 0 0 0 0 0 0 0 0 0 0 0 0 0 0 0 0 0 0 0 0 0 0 0 0 0 0 0 0 0 0 0 0 0 0 0 0 0 0 0 0 0 0 0 0 0 0 0 0 0 0 0 0 0 222 223 223 222 221 223 223 224 225 223 225 223 224 223 221 223 223 226 223 222 223 222 223 224 223 222 220 222 222 222 223 221 222 221 222 222 222 221 221 222 222 222 222 222 221 221 223 221 222 222 227 226 225 226 225 225 226 223 223 221 220 220 221 219 218 218 218 218 217 216 216 216 217 227 221 221 222 221 221 221 222 221 217 218 219 218 219 219 -193 -193 218 217 218 217 217 216 217 218 219 218 218 217 218 218 219 217 217 216 217 218 218 217 219 221 222 222 222 222 221 221 222 221 220 219 219 218 218 219 219 218 218 218 218 219 220 220 220 219 220 220 220 220 220 218 220 218 220 220 221 222 222 223 223 222 223 220 218 218 217 217 217 216 216 216 217 219 219 219 218 218 219 219 219 219 218 219 219 218 217 217 217 217 217 217 216 216 217 217 217 216 216 217 217 219 219 218 219 218 218 218 216 215 213 214 214 212 213 214 217 218 218 216 215 215 216 216 216 214 214 212 212 214 213 212 212 211 212 213 214 216 -193 216 -193 -193 216 215 215 215 215 215 214 214 215 215 217 217 0 0 0 0 0
    0 0 0 0 0 0 0 0 0 0 0 0 0 0 0 0 0 0 0 0 0 0 0 0 0 0 0 0 0 0 0 0 0 0 0 0 0 0 0 0 0 0 0 0 0 0 0 0 0 0 0 0 0 0 0 0 0 0 0 0 0 0 0 0 0 0 0 0 0 222 223 223 221 221 222 223 223 225 224 226 224 225 224 221 223 224 226 223 223 223 222 223 224 224 222 220 223 223 223 223 222 221 221 222 222 222 221 221 222 222 222 222 223 222 222 224 222 224 223 228 227 226 227 226 225 226 223 223 221 220 219 220 218 218 217 217 217 216 216 216 216 217 227 221 221 222 221 221 221 222 221 217 218 219 218 219 219 218 217 218 217 218 217 217 216 217 218 219 218 219 218 218 218 219 217 217 216 217 218 218 218 219 220 220 221 221 220 219 220 220 220 219 218 218 218 217 218 219 219 219 218 219 219 220 220 220 219 220 220 220 220 220 218 220 218 221 221 223 224 224 225 224 223 222 220 218 217 217 217 216 215 215 216 217 219 219 218 218 218 218 219 219 218 218 218 218 218 217 217 218 217 217 217 216 215 216 217 217 216 215 217 217 218 219 218 218 217 217 217 214 213 211 212 213 209 212 212 217 217 217 215 215 214 216 216 217 215 215 214 214 214 213 211 211 209 209 212 213 215 215 216 -193 216 216 215 215 215 215 215 214 214 215 215 217 217 0 0 0 0 0
    0 0 0 0 0 0 0 0 0 0 0 0 0 0 0 0 0 0 0 0 0 0 0 0 0 0 0 0 0 0 0 0 0 0 0 0 0 0 0 0 0 0 0 0 0 0 0 0 0 0 0 0 0 0 0 0 0 0 0 0 0 0 0 0 0 0 0 0 0 223 223 223 221 221 221 223 223 226 225 226 224 225 224 222 223 224 226 223 223 224 223 224 225 224 223 220 224 223 223 223 222 221 221 222 222 222 221 222 222 223 223 223 223 222 223 224 223 224 223 227 226 226 226 225 224 225 222 222 220 219 219 219 217 217 216 216 217 216 216 216 216 217 226 221 221 223 222 222 221 222 221 218 219 220 218 219 219 218 218 218 217 218 217 217 217 218 218 219 219 220 218 219 219 219 218 218 217 218 218 218 218 219 220 220 220 220 220 218 219 219 219 218 218 218 218 218 218 220 219 219 219 219 219 220 221 221 219 220 219 220 220 220 219 220 219 221 221 222 223 223 223 222 221 221 219 218 218 217 218 217 217 216 217 218 219 218 218 218 218 218 218 219 218 218 218 218 217 217 217 218 217 217 217 216 215 216 216 217 215 215 217 217 218 219 218 218 217 216 216 213 213 211 212 213 211 211 212 215 215 215 214 213 212 213 215 215 214 215 214 214 214 214 212 211 210 210 212 214 216 215 215 216 215 216 215 215 215 214 214 213 213 214 214 216 216 0 0 0 0 0
    0 0 0 0 0 0 0 0 0 0 0 0 0 0 0 0 0 0 0 0 0 0 0 0 0 0 0 0 0 0 0 0 0 0 0 0 0 0 0 0 0 0 0 0 0 0 0 0 0 0 0 0 0 0 0 0 0 0 0 0 0 0 0 0 0 0 0 0 0 224 223 223 221 221 221 222 222 225 225 226 225 226 225 223 224 225 226 224 224 224 223 225 225 225 223 221 225 223 223 223 221 221 221 222 222 222 222 222 222 223 224 224 224 223 223 225 223 225 223 227 225 226 226 225 223 224 221 222 219 218 217 217 216 216 216 216 217 217 216 217 217 218 226 221 221 225 222 223 221 223 222 219 220 220 218 220 219 219 217 218 218 219 218 218 218 219 220 220 220 221 219 220 220 220 219 219 218 219 219 219 218 219 220 220 219 220 219 218 219 219 218 218 218 218 218 217 218 221 220 220 219 220 220 220 221 221 219 220 219 220 220 219 219 219 219 220 220 221 221 221 221 220 220 219 218 217 217 217 218 217 217 217 217 218 219 218 218 218 218 218 218 219 218 218 218 218 218 217 217 218 217 216 217 216 215 216 216 216 214 215 217 217 218 218 218 217 217 216 216 214 213 212 213 213 212 211 212 213 214 213 213 211 211 212 215 215 214 214 215 215 215 214 213 212 211 211 213 215 216 215 216 215 215 215 215 214 214 214 214 212 212 213 213 215 214 0 0 0 0 0
    0 0 0 0 0 0 0 0 0 0 0 0 0 0 0 0 0 0 0 0 0 0 0 0 0 0 0 0 0 0 0 0 0 0 0 0 0 0 0 0 0 0 0 0 0 0 0 0 0 0 0 0 0 0 0 0 0 0 0 0 0 0 0 0 0 0 0 0 0 225 224 223 221 221 220 -193 221 224 224 226 225 226 225 224 225 226 227 224 225 225 224 226 226 226 224 221 225 224 224 224 221 221 221 222 223 223 223 223 224 224 225 225 225 224 224 225 223 224 222 226 224 225 226 224 223 223 221 221 219 218 216 216 215 216 216 217 217 217 217 219 219 220 226 222 222 226 223 224 222 223 222 219 221 221 219 220 219 219 217 218 218 220 219 219 220 221 221 222 221 222 220 220 220 220 219 219 219 219 220 220 219 220 220 220 219 219 219 218 218 219 218 218 218 218 218 218 218 222 220 220 220 220 221 221 221 221 219 220 219 220 220 219 219 219 219 220 220 221 221 221 220 220 220 219 218 217 217 217 217 217 217 215 216 217 217 217 217 217 217 217 217 218 218 218 219 218 218 217 217 219 217 217 217 217 216 216 217 216 214 215 217 217 217 218 217 216 216 215 215 213 213 212 212 213 213 212 213 213 214 213 213 212 212 212 214 214 214 214 215 215 215 215 214 213 212 212 213 214 216 215 215 215 215 215 215 214 214 214 214 213 214 214 214 215 214 0 0 0 0 0
    0 0 0 0 0 0 0 0 0 0 0 0 0 0 0 0 0 0 0 0 0 0 0 0 0 0 0 0 0 0 0 0 0 0 0 0 0 0 0 0 0 0 0 0 0 0 0 0 0 0 0 0 0 0 0 0 0 0 0 0 0 0 0 0 0 0 0 0 0 225 224 223 220 221 220 -209 220 224 224 225 225 226 225 225 226 227 227 225 225 225 224 227 226 226 224 222 226 224 224 224 222 222 222 223 224 224 224 224 224 225 226 226 226 225 225 225 224 225 222 225 224 225 226 225 223 223 221 222 220 218 217 216 216 217 216 218 217 217 218 220 220 221 227 223 222 227 224 225 222 223 222 220 221 221 220 221 -193 -209 -193 -193 218 221 220 220 221 222 222 223 222 223 220 220 220 220 219 219 219 219 219 219 219 220 219 219 219 218 218 217 218 218 218 217 217 218 218 218 218 223 221 221 220 221 221 221 221 221 219 220 219 220 220 219 219 219 219 220 220 220 221 220 220 219 220 219 218 218 217 217 218 218 217 215 216 217 216 216 216 216 216 216 217 218 218 218 219 218 218 217 217 220 218 217 218 218 217 217 218 218 216 217 218 217 217 218 217 215 215 214 213 211 211 211 212 212 213 213 214 215 215 214 214 214 213 213 215 214 214 214 216 216 215 216 215 215 214 214 214 215 216 215 215 214 214 215 215 215 215 215 215 214 216 216 215 215 214 0 0 0 0 0
    0 0 0 0 0 0 0 0 0 0 0 0 0 0 0 0 0 0 0 0 0 0 0 0 0 0 0 0 0 0 0 0 0 0 0 0 0 0 0 0 0 0 0 0 0 0 0 0 0 0 0 0 0 0 0 0 0 0 0 0 0 0 0 0 0 0 0 0 0 226 226 223 221 -193 220 -193 221 224 224 225 225 226 226 225 226 227 227 224 225 225 224 227 226 225 224 222 226 225 225 225 222 222 223 224 224 225 224 225 225 226 226 226 226 225 225 225 224 224 222 223 223 225 226 225 224 223 221 222 221 218 217 217 217 217 217 219 218 218 218 221 221 221 226 223 222 227 224 225 222 223 222 220 221 222 220 222 -193 -209 -193 -193 -193 -193 -193 220 222 223 222 224 222 224 221 221 220 220 219 219 219 219 219 219 219 220 219 219 218 218 218 217 217 217 217 217 216 217 218 218 217 224 221 221 220 221 221 221 222 222 219 220 220 221 221 220 219 219 219 220 220 220 220 220 220 219 220 219 218 218 217 217 218 217 217 215 -209 217 216 216 216 215 215 215 216 217 217 218 219 218 218 217 217 221 218 218 219 219 218 218 219 219 217 217 219 217 217 218 217 215 214 213 212 210 210 210 211 212 212 213 214 215 216 215 215 215 214 214 214 214 213 213 216 216 215 216 215 217 216 215 216 -209 218 215 215 214 214 214 214 215 215 216 216 215 216 216 216 -209 -193 0 0 0 0 0
    0 0 0 0 0 0 0 0 0 0 0 0 0 0 0 0 0 0 0 0 0 0 0 0 0 0 0 0 0 0 0 0 0 0 0 0 0 0 0 0 0 0 0 0 0 0 0 0 0 0 0 0 0 0 0 0 0 0 0 0 0 0 0 0 0 0 0 0 0 227 226 223 221 220 220 -193 221 223 224 224 226 227 226 226 226 227 226 224 225 224 224 227 226 225 224 223 227 225 226 225 222 222 222 224 225 224 225 225 225 227 227 227 227 226 226 225 224 224 221 222 222 223 225 225 223 222 221 222 220 217 216 215 216 216 217 219 217 218 218 221 223 222 226 223 222 228 224 226 223 223 223 221 221 222 220 222 -193 -193 -177 -193 -193 -193 -193 221 223 223 223 224 222 224 221 221 220 220 220 220 220 220 220 220 219 220 219 219 218 217 217 216 217 217 216 -193 216 217 218 218 218 225 222 222 221 222 222 222 222 222 219 220 220 221 220 220 219 219 219 219 219 219 219 219 219 219 219 219 218 218 218 218 218 218 217 216 -209 217 216 216 215 215 215 215 216 218 218 218 219 219 218 218 218 222 219 218 220 220 219 219 220 219 217 218 219 217 217 218 216 214 213 213 211 209 210 210 211 211 212 213 214 215 215 215 215 215 214 213 213 211 211 211 215 216 214 216 216 219 219 219 -193 -209 -209 -209 -209 214 214 215 215 215 216 216 217 216 217 216 215 -209 -209 0 0 0 0 0
    0 0 0 0 0 0 0 0 0 0 0 0 0 0 0 0 0 0 0 0 0 0 0 0 0 0 0 0 0 0 0 0 0 0 0 0 0 0 0 0 0 0 0 0 0 0 0 0 0 0 0 0 0 0 0 0 0 0 0 0 0 0 0 0 0 0 0 0 0 226 226 -193 -193 -193 -209 -209 221 223 224 223 227 227 227 226 226 227 226 223 225 224 225 228 227 226 225 225 228 226 227 226 222 222 222 224 224 224 225 225 226 228 228 229 229 228 227 226 225 226 222 223 222 223 224 224 223 221 220 221 219 216 214 213 215 216 216 -209 217 218 218 221 224 223 226 223 222 229 225 227 223 224 223 222 222 223 221 223 -193 -177 -177 -193 -193 -193 -193 222 224 224 223 224 223 224 221 221 221 220 219 220 220 220 220 220 219 220 219 -193 -193 -193 217 216 216 217 217 -193 -209 -193 -193 -193 219 227 223 224 222 223 223 223 223 223 219 220 219 221 220 219 218 218 218 218 218 218 218 219 218 219 219 218 218 -209 -193 -193 -193 218 217 -193 -209 217 -209 215 215 215 215 215 216 218 218 218 219 218 218 218 218 222 219 218 220 220 219 220 220 219 217 217 219 216 216 -193 215 213 213 213 -193 209 210 210 211 212 212 213 214 215 215 -193 -193 215 214 -193 211 207 207 210 215 216 214 218 217 222 225 -193 -209 -209 235 -209 -209 215 215 216 215 216 216 216 217 217 217 217 216 -209 -209 0 0 0 0 0
    0 0 0 0 0 0 0 0 0 0 0 0 0 0 0 0 0 0 0 0 0 0 0 0 0 0 0 0 0 0 0 0 0 0 0 0 0 0 0 0 0 0 0 0 0 0 0 0 0 0 0 0 0 0 0 0 0 0 0 0 0 0 0 0 0 0 0 0 0 -193 -193 -193 -193 -225 -225 -193 221 225 225 224 227 227 226 226 226 227 225 223 226 225 226 229 228 227 226 226 229 227 227 226 222 222 221 226 -193 225 -193 -193 -193 -193 -193 230 230 229 228 226 225 225 -193 -193 -193 222 223 223 221 219 220 222 220 216 214 212 -193 -209 -193 -209 -209 218 219 223 227 226 226 225 222 230 226 228 223 224 223 223 223 224 222 224 -193 810 -177 -177 -193 -193 -193 -193 225 225 223 224 223 224 221 221 221 220 220 220 220 221 220 220 219 219 219 -193 -193 -193 216 215 216 217 217 -209 -209 -209 -193 -193 -193 -193 -193 -193 221 223 223 223 223 222 219 220 219 221 220 219 218 217 218 217 217 217 217 218 -193 218 -193 -193 217 -209 -193 -193 -209 218 -209 -209 -209 -209 -209 -209 -209 214 214 -193 215 218 -193 218 219 218 218 218 218 221 219 218 221 221 220 220 221 220 218 218 220 216 -193 -209 -209 -193 -193 -193 -193 -193 210 210 211 212 213 213 214 215 215 -193 -209 -193 -209 -209 -209 -209 -193 -209 -209 -209 -209 -209 217 224 230 -193 -209 -193 242 248 -209 -209 215 214 214 215 215 215 217 217 217 217 -193 -209 -209 0 0 0 0 0
    0 0 0 0 0 0 0 0 0 0 0 0 0 0 0 0 0 0 0 0 0 0 0 0 0 0 0 0 0 0 0 0 0 0 0 0 0 0 0 0 0 0 0 0 0 0 0 0 0 0 0 0 0 0 0 0 0 0 0 0 0 0 0 0 0 0 0 0 0 -225 -225 -225 -225 -225 -225 -225 -225 222 222 222 225 227 225 227 226 227 225 223 226 225 227 231 227 228 226 227 228 226 -193 -193 -193 -193 -193 -193 -193 -193 -209 -193 -193 -193 -193 -225 229 228 -193 225 223 223 -209 -209 -209 -193 222 221 220 218 -193 222 -209 -193 207 211 -209 -209 -193 -209 -209 219 220 225 230 229 227 -193 -193 -209 -209 -209 -209 -209 224 224 223 225 224 -193 810 811 808 -177 -193 -193 801 -193 228 228 225 226 225 226 222 222 222 221 220 220 221 222 222 221 220 220 221 -193 -193 -193 217 217 218 218 219 -193 -209 -193 -193 -209 -193 -193 -193 -193 222 223 224 223 223 222 219 220 220 221 219 219 218 218 218 217 217 216 -193 -193 216 217 218 217 217 -193 218 219 218 220 220 -209 -193 -193 -177 -209 -209 -193 215 -209 -193 -193 -209 -193 219 218 217 217 217 221 219 218 221 222 221 222 222 222 219 219 223 -209 -209 -209 -209 -209 -209 -209 -193 -193 211 211 -193 -209 214 -209 -209 215 216 -209 -209 -209 -209 -209 -209 -209 -209 -209 -209 -209 -209 -209 -209 -209 -193 237 -209 -193 244 248 -193 -193 214 214 213 215 215 216 217 217 217 218 218 -209 -209 0 0 0 0 0
    0 0 0 0 0 0 0 0 0 0 0 0 0 0 0 0 0 0 0 0 0 0 0 0 0 0 0 0 0 0 0 0 0 0 0 0 0 0 0 0 0 0 0 0 0 0 0 0 0 0 0 0 0 0 0 0 0 0 0 0 0 0 0 0 0 0 0 0 0 -225 -225 -225 -225 -225 -225 -225 -225 -225 -225 -225 -225 -225 227 230 231 -193 228 226 228 227 230 234 -193 -193 -193 -193 -193 -193 -193 -225 -225 -225 -225 -225 -225 -225 -225 -225 -225 -225 -225 -225 -225 -225 -225 -225 -225 -225 -225 -225 -225 -225 -225 -225 -225 -225 -225 -225 -225 -225 -225 -225 -225 -225 -225 -225 -225 -209 -209 230 -193 -209 -209 0 0 -209 -209 -209 -193 -209 -193 -193 -193 226 -193 628 -225 -225 -225 -225 -225 -225 -225 -225 -209 232 229 229 228 228 225 225 224 222 222 222 223 223 225 224 222 221 223 -193 -193 -193 218 218 219 220 220 -193 -209 -209 -209 -209 -193 -193 -193 -177 -193 223 224 223 -209 -209 -193 218 219 220 -193 -209 141 -193 -193 216 -193 -225 -193 -209 -209 217 218 -193 -209 -209 -193 -193 -225 221 -225 -225 -193 -209 495 -193 -193 -209 -193 -193 -209 -209 669 -209 -209 -193 217 216 217 221 220 219 224 224 223 224 226 226 222 222 228 -209 -209 -209 -209 -209 -209 -209 -193 -209 -209 -209 -209 -209 -209 -209 -209 -209 -209 -209 -209 -209 -209 -209 -209 -209 -209 -209 -209 -209 -209 -209 -209 -209 -193 239 240 243 245 248 249 250 -209 -209 214 215 216 216 217 217 217 218 -193 -209 -209 0 0 0 0 0
    0 0 0 0 0 0 0 0 0 0 0 0 0 0 0 0 0 0 0 0 0 0 0 0 0 0 0 0 0 0 0 0 0 0 0 0 0 0 0 0 0 0 0 0 0 0 0 0 0 0 0 0 0 0 0 0 0 0 0 0 0 0 0 0 0 0 0 0 0 -225 -225 -225 -225 -225 -225 -225 -225 -225 -225 -225 -225 -225 -225 -225 -225 -225 -225 -225 -225 -225 -225 -225 -225 -225 -225 -225 -225 -225 -225 -225 -225 -225 -225 -225 -225 -225 -225 -225 -225 -225 -225 -225 -225 -225 -225 -225 -225 -225 -225 -225 -225 -225 -225 -225 -225 -225 -225 -225 -225 -225 -225 -225 -225 -225 -225 -225 -225 -225 -225 -225 -225 -225 -225 -225 -225 -225 -225 -225 -225 -225 -225 -225 -225 -225 -225 -225 -225 -225 -225 -225 -225 -225 -225 -225 -225 -225 -225 -225 -225 -225 -225 -225 -225 -225 -225 -225 -225 -225 -193 -193 -193 -193 -193 -193 -193 -209 -209 -193 -193 880 885 885 886 890 892 -225 -225 -193 901 -209 -209 171 171 171 -193 -209 -209 -193 218 -193 141 -193 142 143 -193 -209 -225 -225 -225 -225 -225 -225 -225 -225 -225 -225 -225 -225 -225 -225 -225 -225 -225 -225 -225 -225 94 -225 -225 210 -209 -209 -209 -193 -209 -209 215 216 216 222 221 222 227 227 226 227 229 230 228 229 232 -209 -209 -209 -209 -209 -209 -209 -209 -209 -209 -209 -209 -209 -209 -209 -209 -209 38 34 34 -209 -209 80 -193 -209 -209 0 -193 -209 -209 -209 -209 -209 -193 241 242 244 246 248 248 249 -193 240 -209 219 218 218 218 218 218 219 -209 -209 -209 0 0 0 0 0
    0 0 0 0 0 0 0 0 0 0 0 0 0 0 0 0 0 0 0 0 0 0 0 0 0 0 0 0 0 0 0 0 0 0 0 0 0 0 0 0 0 0 0 0 0 0 0 0 0 0 0 0 0 0 0 0 0 0 0 0 0 0 0 0 0 0 0 0 0 -225 -225 -225 -225 -225 -225 -225 -225 -225 -225 -225 -225 -225 -225 -225 -225 -225 -225 -225 -225 -225 -225 -225 -225 -225 -225 -225 -225 -225 -225 -225 -225 -225 -225 -225 -225 -225 -225 -225 -225 -225 -225 -225 -225 -225 -225 -225 -225 -225 -225 -225 -225 -225 -225 -225 -225 -225 -225 -225 -225 -225 -225 -225 -225 -225 -225 -225 -225 -225 -225 -225 -225 -225 -225 -225 -225 -225 -225 -225 -225 -225 -225 -225 -225 -225 -225 -225 -225 -225 -225 -225 -225 -225 -225 -225 -225 -225 -225 -225 -225 -225 -225 -225 -225 -225 -225 -225 -225 -225 -225 -225 -225 -225 -225 -225 -225 -225 -225 -225 -225 -225 -225 -225 -225 -225 -225 -225 -225 -225 -225 -225 -225 176 176 175 177 170 177 -177 -225 -225 -225 -225 -225 -225 -225 -225 -225 -225 -225 -225 -225 -225 -225 -225 -225 -225 -225 -225 -225 -225 -225 -225 -225 -225 -225 -225 -225 -225 -225 -225 -225 -225 -225 160 159 159 -209 -193 -177 221 222 223 229 226 226 228 229 230 230 231 -209 -209 -209 -209 -209 -209 -209 -209 -209 -209 -209 -209 -209 -209 -209 -209 -209 -209 39 36 35 -209 -209 81 -193 -209 -209 -209 -193 -209 -209 -209 -193 -209 -193 241 242 244 246 248 247 248 248 244 238 226 219 220 219 220 218 219 -209 -209 -209 0 0 0 0 0
    0 0 0 0 0 0 0 0 0 0 0 0 0 0 0 0 0 0 0 0 0 0 0 0 0 0 0 0 0 0 0 0 0 0 0 0 0 0 0 0 0 0 0 0 0 0 0 0 0 0 0 0 0 0 0 0 0 0 0 0 0 0 0 0 0 0 0 0 0 -225 -225 -225 -225 -225 -225 -225 -225 -225 -225 -225 -225 -225 -225 -225 -225 -225 -225 -225 -225 -225 -225 -225 -225 -225 -225 -225 -225 -225 -225 -225 -225 -225 -225 -225 -225 -225 -225 -225 -225 -225 -225 -225 -225 -225 -225 -225 -225 -225 -225 -225 -225 -225 -225 -225 -225 -225 -225 -225 -225 -225 -225 -225 -225 -225 -225 -225 -225 -225 -225 -225 -225 -225 -225 -225 -225 -225 -225 -225 -225 -225 -225 -225 -225 -225 -225 -225 -225 -225 -225 -225 -225 -225 -225 -225 -225 -225 -225 -225 -225 -225 -225 -225 -225 -225 -225 -225 -225 -225 -225 -225 -225 -225 -225 -225 -225 -225 -225 -225 -225 -225 -225 -225 -225 -225 -225 -225 -225 -225 -225 -225 -225 -225 -225 -225 -225 -225 -225 -225 -225 -225 -225 -225 -225 -225 -225 -225 -225 -225 -225 -225 -225 -225 -225 -225 -225 -225 -225 -225 -225 -225 -225 -225 -225 -225 -225 -225 -225 -225 -225 -225 -225 -225 -225 -225 -225 -225 -225 -225 -225 -225 -225 -225 -225 -225 226 228 230 231 -193 -209 -209 -209 -209 -209 -209 -209 -209 -209 -209 -209 -209 -209 -209 -209 -209 -209 -209 -209 39 35 34 -209 -209 -177 -193 -209 -193 -209 -193 -209 -209 -209 222 -209 237 242 243 244 246 247 246 245 244 245 245 234 221 221 220 221 217 220 -209 -209 -209 0 0 0 0 0
    0 0 0 0 0 0 0 0 0 0 0 0 0 0 0 0 0 0 0 0 0 0 0 0 0 0 0 0 0 0 0 0 0 0 0 0 0 0 0 0 0 0 0 0 0 0 0 0 0 0 0 0 0 0 0 0 0 0 0 0 0 0 0 0 0 0 0 0 0 -225 -225 -225 -225 -225 -225 -225 -225 -225 -225 -225 -225 -225 -225 -225 -225 -225 -225 -225 -225 -225 -225 -225 -225 -225 -225 -225 -225 -225 -225 -225 -225 -225 -225 -225 -225 -225 -225 -225 -225 -225 -225 -225 -225 -225 -225 -225 -225 -225 -225 -225 -225 -225 -225 -225 -225 -225 -225 -225 -225 -225 -225 -225 -225 -225 -225 -225 -225 -225 -225 -225 -225 -225 -225 -225 -225 -225 -225 -225 -225 -225 -225 -225 -225 -225 -225 -225 -225 -225 -225 -225 -225 -225 -225 -225 -225 -225 -225 -225 -225 -225 -225 -225 -225 -225 -225 -225 -225 -225 -225 -225 -225 -225 -225 -225 -225 -225 -225 -225 -225 -225 -225 -225 -225 -225 -225 -225 -225 -225 -225 -225 -225 -225 -225 -225 -225 -225 -225 -225 -225 -225 -225 -225 -225 -225 -225 -225 -225 -225 -225 -225 -225 -225 -225 -225 -225 -225 -225 -225 -225 -225 -225 -225 -225 -225 -225 -225 -225 -225 -225 -225 -225 -225 -225 -225 -225 -225 -225 -225 -225 -225 -225 -225 -225 -225 -225 -225 -225 -225 -209 -209 -209 -209 -209 -209 -209 -209 -209 -209 -209 -209 -209 -209 -209 -209 -209 -209 -209 30 33 27 -177 -209 -209 -209 -209 -209 -177 -209 -209 -209 -209 -209 224 -193 238 242 243 243 244 246 244 244 242 244 245 244 228 223 220 223 217 222 -209 -209 -209 0 0 0 0 0
    0 0 0 0 0 0 0 0 0 0 0 0 0 0 0 0 0 0 0 0 0 0 0 0 0 0 0 0 0 0 0 0 0 0 0 0 0 0 0 0 0 0 0 0 0 0 0 0 0 0 0 0 0 0 0 0 0 0 0 0 0 0 0 0 0 0 0 0 0 -225 -225 -225 -225 -225 -225 -225 -225 -225 -225 -225 -225 -225 -225 -225 -225 -225 -225 -225 -225 -225 -225 -225 -225 -225 -225 -225 -225 -225 -225 -225 -225 -225 -225 -225 -225 -225 -225 -225 -225 -225 -225 -225 -225 -225 -225 -225 -225 -225 -225 -225 -225 -225 -225 -225 -225 -225 -225 -225 -225 -225 -225 -225 -225 -225 -225 -225 -225 -225 -225 -225 -225 -225 -225 -225 -225 -225 -225 -225 -225 -225 -225 -225 -225 -225 -225 -225 -225 -225 -225 -225 -225 -225 -225 -225 -225 -225 -225 -225 -225 -225 -225 -225 -225 -225 -225 -225 -225 -225 -225 -225 -225 -225 -225 -225 -225 -225 -225 -225 -225 -225 -225 -225 -225 -225 -225 -225 -225 -225 -225 -225 -225 -225 -225 -225 -225 -225 -225 -225 -225 -225 -225 -225 -225 -225 -225 -225 -225 -225 -225 -225 -225 -225 -225 -225 -225 -225 -225 -225 -225 -225 -225 -225 -225 -225 -225 -225 -225 -225 -225 -225 -225 -225 -225 -225 -225 -225 -225 -225 -225 -225 -225 -225 -225 -225 -225 -225 -225 -225 -225 -209 -209 -209 -209 -209 -209 -209 -209 -209 -209 -209 -209 -209 -209 -209 -209 29 32 28 28 -177 -177 -177 -209 -209 -209 122 131 -177 -209 -209 -209 -209 229 238 242 244 244 244 244 245 243 243 241 243 244 243 -209 -209 -193 -209 -209 228 -209 -209 -209 0 0 0 0 0
    0 0 0 0 0 0 0 0 0 0 0 0 0 0 0 0 0 0 0 0 0 0 0 0 0 0 0 0 0 0 0 0 0 0 0 0 0 0 0 0 0 0 0 0 0 0 0 0 0 0 0 0 0 0 0 0 0 0 0 0 0 0 0 0 0 0 0 0 0 -225 -225 -225 -225 -225 -225 -225 -225 -225 -225 -225 -225 -225 -225 -225 -225 -225 -225 -225 -225 -225 -225 -225 -225 -225 -225 -225 -225 -225 -225 -225 -225 -225 -225 -225 -225 -225 -225 -225 -225 -225 -225 -225 -225 -225 -225 -225 -225 -225 -225 -225 -225 -225 -225 -225 -225 -225 -225 -225 -225 -225 -225 -225 -225 -225 -225 -225 -225 -225 -225 -225 -225 -225 -225 -225 -225 -225 -225 -225 -225 -225 -225 -225 -225 -225 -225 -225 -225 -225 -225 -225 -225 -225 -225 -225 -225 -225 -225 -225 -225 -225 -225 -225 -225 -225 -225 -225 -225 -225 -225 -225 -225 -225 -225 -225 -225 -225 -225 -225 -225 -225 -225 -225 -225 -225 -225 -225 -225 -225 -225 -225 -225 -225 -225 -225 -225 -225 -225 -225 -225 -225 -225 -225 -225 -225 -225 -225 -225 -225 -225 -225 -225 -225 -225 -225 -225 -225 -225 -225 -225 -225 -225 -225 -225 -225 -225 -225 -225 -225 -225 -225 -225 -225 -225 -225 -225 -225 -225 -225 -225 -225 -225 -225 -225 -225 -225 -225 -225 -225 -225 -225 -209 -209 -209 -209 -209 -209 -209 -209 -209 -209 -209 -209 -209 -209 30 30 33 30 31 27 -177 -209 -209 -209 -209 -193 -177 -177 -209 -209 -209 -209 229 241 246 246 245 245 244 245 243 243 243 244 244 243 239 -193 -209 -193 -209 -193 -209 -209 -209 0 0 0 0 0
    0 0 0 0 0 0 0 0 0 0 0 0 0 0 0 0 0 0 0 0 0 0 0 0 0 0 0 0 0 0 0 0 0 0 0 0 0 0 0 0 0 0 0 0 0 0 0 0 0 0 0 0 0 0 0 0 0 0 0 0 0 0 0 0 0 0 0 0 0 -225 -225 -225 -225 -225 -225 -225 -225 -225 -225 -225 -225 -225 -225 -225 -225 -225 -225 -225 -225 -225 -225 -225 -225 -225 -225 -225 -225 -225 -225 -225 -225 -225 -225 -225 -225 -225 -225 -225 -225 -225 -225 -225 -225 -225 -225 -225 -225 -225 -225 -225 -225 -225 -225 -225 -225 -225 -225 -225 -225 -225 -225 -225 -225 -225 -225 -225 -225 -225 -225 -225 -225 -225 -225 -225 -225 -225 -225 -225 -225 -225 -225 -225 -225 -225 -225 -225 -225 -225 -225 -225 -225 -225 -225 -225 -225 -225 -225 -225 -225 -225 -225 -225 -225 -225 -225 -225 -225 -225 -225 -225 -225 -225 -225 -225 -225 -225 -225 -225 -225 -225 -225 -225 -225 -225 -225 -225 -225 -225 -225 -225 -225 -225 -225 -225 -225 -225 -225 -225 -225 -225 -225 -225 -225 -225 -225 -225 -225 -225 -225 -225 -225 -225 -225 -225 -225 -225 -225 -225 -225 -225 -225 -225 -225 -225 -225 -225 -225 -225 -225 -225 -225 -225 -225 -225 -225 -225 -225 -225 -225 -225 -225 -225 -225 -225 -225 -225 -225 -225 -225 -209 -209 -209 -209 -209 -209 -209 -209 -209 -209 -209 -209 -209 -209 -209 35 35 37 37 37 -193 -177 -209 -209 -209 -209 -209 -209 -209 -209 -209 -209 -209 230 243 248 248 247 246 246 246 245 244 245 245 245 245 243 241 -209 -209 -209 -209 -209 -209 -209 0 0 0 0 0
    0 0 0 0 0 0 0 0 0 0 0 0 0 0 0 0 0 0 0 0 0 0 0 0 0 0 0 0 0 0 0 0 0 0 0 0 0 0 0 0 0 0 0 0 0 0 0 0 0 0 0 0 0 0 0 0 0 0 0 0 0 0 0 0 0 0 0 0 0 -225 -225 -225 -225 -225 -225 -225 -225 -225 -225 -225 -225 -225 -225 -225 -225 -225 -225 -225 -225 -225 -225 -225 -225 -225 -225 -225 -225 -225 -225 -225 -225 -225 -225 -225 -225 -225 -225 -225 -225 -225 -225 -225 -225 -225 -225 -225 -225 -225 -225 -225 -225 -225 -225 -225 -225 -225 -225 -225 -225 -225 -225 -225 -225 -225 -225 -225 -225 -225 -225 -225 -225 -225 -225 -225 -225 -225 -225 -225 -225 -225 -225 -225 -225 -225 -225 -225 -225 -225 -225 -225 -225 -225 -225 -225 -225 -225 -225 -225 -225 -225 -225 -225 -225 -225 -225 -225 -225 -225 -225 -225 -225 -225 -225 -225 -225 -225 -225 -225 -225 -225 -225 -225 -225 -225 -225 -225 -225 -225 -225 -225 -225 -225 -225 -225 -225 -225 -225 -225 -225 -225 -225 -225 -225 -225 -225 -225 -225 -225 -225 -225 -225 -225 -225 -225 -225 -225 -225 -225 -225 -225 -225 -225 -225 -225 -225 -225 -225 -225 -225 -225 -225 -225 -225 -225 -225 -225 -225 -225 -225 -225 -225 -225 -225 -225 -225 -225 -225 -225 -209 -209 -209 -209 -209 -209 -209 -209 -209 -209 -209 -209 -209 -209 -209 -209 35 37 -209 38 39 43 -209 -209 -209 -209 -209 -209 -209 -209 -209 -209 -209 -209 -193 247 251 251 251 250 249 249 249 247 248 247 248 248 247 -193 -209 -209 -209 -209 -209 -209 -209 0 0 0 0 0
    0 0 0 0 0 0 0 0 0 0 0 0 0 0 0 0 0 0 0 0 0 0 0 0 0 0 0 0 0 0 0 0 0 0 0 0 0 0 0 0 0 0 0 0 0 0 0 0 0 0 0 0 0 0 0 0 0 0 0 0 0 0 0 0 0 0 0 0 0 -225 -225 -225 -225 -225 -225 -225 -225 -225 -225 -225 -225 -225 -225 -225 -225 -225 -225 -225 -225 -225 -225 -225 -225 -225 -225 -225 -225 -225 -225 -225 -225 -225 -225 -225 -225 -225 -225 -225 -225 -225 -225 -225 -225 -225 -225 -225 -225 -225 -225 -225 -225 -225 -225 -225 -225 -225 -225 -225 -225 -225 -225 -225 -225 -225 -225 -225 -225 -225 -225 -225 -225 -225 -225 -225 -225 -225 -225 -225 -225 -225 -225 -225 -225 -225 -225 -225 -225 -225 -225 -225 -225 -225 -225 -225 -225 -225 -225 -225 -225 -225 -225 -225 -225 -225 -225 -225 -225 -225 -225 -225 -225 -225 -225 -225 -225 -225 -225 -225 -225 -225 -225 -225 -225 -225 -225 -225 -225 -225 -225 -225 -225 -225 -225 -225 -225 -225 -225 -225 -225 -225 -225 -225 -225 -225 -225 -225 -225 -225 -225 -225 -225 -225 -225 -225 -225 -225 -225 -225 -225 -225 -225 -225 -225 -225 -225 -225 -225 -225 -225 -225 -225 -225 -225 -225 -225 -225 -225 -225 -225 -225 -225 -225 -225 -225 -225 -225 -225 -209 -209 -209 -209 -209 -209 -209 -209 -209 -209 -209 -209 -209 -209 -209 -209 -209 -209 -209 -209 38 -193 -177 -209 -209 -209 -209 -209 -209 165 174 -209 -177 -193 -209 -193 251 256 256 256 255 253 253 252 250 251 250 250 249 249 251 -209 -193 251 -209 -209 -209 -209 0 0 0 0 0
    0 0 0 0 0 0 0 0 0 0 0 0 0 0 0 0 0 0 0 0 0 0 0 0 0 0 0 0 0 0 0 0 0 0 0 0 0 0 0 0 0 0 0 0 0 0 0 0 0 0 0 0 0 0 0 0 0 0 0 0 0 0 0 0 0 0 0 0 0 -225 -225 -225 -225 -225 -225 -225 -225 -225 -225 -225 -225 -225 -225 -225 -225 -225 -225 -225 -225 -225 -225 -225 -225 -225 -225 -225 -225 -225 -225 -225 -225 -225 -225 -225 -225 -225 -225 -225 -225 -225 -225 -225 -225 -225 -225 -225 -225 -225 -225 -225 -225 -225 -225 -225 -225 -225 -225 -225 -225 -225 -225 -225 -225 -225 -225 -225 -225 -225 -225 -225 -225 -225 -225 -225 -225 -225 -225 -225 -225 -225 -225 -225 -225 -225 -225 -225 -225 -225 -225 -225 -225 -225 -225 -225 -225 -225 -225 -225 -225 -225 -225 -225 -225 -225 -225 -225 -225 -225 -225 -225 -225 -225 -225 -225 -225 -225 -225 -225 -225 -225 -225 -225 -225 -225 -225 -225 -225 -225 -225 -225 -225 -225 -225 -225 -225 -225 -225 -225 -225 -225 -225 -225 -225 -225 -225 -225 -225 -225 -225 -225 -225 -225 -225 -225 -225 -225 -225 -225 -225 -225 -225 -225 -225 -225 -225 -225 -225 -225 -225 -225 -225 -225 -225 -225 -225 -225 -225 -225 -225 -225 -225 -225 -225 -225 -225 -225 -209 -209 -209 -209 -209 -209 -209 -209 -209 -209 -209 -209 -209 -209 -209 -209 -209 -209 -209 -209 -209 -209 -209 -177 -209 -209 -209 -209 -209 154 169 176 180 -177 -177 -209 -193 252 256 257 257 257 254 254 253 251 252 251 251 251 251 254 -193 -193 254 -209 -209 -209 -209 0 0 0 0 0
    0 0 0 0 0 0 0 0 0 0 0 0 0 0 0 0 0 0 0 0 0 0 0 0 0 0 0 0 0 0 0 0 0 0 0 0 0 0 0 0 0 0 0 0 0 0 0 0 0 0 0 0 0 0 0 0 0 0 0 0 0 0 0 0 0 0 0 0 0 -225 -225 -225 -225 -225 -225 -225 -225 -225 -225 -225 -225 -225 -225 -225 -225 -225 -225 -225 -225 -225 -225 -225 -225 -225 -225 -225 -225 -225 -225 -225 -225 -225 -225 -225 -225 -225 -225 -225 -225 -225 -225 -225 -225 -225 -225 -225 -225 -225 -225 -225 -225 -225 -225 -225 -225 -225 -225 -225 -225 -225 -225 -225 -225 -225 -225 -225 -225 -225 -225 -225 -225 -225 -225 -225 -225 -225 -225 -225 -225 -225 -225 -225 -225 -225 -225 -225 -225 -225 -225 -225 -225 -225 -225 -225 -225 -225 -225 -225 -225 -225 -225 -225 -225 -225 -225 -225 -225 -225 -225 -225 -225 -225 -225 -225 -225 -225 -225 -225 -225 -225 -225 -225 -225 -225 -225 -225 -225 -225 -225 -225 -225 -225 -225 -225 -225 -225 -225 -225 -225 -225 -225 -225 -225 -225 -225 -225 -225 -225 -225 -225 -225 -225 -225 -225 -225 -225 -225 -225 -225 -225 -225 -225 -225 -225 -225 -225 -225 -225 -225 -225 -225 -225 -225 -225 -225 -225 -225 -225 -225 -225 -225 -225 -225 -225 -225 -209 -209 -209 -209 -209 -209 -209 -209 -209 -209 -209 -209 -209 -209 -209 -209 -209 -209 -209 -209 -209 -209 37 -177 -193 -209 -177 -177 -193 -209 165 172 179 182 -177 -177 -209 251 252 256 257 258 259 256 256 253 252 254 252 252 252 252 257 -193 257 259 257 -209 -209 -209 0 0 0 0 0
    0 0 0 0 0 0 0 0 0 0 0 0 0 0 0 0 0 0 0 0 0 0 0 0 0 0 0 0 0 0 0 0 0 0 0 0 0 0 0 0 0 0 0 0 0 0 0 0 0 0 0 0 0 0 0 0 0 0 0 0 0 0 0 0 0 0 0 0 0 -225 -225 -225 -225 -225 -225 -225 -225 -225 -225 -225 -225 -225 -225 -225 -225 -225 -225 -225 -225 -225 -225 -225 -225 -225 -225 -225 -225 -225 -225 -225 -225 -225 -225 -225 -225 -225 -225 -225 -225 -225 -225 -225 -225 -225 -225 -225 -225 -225 -225 -225 -225 -225 -225 -225 -225 -225 -225 -225 -225 -225 -225 -225 -225 -225 -225 -225 -225 -225 -225 -225 -225 -225 -225 -225 -225 -225 -225 -225 -225 -225 -225 -225 -225 -225 -225 -225 -225 -225 -225 -225 -225 -225 -225 -225 -225 -225 -225 -225 -225 -225 -225 -225 -225 -225 -225 -225 -225 -225 -225 -225 -225 -225 -225 -225 -225 -225 -225 -225 -225 -225 -225 -225 -225 -225 -225 -225 -225 -225 -225 -225 -225 -225 -225 -225 -225 -225 -225 -225 -225 -225 -225 -225 -225 -225 -225 -225 -225 -225 -225 -225 -225 -225 -225 -225 -225 -225 -225 -225 -225 -225 -225 -225 -225 -225 -225 -225 -225 -225 -225 -225 -225 -225 -225 -225 -225 -225 -225 -225 -225 -225 -225 -225 -225 -225 -209 -209 -209 -209 -209 -209 -209 -209 -209 -209 -209 -209 -209 -209 -209 -209 -209 -209 -209 -209 -209 -209 37 37 -177 -177 -209 -177 -177 -177 -209 -209 176 181 185 -209 -209 -177 251 251 256 257 259 260 259 259 255 254 256 252 253 252 252 258 -209 261 262 261 -193 -209 -209 0 0 0 0 0
    0 0 0 0 0 0 0 0 0 0 0 0 0 0 0 0 0 0 0 0 0 0 0 0 0 0 0 0 0 0 0 0 0 0 0 0 0 0 0 0 0 0 0 0 0 0 0 0 0 0 0 0 0 0 0 0 0 0 0 0 0 0 0 0 0 0 0 0 0 -225 -225 -225 -225 -225 -225 -225 -225 -225 -225 -225 -225 -225 -225 -225 -225 -225 -225 -225 -225 -225 -225 -225 -225 -225 -225 -225 -225 -225 -225 -225 -225 -225 -225 -225 -225 -225 -225 -225 -225 -225 -225 -225 -225 -225 -225 -225 -225 -225 -225 -225 -225 -225 -225 -225 -225 -225 -225 -225 -225 -225 -225 -225 -225 -225 -225 -225 -225 -225 -225 -225 -225 -225 -225 -225 -225 -225 -225 -225 -225 -225 -225 -225 -225 -225 -225 -225 -225 -225 -225 -225 -225 -225 -225 -225 -225 -225 -225 -225 -225 -225 -225 -225 -225 -225 -225 -225 -225 -225 -225 -225 -225 -225 -225 -225 -225 -225 -225 -225 -225 -225 -225 -225 -225 -225 -225 -225 -225 -225 -225 -225 -225 -225 -225 -225 -225 -225 -225 -225 -225 -225 -225 -225 -225 -225 -225 -225 -225 -225 -225 -225 -225 -225 -225 -225 -225 -225 -225 -225 -225 -225 -225 -225 -225 -225 -225 -225 -225 -225 -225 -225 -225 -225 -225 -225 -225 -225 -225 -225 -225 -225 -225 -225 -225 -225 -209 -209 -209 -209 -209 -209 -209 -209 -209 -209 -209 -209 -209 -209 -209 -209 -209 -209 -209 -209 -209 -209 37 -177 -193 -177 -177 -177 -177 -209 -209 178 181 -177 -177 -209 -209 248 252 252 257 258 259 261 260 -193 257 255 256 252 253 252 251 258 -193 263 263 263 263 -209 -209 0 0 0 0 0
    0 0 0 0 0 0 0 0 0 0 0 0 0 0 0 0 0 0 0 0 0 0 0 0 0 0 0 0 0 0 0 0 0 0 0 0 0 0 0 0 0 0 0 0 0 0 0 0 0 0 0 0 0 0 0 0 0 0 0 0 0 0 0 0 0 0 0 0 0 -225 -225 -225 -225 -225 -225 -225 -225 -225 -225 -225 -225 -225 -225 -225 -225 -225 -225 -225 -225 -225 -225 -225 -225 -225 -225 -225 -225 -225 -225 -225 -225 -225 -225 -225 -225 -225 -225 -225 -225 -225 -225 -225 -225 -225 -225 -225 -225 -225 -225 -225 -225 -225 -225 -225 -225 -225 -225 -225 -225 -225 -225 -225 -225 -225 -225 -225 -225 -225 -225 -225 -225 -225 -225 -225 -225 -225 -225 -225 -225 -225 -225 -225 -225 -225 -225 -225 -225 -225 -225 -225 -225 -225 -225 -225 -225 -225 -225 -225 -225 -225 -225 -225 -225 -225 -225 -225 -225 -225 -225 -225 -225 -225 -225 -225 -225 -225 -225 -225 -225 -225 -225 -225 -225 -225 -225 -225 -225 -225 -225 -225 -225 -225 -225 -225 -225 -225 -225 -225 -225 -225 -225 -225 -225 -225 -225 -225 -225 -225 -225 -225 -225 -225 -225 -225 -225 -225 -225 -225 -225 -225 -225 -225 -225 -225 -225 -225 -225 -225 -225 -225 -225 -225 -225 -225 -225 -225 -225 -225 -225 -225 -225 -225 -225 -209 -209 -209 -209 -209 -209 -209 -209 -209 -209 -209 -209 -209 -209 -209 -209 -209 -209 -209 -209 -209 -209 -209 -209 -209 -177 -177 -209 -209 -209 -209 -209 -209 186 -193 -209 -209 242 248 252 253 258 259 260 262 -193 -193 -193 255 256 252 253 253 251 258 260 264 265 264 264 265 -193 0 0 0 0 0
    0 0 0 0 0 0 0 0 0 0 0 0 0 0 0 0 0 0 0 0 0 0 0 0 0 0 0 0 0 0 0 0 0 0 0 0 0 0 0 0 0 0 0 0 0 0 0 0 0 0 0 0 0 0 0 0 0 0 0 0 0 0 0 0 0 0 0 0 0 -225 -225 -225 -225 -225 -225 -225 -225 -225 -225 -225 -225 -225 -225 -225 -225 -225 -225 -225 -225 -225 -225 -225 -225 -225 -225 -225 -225 -225 -225 -225 -225 -225 -225 -225 -225 -225 -225 -225 -225 -225 -225 -225 -225 -225 -225 -225 -225 -225 -225 -225 -225 -225 -225 -225 -225 -225 -225 -225 -225 -225 -225 -225 -225 -225 -225 -225 -225 -225 -225 -225 -225 -225 -225 -225 -225 -225 -225 -225 -225 -225 -225 -225 -225 -225 -225 -225 -225 -225 -225 -225 -225 -225 -225 -225 -225 -225 -225 -225 -225 -225 -225 -225 -225 -225 -225 -225 -225 -225 -225 -225 -225 -225 -225 -225 -225 -225 -225 -225 -225 -225 -225 -225 -225 -225 -225 -225 -225 -225 -225 -225 -225 -225 -225 -225 -225 -225 -225 -225 -225 -225 -225 -225 -225 -225 -225 -225 -225 -225 -225 -225 -225 -225 -225 -225 -225 -225 -225 -225 -225 -225 -225 -225 -225 -225 -225 -225 -225 -225 -225 -225 -225 -225 -225 -225 -225 -225 -225 -225 -225 -225 -225 -225 -209 -209 -209 -209 -209 -209 -209 -209 -209 -209 -209 -209 -209 -209 -209 -209 -209 -209 -209 -209 -209 -209 -209 -209 -209 -209 -209 -209 -209 -209 -209 -209 -209 -209 -209 -209 -209 -209 245 251 255 255 260 261 261 263 262 -193 260 257 258 254 256 257 255 261 263 266 268 266 266 266 267 0 0 0 0 0
    0 0 0 0 0 0 0 0 0 0 0 0 0 0 0 0 0 0 0 0 0 0 0 0 0 0 0 0 0 0 0 0 0 0 0 0 0 0 0 0 0 0 0 0 0 0 0 0 0 0 0 0 0 0 0 0 0 0 0 0 0 0 0 0 0 0 0 0 0 -225 -225 -225 -225 -225 -225 -225 -225 -225 -225 -225 -225 -225 -225 -225 -225 -225 -225 -225 -225 -225 -225 -225 -225 -225 -225 -225 -225 -225 -225 -225 -225 -225 -225 -225 -225 -225 -225 -225 -225 -225 -225 -225 -225 -225 -225 -225 -225 -225 -225 -225 -225 -225 -225 -225 -225 -225 -225 -225 -225 -225 -225 -225 -225 -225 -225 -225 -225 -225 -225 -225 -225 -225 -225 -225 -225 -225 -225 -225 -225 -225 -225 -225 -225 -225 -225 -225 -225 -225 -225 -225 -225 -225 -225 -225 -225 -225 -225 -225 -225 -225 -225 -225 -225 -225 -225 -225 -225 -225 -225 -225 -225 -225 -225 -225 -225 -225 -225 -225 -225 -225 -225 -225 -225 -225 -225 -225 -225 -225 -225 -225 -225 -225 -225 -225 -225 -225 -225 -225 -225 -225 -225 -225 -225 -225 -225 -225 -225 -225 -225 -225 -225 -225 -225 -225 -225 -225 -225 -225 -225 -225 -225 -225 -225 -225 -225 -225 -225 -225 -225 -225 -225 -225 -225 -225 -225 -225 -225 -225 -225 -225 -209 -209 -209 -209 -209 -209 -209 -209 -209 -209 -209 -209 -209 -209 -209 -209 -209 -209 -209 -209 -209 -209 -209 -209 -209 -209 -209 -209 -209 -209 -209 -209 -209 -209 -209 -209 261 263 -209 -209 -193 -193 260 258 263 262 262 264 264 264 262 260 261 257 259 261 259 263 265 267 269 268 268 267 268 0 0 0 0 0
    0 0 0 0 0 0 0 0 0 0 0 0 0 0 0 0 0 0 0 0 0 0 0 0 0 0 0 0 0 0 0 0 0 0 0 0 0 0 0 0 0 0 0 0 0 0 0 0 0 0 0 0 0 0 0 0 0 0 0 0 0 0 0 0 0 0 0 0 0 -225 -225 -225 -225 -225 -225 -225 -225 -225 -225 -225 -225 -225 -225 -225 -225 -225 -225 -225 -225 -225 -225 -225 -225 -225 -225 -225 -225 -225 -225 -225 -225 -225 -225 -225 -225 -225 -225 -225 -225 -225 -225 -225 -225 -225 -225 -225 -225 -225 -225 -225 -225 -225 -225 -225 -225 -225 -225 -225 -225 -225 -225 -225 -225 -225 -225 -225 -225 -225 -225 -225 -225 -225 -225 -225 -225 -225 -225 -225 -225 -225 -225 -225 -225 -225 -225 -225 -225 -225 -225 -225 -225 -225 -225 -225 -225 -225 -225 -225 -225 -225 -225 -225 -225 -225 -225 -225 -225 -225 -225 -225 -225 -225 -225 -225 -225 -225 -225 -225 -225 -225 -225 -225 -225 -225 -225 -225 -225 -225 -225 -225 -225 -225 -225 -225 -225 -225 -225 -225 -225 -225 -225 -225 -225 -225 -225 -225 -225 -225 -225 -225 -225 -225 -225 -225 -225 -225 -225 -225 -225 -225 -225 -225 -225 -225 -225 -225 -225 -225 -225 -225 -225 -225 -225 -225 -225 -225 -225 -225 -225 -209 -209 -209 -209 -209 -209 -209 -209 -209 -209 -209 -209 -209 -209 -209 -209 -209 -209 -209 -193 -209 -209 -209 -209 -209 -209 -209 -209 -209 -209 -209 -209 -209 -209 -209 -209 265 266 268 267 268 267 268 267 261 264 263 263 264 265 265 263 261 261 258 260 262 260 264 265 269 272 270 270 268 269 0 0 0 0 0
    0 0 0 0 0 0 0 0 0 0 0 0 0 0 0 0 0 0 0 0 0 0 0 0 0 0 0 0 0 0 0 0 0 0 0 0 0 0 0 0 0 0 0 0 0 0 0 0 0 0 0 0 0 0 0 0 0 0 0 0 0 0 0 0 0 0 0 0 0 -225 -225 -225 -225 -225 -225 -225 -225 -225 -225 -225 -225 -225 -225 -225 -225 -225 -225 -225 -225 -225 -225 -225 -225 -225 302 302 -193 -225 -225 -225 -225 -225 -225 -225 -225 -225 -225 -225 -225 -225 -225 -225 -225 -225 -225 -225 -225 -225 -225 -225 -225 -225 -225 -225 -225 -225 -225 -225 -225 -225 -225 -225 -225 -225 -225 -225 -225 -225 -225 -225 -225 -225 -225 -225 -225 -225 -225 -225 -225 -225 -225 -225 -225 -225 -225 -225 -225 -225 -225 -225 -225 -225 -225 -225 -225 -225 -225 -225 -225 -225 -225 -225 -225 -225 -225 -225 -225 -225 -225 -225 -225 -225 -225 -225 -225 -225 -225 -225 -225 -225 -225 -225 -225 -225 -225 -225 -225 -225 -225 -225 -225 -225 -225 -225 -225 -225 -225 -225 -225 -225 -225 -225 -225 -225 -225 -225 -225 -225 -225 -225 -225 -225 -225 -225 -225 -225 -225 -225 -225 -225 -225 -225 -225 -225 -225 -225 -225 -225 -225 -225 -225 -225 -225 -209 -209 193 197 -193 -209 -209 -209 -209 -209 -209 -209 -209 -209 -209 -209 -209 -209 -209 -209 -209 -209 -209 -209 -209 -193 -209 -209 -209 -209 -209 -209 -209 -209 -209 -209 -209 -209 -209 -209 -209 -193 268 269 271 270 271 270 270 270 -193 265 -193 264 267 271 276 273 -209 -193 259 262 264 262 265 266 269 273 271 271 269 270 0 0 0 0 0
    0 0 0 0 0 0 0 0 0 0 0 0 0 0 0 0 0 0 0 0 0 0 0 0 0 0 0 0 0 0 0 0 0 0 0 0 0 0 0 0 0 0 0 0 0 0 0 0 0 0 0 0 0 0 0 0 0 0 0 0 0 0 0 0 0 0 0 0 0 -209 -209 177 179 -193 -209 -193 -209 -193 -193 -193 353 355 357 -225 -225 -225 -225 -225 -225 308 -193 -193 300 301 301 302 300 300 -193 299 -193 -225 -225 -225 -225 -225 -225 -225 -225 -225 -225 -225 -225 -225 -225 -225 -225 -225 -225 -225 -225 -225 -225 -225 -225 -225 -225 -225 -225 -225 -225 -225 -225 -225 -225 -225 -225 -225 -225 -225 757 754 751 753 -193 -209 -193 301 302 -209 -209 -209 -193 -209 -177 -225 -225 -225 -225 -225 -225 -225 -225 -225 -225 -225 -225 -225 -225 -225 -225 -225 -225 -225 -225 -225 -225 -225 -225 -225 -209 290 -225 -225 -225 -225 -225 -225 -225 -225 -225 -225 -225 -225 -225 -225 -225 -225 -225 -225 -225 -225 -225 -225 -225 -225 -225 -225 -225 -225 -225 -225 -225 -225 -225 -225 -225 300 -209 -209 -209 -209 -209 -193 680 675 -193 -225 -225 -225 -225 -193 286 285 -193 -225 -209 300 -193 -209 -209 -225 846 -193 -209 -193 198 201 203 -209 -209 -209 -209 -209 -209 -209 -209 -209 -209 -209 -209 -209 -209 -209 -209 -209 -209 -209 -209 -209 -209 -209 -209 -209 -209 -209 -209 -209 -209 -209 -209 -209 -209 -209 270 272 273 274 274 276 274 275 275 -193 268 271 269 273 277 280 280 272 -209 -209 264 265 263 265 266 269 273 273 272 269 270 0 0 0 0 0
    0 0 0 0 0 0 0 0 0 0 0 0 0 0 0 0 0 0 0 0 0 0 0 0 0 0 0 0 0 0 0 0 0 0 0 0 0 0 0 0 0 0 0 0 0 0 0 0 0 0 0 0 0 0 0 0 0 0 0 0 0 0 0 0 0 0 0 0 0 300 300 -193 -193 -209 -209 -193 -209 -209 -209 349 353 356 357 -209 -209 -193 -209 75 -193 308 -193 -193 300 302 302 303 301 301 299 300 -193 -209 -193 -209 -225 -225 -225 -225 -225 -225 -225 -225 -225 -225 293 296 -225 -225 -225 -225 -225 -225 -225 -225 -225 -225 -225 -225 -225 -225 -225 -225 -225 -225 -225 -225 -225 -225 -225 -225 758 757 754 -193 304 302 300 300 301 299 -193 -193 -209 -209 -177 934 -225 -225 -225 -225 -225 -225 -225 -225 -225 -225 -225 -225 -225 -225 -225 -225 -225 -225 -225 -225 -209 -193 -209 -193 -193 296 297 -193 285 291 296 -209 -209 -209 -209 -193 396 -193 -193 -209 -225 -209 -225 -225 -209 295 294 294 -209 -225 -225 -193 -209 -225 -209 -209 -225 -225 -225 -193 296 296 296 297 295 295 -209 -209 -209 -209 -209 -209 -193 -193 -193 -193 287 286 290 -209 296 298 300 -209 -209 838 -193 -209 -209 -209 200 203 205 -209 -209 -209 -209 -209 -209 -209 -209 -209 -209 -209 -209 -209 -209 -209 -209 -209 -209 -209 -209 -209 110 -209 -209 -209 -209 -209 -209 -209 -209 -209 -209 -209 -209 -209 273 276 277 278 278 278 278 278 278 278 274 277 274 274 276 279 279 273 267 264 265 267 265 267 268 271 275 275 275 270 272 0 0 0 0 0
    0 0 0 0 0 0 0 0 0 0 0 0 0 0 0 0 0 0 0 0 0 0 0 0 0 0 0 0 0 0 0 0 0 0 0 0 0 0 0 0 0 0 0 0 0 0 0 0 0 0 0 0 0 0 0 0 0 0 0 0 0 0 0 0 0 0 0 0 0 300 300 -193 -193 -193 -209 -209 -209 -209 -193 348 353 358 -193 -209 -193 -193 -209 -193 -193 308 -193 300 302 303 303 304 302 301 300 300 -193 -209 -209 -193 -225 -225 -225 -225 -225 -225 300 -193 -193 -193 -177 -177 -193 -209 -209 -209 -225 -225 -225 -225 -225 -225 -193 543 539 540 543 -225 -225 -225 -225 -225 -225 -225 -193 -209 -209 -209 -209 302 303 301 300 300 300 299 299 298 -209 -209 -177 929 930 925 -209 -209 -225 -225 -225 -193 -209 -225 -193 10 9 -209 -209 -177 -209 -193 -209 55 -209 -209 299 -209 298 298 299 301 295 297 300 -209 -209 -209 -209 -209 -193 -193 -209 -193 293 293 293 293 294 294 293 294 295 294 293 -193 -193 -193 -193 -209 -209 -209 -177 -193 295 296 295 296 294 294 295 294 294 -209 -209 -209 -193 -209 -193 284 285 285 288 -193 295 297 298 -193 -193 -209 -209 -209 -209 -193 200 205 -209 -209 292 -209 -209 -209 -209 -209 -209 -209 -209 -209 -209 -209 -209 -209 -209 -209 -209 -209 -209 -209 106 115 -209 -209 -209 -209 -209 -209 -209 -209 -209 -209 -209 -209 278 280 280 280 280 280 279 278 278 279 276 279 277 276 277 280 280 278 270 267 266 269 268 271 272 273 275 275 276 272 273 0 0 0 0 0
    0 0 0 0 0 0 0 0 0 0 0 0 0 0 0 0 0 0 0 0 0 0 0 0 0 0 0 0 0 0 0 0 0 0 0 0 0 0 0 0 0 0 0 0 0 0 0 0 0 0 0 0 0 0 0 0 0 0 0 0 0 0 0 0 0 0 0 0 0 301 301 300 300 300 298 -209 -193 -209 -209 -209 -193 -193 -209 -209 -193 294 -209 -193 -193 307 300 299 301 303 303 303 301 300 299 300 -193 -193 -209 -209 -193 -225 -209 -209 -193 303 302 302 -193 -209 -209 299 -209 -193 -193 -193 -193 -193 304 -193 -193 -209 -209 -209 540 542 545 -193 -193 -193 -193 -209 -209 -209 -209 -209 -209 -193 -209 301 302 301 299 300 300 299 299 298 -193 -209 -193 -209 928 -209 -193 -209 -209 -209 -209 -193 -209 -209 -209 -177 13 -209 -209 -209 -209 -209 -209 -209 -209 -209 300 302 298 297 297 297 295 296 298 -209 -209 -209 -193 -177 -177 80 -193 -193 292 293 293 292 293 292 291 293 294 292 292 -193 -193 291 292 -193 -193 -193 -193 292 294 295 295 296 293 294 295 294 294 -193 290 286 287 -193 287 286 287 287 290 291 294 296 297 -193 -193 -209 -193 -209 -193 -193 -209 -209 282 283 292 -209 -209 -209 -209 287 -209 -193 -209 -193 286 288 -193 -193 -209 -209 289 -209 -209 -209 102 110 -209 -209 -209 -209 -209 -209 -209 -209 -209 -193 -193 283 283 283 283 282 282 282 281 280 280 281 279 281 280 278 277 280 280 279 274 275 272 275 273 276 276 276 276 276 276 275 276 0 0 0 0 0
    0 0 0 0 0 0 0 0 0 0 0 0 0 0 0 0 0 0 0 0 0 0 0 0 0 0 0 0 0 0 0 0 0 0 0 0 0 0 0 0 0 0 0 0 0 0 0 0 0 0 0 0 0 0 0 0 0 0 0 0 0 0 0 0 0 0 0 0 0 302 302 301 300 300 298 -193 -193 -209 -209 -209 -209 -209 -193 -209 295 295 -209 -193 299 306 299 299 300 302 302 302 300 300 299 299 299 -193 296 298 300 302 -193 300 301 302 303 302 301 -193 -193 300 -193 302 304 304 303 301 303 305 304 300 299 299 -209 -209 -209 -193 -209 -209 -177 -209 -209 -209 -193 -193 -209 300 301 301 301 300 299 300 300 299 299 298 -193 -209 -193 -193 -177 -193 -193 -193 -209 -209 -193 -193 295 295 -209 -209 -209 -193 -209 -209 -209 -209 -209 -209 -209 298 299 300 296 295 295 294 293 294 294 293 290 292 -193 -193 -193 -193 -193 289 291 293 293 292 292 291 290 292 292 292 291 -193 291 291 292 -193 -193 292 -193 292 293 295 294 295 293 294 295 294 294 292 290 288 288 290 289 288 288 290 291 292 294 296 296 -193 294 -193 -193 -193 290 -193 -193 284 284 285 291 -193 288 286 288 286 286 288 -193 286 287 288 287 287 291 291 292 292 -193 -209 -209 -209 -209 -209 -209 -209 -209 -209 -209 -193 -193 287 290 287 287 286 285 284 283 284 283 282 282 283 281 282 281 279 277 279 278 277 275 277 276 278 277 278 278 278 278 278 278 277 278 0 0 0 0 0
    0 0 0 0 0 0 0 0 0 0 0 0 0 0 0 0 0 0 0 0 0 0 0 0 0 0 0 0 0 0 0 0 0 0 0 0 0 0 0 0 0 0 0 0 0 0 0 0 0 0 0 0 0 0 0 0 0 0 0 0 0 0 0 0 0 0 0 0 0 302 302 301 300 300 299 298 -193 -209 -209 -209 -209 -193 298 297 297 296 -209 -193 299 306 300 300 302 303 303 302 301 300 299 298 297 295 295 297 299 300 301 300 301 302 303 302 302 300 299 300 302 302 304 303 303 302 303 305 303 300 300 299 298 -209 -193 -193 -209 -209 -193 -209 -209 -209 -193 -177 -193 300 300 300 301 300 299 300 300 300 299 298 -193 -209 -193 -193 -193 -193 -193 -193 -209 -193 295 -193 294 294 294 -209 -209 -193 -193 -209 -209 -209 -209 -209 -193 298 298 298 295 294 294 292 291 293 292 292 289 291 290 291 292 293 288 289 291 292 292 291 291 290 289 292 292 291 291 -193 291 291 292 293 293 292 293 292 293 294 294 295 293 294 294 294 294 292 291 290 290 291 290 289 289 291 291 292 293 295 295 293 293 292 -193 290 291 -193 286 285 287 286 291 293 288 287 288 286 287 288 288 287 287 289 288 288 291 291 291 291 291 291 -193 290 290 290 -209 -209 -209 -193 -193 289 -193 291 293 289 290 289 287 287 285 285 284 284 283 284 282 282 282 280 277 279 278 278 275 277 278 279 279 280 279 279 279 279 279 278 278 0 0 0 0 0</data></disparity>
</opencv_storage>
