<?xml version="1.0"?>
<opencv_storage>
<gps_time_stamp>19506</gps_time_stamp>
<gps_x>-7.5695753097534180e-001</gps_x>
<gps_y>6.9622918963432312e-002</gps_y>
<gps_z>1.3975743204355240e-003</gps_z>
<image_time_stamp>7465</image_time_stamp>
<disparity type_id="opencv-matrix">
  <rows>84</rows>
  <cols>320</cols>
  <dt>s</dt>
  <data>
    0 0 0 0 0 0 0 0 0 0 0 0 0 0 0 0 0 0 0 0 0 0 0 0 0 0 0 0 0 0 0 0 0 0 0 0 0 0 0 0 0 0 0 0 0 0 0 0 0 0 0 0 0 0 0 0 0 0 0 0 0 0 0 0 0 0 0 0 0 83 83 83 80 76 74 73 74 76 73 71 71 73 72 75 79 78 84 -193 -209 87 -193 -193 86 86 86 85 82 83 79 76 74 75 76 76 80 82 85 87 86 87 88 88 89 88 88 88 85 89 -209 -209 -193 -193 -209 -209 71 -193 77 78 84 80 83 83 84 83 81 82 81 77 81 -193 77 76 83 -209 85 86 -193 -193 81 84 86 83 82 82 82 81 83 83 82 73 75 80 -193 -193 76 77 79 79 79 78 80 82 84 84 85 86 84 85 85 84 80 83 77 80 76 78 76 75 77 69 71 73 72 74 76 76 -193 77 80 83 80 85 84 79 83 78 82 85 89 89 89 89 91 90 91 90 91 88 89 90 89 85 86 87 88 88 88 88 88 89 90 89 89 89 89 89 89 89 88 86 89 89 89 88 87 87 88 88 88 88 89 89 90 92 98 95 99 104 104 105 108 108 108 109 111 112 112 116 116 116 116 116 115 115 116 109 107 -193 85 86 87 87 89 88 89 90 89 91 90 89 89 87 87 90 91 91 91 91 91 92 93 94 93 90 91 92 97 -209 -209 -209 -209 140 141 142 -209 0 0 0 0 0
    0 0 0 0 0 0 0 0 0 0 0 0 0 0 0 0 0 0 0 0 0 0 0 0 0 0 0 0 0 0 0 0 0 0 0 0 0 0 0 0 0 0 0 0 0 0 0 0 0 0 0 0 0 0 0 0 0 0 0 0 0 0 0 0 0 0 0 0 0 85 85 85 85 82 78 79 80 82 78 74 73 77 76 82 86 85 87 89 89 89 89 90 88 88 87 87 84 84 82 79 78 79 80 82 85 86 87 88 87 88 88 88 88 88 88 88 86 89 -193 -193 -193 -193 -209 -193 79 86 82 81 85 82 84 84 84 84 82 83 83 79 84 82 82 81 85 87 87 87 -193 -193 85 86 87 85 84 85 85 85 85 85 84 77 84 85 85 80 82 82 83 83 83 82 84 85 85 -193 86 86 86 86 87 86 83 85 82 84 81 83 80 79 80 76 74 77 76 79 82 81 -193 82 83 86 84 86 86 84 86 82 85 86 91 90 90 90 93 92 92 92 93 90 92 92 92 89 90 90 90 89 90 88 90 90 91 91 91 91 91 91 92 91 91 90 91 91 90 89 88 88 88 88 89 89 89 90 90 93 98 95 100 104 104 105 108 108 108 109 111 112 112 115 115 115 115 115 114 115 115 108 107 -193 86 86 88 88 89 89 89 91 90 92 91 90 91 89 89 91 92 93 92 92 92 93 94 94 93 91 90 89 88 90 90 87 93 -209 -209 -209 -209 0 0 0 0 0
    0 0 0 0 0 0 0 0 0 0 0 0 0 0 0 0 0 0 0 0 0 0 0 0 0 0 0 0 0 0 0 0 0 0 0 0 0 0 0 0 0 0 0 0 0 0 0 0 0 0 0 0 0 0 0 0 0 0 0 0 0 0 0 0 0 0 0 0 0 86 86 86 86 85 82 85 85 86 85 79 77 83 82 85 87 87 87 89 89 89 90 90 88 88 87 87 85 85 83 81 82 83 84 87 88 89 88 90 88 89 89 89 89 89 89 89 -209 90 90 -193 -193 -193 90 86 85 87 84 83 86 83 85 84 85 84 83 84 84 82 86 85 85 84 87 -193 88 88 88 87 87 88 89 87 86 86 87 87 86 86 86 81 87 87 87 84 85 85 85 85 85 84 85 86 86 -193 87 87 87 -193 -193 -193 85 87 85 87 84 86 83 82 83 83 78 83 83 84 85 -193 -193 85 85 87 86 87 88 87 89 86 87 87 93 90 90 90 94 92 92 93 93 91 93 94 94 90 91 92 91 90 91 89 91 91 91 92 92 92 93 92 93 92 92 93 93 92 91 90 88 88 88 89 89 89 89 90 91 93 99 95 100 104 104 105 107 108 108 110 111 112 112 114 114 115 114 114 113 114 114 108 108 -193 87 87 88 88 90 89 90 92 91 93 93 91 92 91 91 93 93 94 93 93 94 93 94 94 93 91 90 88 88 89 90 88 94 -193 -209 -209 -209 0 0 0 0 0
    0 0 0 0 0 0 0 0 0 0 0 0 0 0 0 0 0 0 0 0 0 0 0 0 0 0 0 0 0 0 0 0 0 0 0 0 0 0 0 0 0 0 0 0 0 0 0 0 0 0 0 0 0 0 0 0 0 0 0 0 0 0 0 0 0 0 0 0 0 86 86 87 86 85 83 86 87 87 86 83 81 86 86 87 88 88 88 90 90 90 90 90 88 89 88 87 85 85 84 82 83 85 86 88 89 90 89 91 89 90 90 90 90 90 90 90 90 91 91 91 91 91 90 88 86 87 85 85 87 84 85 85 86 85 84 85 85 83 87 86 86 85 87 88 88 89 88 88 88 88 89 87 87 88 88 88 88 88 87 85 89 88 88 86 87 87 87 86 86 85 86 87 87 87 87 88 87 -193 -193 -193 86 88 87 88 86 87 84 84 85 86 83 86 86 86 87 -193 -193 87 87 89 88 88 89 89 90 89 89 88 95 90 90 90 94 92 92 92 93 91 93 94 94 91 93 94 93 92 93 91 93 92 92 93 93 92 94 93 94 93 93 95 95 94 93 92 90 90 90 90 89 89 90 91 91 93 99 95 99 104 104 105 107 108 108 110 111 112 112 114 113 114 114 114 113 113 114 108 109 109 88 87 89 89 90 90 90 92 91 93 93 92 93 92 92 94 94 95 93 94 94 94 94 93 92 91 91 90 90 90 91 92 97 102 -193 -209 -177 0 0 0 0 0
    0 0 0 0 0 0 0 0 0 0 0 0 0 0 0 0 0 0 0 0 0 0 0 0 0 0 0 0 0 0 0 0 0 0 0 0 0 0 0 0 0 0 0 0 0 0 0 0 0 0 0 0 0 0 0 0 0 0 0 0 0 0 0 0 0 0 0 0 0 86 86 87 87 86 84 88 89 89 89 87 87 88 88 89 89 88 89 91 90 90 90 90 88 89 88 88 85 85 84 83 85 87 87 91 92 92 91 92 90 90 90 90 90 90 90 91 91 92 92 92 92 91 91 90 87 89 87 87 89 85 87 86 87 86 85 86 86 84 88 86 86 85 87 88 88 89 88 88 88 88 90 88 89 89 89 89 89 89 89 88 91 90 90 88 88 88 88 88 86 86 86 88 87 88 87 -193 88 -193 -193 89 87 89 89 90 88 89 86 86 86 86 84 86 86 86 87 86 87 87 88 89 89 89 90 89 90 89 90 89 94 90 91 91 96 93 93 93 94 91 94 94 95 92 94 95 94 94 95 94 95 94 93 94 93 93 94 93 94 93 94 95 95 95 94 93 92 90 91 91 90 91 91 92 92 94 99 96 100 104 104 105 107 108 108 110 111 112 112 113 113 114 114 114 113 113 114 108 111 110 98 87 88 89 91 92 91 93 91 93 93 93 95 93 94 96 96 96 95 96 96 94 94 93 92 91 92 91 92 92 93 95 99 102 104 108 -209 0 0 0 0 0
    0 0 0 0 0 0 0 0 0 0 0 0 0 0 0 0 0 0 0 0 0 0 0 0 0 0 0 0 0 0 0 0 0 0 0 0 0 0 0 0 0 0 0 0 0 0 0 0 0 0 0 0 0 0 0 0 0 0 0 0 0 0 0 0 0 0 0 0 0 87 87 88 88 88 88 91 93 93 92 91 92 95 93 92 91 90 90 92 91 91 90 90 90 90 90 91 85 87 85 86 -193 99 92 99 97 95 94 95 91 92 91 91 91 91 91 92 91 93 92 92 92 91 91 91 89 90 89 89 91 87 88 88 88 88 87 87 86 84 88 86 85 84 86 87 88 88 88 88 88 89 92 89 90 90 90 90 90 90 90 90 92 91 93 90 90 91 90 90 88 87 87 89 88 88 88 89 89 90 90 91 89 90 90 91 90 91 88 88 87 87 85 86 86 86 87 86 87 87 88 90 90 90 91 91 92 91 91 91 95 91 91 92 96 93 93 93 94 92 94 95 95 92 95 96 96 96 96 96 98 96 95 95 94 93 95 93 95 94 94 96 95 95 95 93 93 92 93 93 92 93 93 93 93 95 100 96 100 104 104 105 107 108 109 110 111 112 112 113 113 114 114 114 113 112 114 109 112 111 105 90 91 93 95 96 92 93 92 94 94 94 97 94 96 97 97 97 96 97 96 94 94 92 91 91 91 91 93 93 94 97 99 101 103 105 -209 0 0 0 0 0
    0 0 0 0 0 0 0 0 0 0 0 0 0 0 0 0 0 0 0 0 0 0 0 0 0 0 0 0 0 0 0 0 0 0 0 0 0 0 0 0 0 0 0 0 0 0 0 0 0 0 0 0 0 0 0 0 0 0 0 0 0 0 0 0 0 0 0 0 0 88 88 88 89 89 89 92 95 95 95 94 94 98 95 93 93 92 92 93 92 93 91 91 92 92 92 95 90 95 -209 -209 -193 106 99 102 99 97 95 96 92 93 92 92 92 91 92 92 91 93 92 92 92 90 91 92 90 92 90 91 93 90 90 90 90 89 88 89 88 86 89 -193 85 84 86 87 87 88 88 89 89 90 93 90 92 91 91 91 90 91 91 91 93 92 94 92 93 94 93 92 90 89 88 90 89 89 89 91 90 91 92 92 91 92 92 92 91 92 89 89 87 87 86 86 87 86 87 86 88 88 89 92 91 91 93 92 93 92 94 94 95 92 92 92 96 94 93 93 94 92 95 95 96 93 96 97 97 97 97 98 99 98 96 97 96 95 96 94 95 95 95 97 96 97 97 95 97 95 97 97 94 96 94 94 94 96 100 97 101 105 105 106 107 108 109 110 111 112 112 112 112 114 113 113 113 112 113 108 112 111 106 99 97 101 101 101 94 95 91 95 94 94 97 95 96 97 96 97 95 96 96 93 93 92 92 93 93 93 95 96 97 100 101 102 103 -193 -209 0 0 0 0 0
    0 0 0 0 0 0 0 0 0 0 0 0 0 0 0 0 0 0 0 0 0 0 0 0 0 0 0 0 0 0 0 0 0 0 0 0 0 0 0 0 0 0 0 0 0 0 0 0 0 0 0 0 0 0 0 0 0 0 0 0 0 0 0 0 0 0 0 0 0 88 88 88 89 90 90 93 95 95 95 94 95 98 96 94 94 93 93 94 93 93 92 93 93 93 93 95 92 95 -193 -209 103 105 97 101 99 96 96 97 93 94 93 93 93 92 93 93 92 94 93 93 92 89 92 93 91 94 92 92 95 92 92 92 91 91 90 90 89 87 90 -193 85 84 85 86 88 88 88 90 90 91 95 92 94 92 92 92 91 92 92 92 94 93 95 94 94 96 95 94 92 91 90 91 90 91 90 92 92 93 93 94 92 93 93 93 91 92 90 90 88 88 87 87 87 87 87 87 88 88 89 93 92 92 93 93 94 93 95 95 95 93 92 93 96 93 93 93 93 93 95 96 96 94 97 98 97 98 97 99 100 99 98 98 97 96 98 95 96 96 97 97 97 98 98 97 100 98 100 100 98 99 96 96 94 97 101 98 101 107 106 106 108 109 109 110 111 112 112 112 112 113 113 113 112 112 113 108 111 111 106 101 100 103 102 102 90 94 90 93 94 93 95 95 96 97 96 97 96 96 96 94 94 93 95 99 99 99 101 101 102 103 103 103 -193 -193 -209 0 0 0 0 0
    0 0 0 0 0 0 0 0 0 0 0 0 0 0 0 0 0 0 0 0 0 0 0 0 0 0 0 0 0 0 0 0 0 0 0 0 0 0 0 0 0 0 0 0 0 0 0 0 0 0 0 0 0 0 0 0 0 0 0 0 0 0 0 0 0 0 0 0 0 89 89 90 91 92 92 95 96 97 98 97 97 98 97 95 95 94 94 94 93 94 92 93 93 94 94 96 93 96 -193 91 93 99 94 100 97 96 97 97 95 96 94 95 95 94 94 94 94 95 95 95 93 90 93 95 92 96 93 94 96 94 94 93 92 92 91 92 91 89 91 -193 86 85 85 87 88 -209 -193 -193 -193 93 96 93 97 93 93 93 92 92 93 94 95 93 96 95 95 98 97 96 94 93 92 93 92 93 91 95 93 94 94 95 94 94 94 94 92 93 91 91 89 88 88 88 88 88 89 88 89 89 89 94 92 93 93 93 94 94 96 95 95 93 92 93 95 93 93 93 93 93 95 96 96 94 98 98 98 98 97 99 100 99 99 98 99 98 100 96 98 97 98 99 98 100 100 99 102 100 101 101 99 100 97 98 96 99 102 100 102 109 107 107 109 109 109 110 111 112 112 112 112 113 113 113 112 112 112 108 111 111 106 104 102 105 103 103 92 94 91 93 94 93 95 95 96 97 97 97 97 97 97 95 96 97 100 103 103 103 104 104 104 105 104 105 105 106 -209 0 0 0 0 0
    0 0 0 0 0 0 0 0 0 0 0 0 0 0 0 0 0 0 0 0 0 0 0 0 0 0 0 0 0 0 0 0 0 0 0 0 0 0 0 0 0 0 0 0 0 0 0 0 0 0 0 0 0 0 0 0 0 0 0 0 0 0 0 0 0 0 0 0 0 91 91 93 94 95 96 97 97 98 99 98 98 99 97 96 96 95 95 95 94 94 -193 94 96 96 97 98 97 98 94 94 94 97 94 99 97 96 98 98 96 97 95 96 96 95 96 95 95 96 95 95 93 90 95 97 94 98 95 96 98 96 96 95 94 94 92 93 92 90 92 89 87 85 85 87 -209 -193 -193 -193 -193 98 99 96 100 95 95 94 92 93 93 95 96 94 96 96 96 98 98 97 95 95 95 96 96 96 93 98 94 96 95 96 95 95 94 95 92 94 92 93 91 91 91 90 90 90 91 90 90 90 90 95 93 94 93 93 94 94 95 95 94 93 92 93 94 93 92 92 92 94 95 96 96 95 98 98 98 98 97 99 100 99 99 99 100 99 101 97 99 99 100 99 99 101 101 100 102 101 102 101 101 101 98 100 98 101 103 101 103 109 107 108 109 109 109 110 111 111 112 112 112 113 113 113 112 111 112 108 111 111 106 103 103 105 103 102 98 98 94 96 96 96 98 98 98 99 98 98 98 98 98 97 98 100 103 104 104 104 105 104 104 105 105 105 104 105 -209 0 0 0 0 0
    0 0 0 0 0 0 0 0 0 0 0 0 0 0 0 0 0 0 0 0 0 0 0 0 0 0 0 0 0 0 0 0 0 0 0 0 0 0 0 0 0 0 0 0 0 0 0 0 0 0 0 0 0 0 0 0 0 0 0 0 0 0 0 0 0 0 0 0 0 92 93 95 97 98 98 98 97 99 99 99 99 100 98 97 97 96 96 96 95 95 -193 96 99 100 100 101 101 102 99 97 97 97 95 100 98 96 98 98 97 98 97 97 97 96 97 95 96 96 96 96 94 91 96 98 95 100 96 97 99 97 98 96 95 95 93 95 93 91 93 89 88 87 -193 -193 -193 -193 -193 -193 -193 102 101 99 102 96 96 95 93 94 94 96 96 94 97 96 96 98 97 97 95 95 96 96 99 98 95 99 96 97 96 96 95 95 95 96 93 94 93 94 92 92 92 92 92 92 93 92 92 91 91 96 94 94 94 94 94 94 96 95 93 93 92 93 94 93 92 91 92 96 95 96 96 96 99 98 98 98 97 100 100 100 100 101 102 102 103 99 102 101 101 101 100 102 102 102 104 103 104 104 103 103 102 102 101 102 103 102 104 109 107 108 109 109 109 111 111 111 113 112 112 114 114 113 112 112 112 108 112 111 106 105 104 105 104 102 100 100 97 98 97 98 100 99 99 100 99 99 99 99 99 97 99 101 103 105 104 104 104 104 104 105 104 105 105 106 -209 0 0 0 0 0
    0 0 0 0 0 0 0 0 0 0 0 0 0 0 0 0 0 0 0 0 0 0 0 0 0 0 0 0 0 0 0 0 0 0 0 0 0 0 0 0 0 0 0 0 0 0 0 0 0 0 0 0 0 0 0 0 0 0 0 0 0 0 0 0 0 0 0 0 0 94 95 96 97 99 99 99 98 99 99 99 99 100 98 97 97 96 96 96 95 96 -193 97 101 101 102 102 103 103 100 96 95 94 94 99 97 96 98 97 97 98 97 98 97 96 97 95 96 96 96 96 95 92 98 99 97 100 97 97 99 97 98 96 96 96 94 95 94 92 95 90 91 91 -209 93 100 -193 102 103 102 102 101 100 102 97 96 96 94 95 94 96 96 93 96 96 96 97 97 97 95 95 97 97 100 99 96 100 96 97 96 96 96 95 95 95 93 94 93 94 93 93 93 94 93 94 96 95 94 93 94 98 95 95 94 94 94 94 96 95 93 93 92 93 93 93 92 92 92 98 95 96 96 97 99 99 98 99 97 100 101 101 101 102 104 104 105 102 105 104 104 103 102 104 104 104 106 105 105 105 105 105 105 104 104 103 104 103 105 109 108 108 110 109 110 111 112 111 114 113 113 114 114 113 112 112 113 109 112 112 107 106 106 106 104 101 98 99 95 96 96 97 99 100 99 100 99 99 98 98 97 96 98 101 103 105 104 104 104 104 104 105 104 105 106 -193 -209 0 0 0 0 0
    0 0 0 0 0 0 0 0 0 0 0 0 0 0 0 0 0 0 0 0 0 0 0 0 0 0 0 0 0 0 0 0 0 0 0 0 0 0 0 0 0 0 0 0 0 0 0 0 0 0 0 0 0 0 0 0 0 0 0 0 0 0 0 0 0 0 0 0 0 95 96 98 98 100 99 99 99 100 100 98 99 100 98 97 97 96 96 96 96 96 -193 -193 103 102 103 103 104 104 101 97 95 93 93 99 97 95 98 97 97 98 97 97 97 96 97 95 96 96 97 97 95 92 100 99 98 101 98 97 99 97 98 96 96 96 94 96 94 92 96 90 95 99 106 99 102 -193 102 -193 -193 -193 100 99 102 97 96 96 95 95 95 96 96 93 96 96 96 97 96 96 95 95 98 97 101 99 97 100 96 97 96 96 95 95 95 95 93 94 93 94 93 94 94 95 94 95 96 96 95 93 95 98 95 96 95 94 94 94 96 95 93 93 93 94 94 94 93 93 93 100 95 96 96 98 100 99 99 99 98 101 101 102 102 103 105 106 106 105 107 107 107 105 103 104 105 105 107 106 106 106 106 106 106 105 106 104 105 104 107 109 108 109 110 109 110 111 112 111 114 113 113 115 114 114 112 112 113 109 113 112 107 107 109 111 107 104 99 101 97 97 96 99 99 100 100 100 99 99 98 97 96 96 98 102 104 105 104 104 105 105 105 105 105 106 107 -209 -209 0 0 0 0 0
    0 0 0 0 0 0 0 0 0 0 0 0 0 0 0 0 0 0 0 0 0 0 0 0 0 0 0 0 0 0 0 0 0 0 0 0 0 0 0 0 0 0 0 0 0 0 0 0 0 0 0 0 0 0 0 0 0 0 0 0 0 0 0 0 0 0 0 0 0 95 97 98 98 100 100 100 99 101 100 99 100 100 99 98 98 97 97 96 96 96 -193 -193 -193 103 104 104 105 105 104 99 96 92 93 98 97 96 98 98 97 99 97 98 97 96 97 96 97 97 98 98 96 94 102 101 99 102 98 98 100 98 99 97 96 96 94 96 95 93 97 92 100 101 105 101 102 -193 103 -209 -193 -193 101 100 103 97 97 97 95 95 95 97 97 93 97 97 96 97 97 97 96 96 99 97 101 100 97 100 96 97 96 96 95 95 95 95 92 94 93 95 94 94 95 96 94 95 96 96 94 93 95 97 95 95 95 94 94 95 96 95 94 94 94 95 95 94 94 93 93 100 95 96 96 98 100 99 99 99 98 101 102 102 103 104 106 107 107 106 108 109 108 107 105 106 106 105 107 107 106 106 106 107 106 106 107 106 106 106 109 109 109 109 110 109 110 112 112 111 115 113 113 115 114 114 112 113 113 109 113 112 108 108 111 112 109 108 104 108 105 103 100 101 101 101 100 101 99 100 98 98 97 99 101 -193 105 106 104 105 106 106 106 106 105 107 109 -193 545 0 0 0 0 0
    0 0 0 0 0 0 0 0 0 0 0 0 0 0 0 0 0 0 0 0 0 0 0 0 0 0 0 0 0 0 0 0 0 0 0 0 0 0 0 0 0 0 0 0 0 0 0 0 0 0 0 0 0 0 0 0 0 0 0 0 0 0 0 0 0 0 0 0 0 96 98 99 99 100 100 100 100 101 101 99 100 100 99 98 99 98 97 97 97 97 99 -193 -193 104 105 105 105 105 105 100 97 94 94 98 97 96 98 98 98 99 98 98 98 97 98 97 98 98 99 99 98 99 105 102 101 103 100 100 101 99 100 98 98 98 95 98 96 94 98 93 102 103 106 104 103 103 103 -193 104 104 101 100 103 97 97 98 96 96 96 98 98 94 98 98 97 98 98 98 97 96 98 97 101 100 99 100 97 98 97 97 96 96 96 96 93 96 94 96 95 95 94 96 94 95 96 96 94 93 95 96 95 95 95 94 94 95 96 95 95 95 97 97 96 96 95 96 95 101 96 96 96 99 100 99 99 99 98 101 102 103 104 105 106 108 108 107 109 109 109 108 105 107 107 105 107 107 106 106 107 108 107 107 108 107 107 107 110 109 109 109 111 110 110 113 113 112 116 114 114 115 115 114 112 113 113 109 113 112 108 109 111 111 108 108 105 108 107 105 102 104 103 104 102 103 101 103 102 102 102 103 105 108 107 107 105 105 107 107 107 107 106 109 111 -209 541 0 0 0 0 0
    0 0 0 0 0 0 0 0 0 0 0 0 0 0 0 0 0 0 0 0 0 0 0 0 0 0 0 0 0 0 0 0 0 0 0 0 0 0 0 0 0 0 0 0 0 0 0 0 0 0 0 0 0 0 0 0 0 0 0 0 0 0 0 0 0 0 0 0 0 97 100 100 101 102 102 102 103 104 103 101 101 101 100 99 99 98 98 97 98 98 101 -209 106 106 107 107 107 106 106 105 102 100 99 100 99 98 99 98 98 99 98 99 98 98 99 98 99 99 100 101 102 103 106 105 103 104 102 102 103 101 101 100 99 99 97 99 97 95 100 96 105 107 109 107 105 105 104 105 105 104 101 100 103 98 99 99 99 98 98 100 99 96 100 99 99 99 99 98 96 95 97 96 101 100 101 102 98 99 99 99 98 98 98 99 95 99 97 99 98 98 95 97 95 97 97 98 95 93 96 97 96 95 95 95 95 95 96 95 95 97 100 100 99 99 99 100 99 102 97 96 96 99 100 99 98 99 98 101 103 103 104 105 107 108 108 107 109 109 109 108 106 108 107 105 107 107 107 106 108 108 107 107 108 108 108 108 111 109 109 110 111 111 111 114 114 112 117 114 114 115 115 114 112 113 112 109 112 112 108 109 110 110 108 108 104 107 107 105 103 105 105 105 103 103 102 104 103 103 103 104 106 108 108 108 106 106 107 107 108 107 107 110 113 -209 -193 0 0 0 0 0
    0 0 0 0 0 0 0 0 0 0 0 0 0 0 0 0 0 0 0 0 0 0 0 0 0 0 0 0 0 0 0 0 0 0 0 0 0 0 0 0 0 0 0 0 0 0 0 0 0 0 0 0 0 0 0 0 0 0 0 0 0 0 0 0 0 0 0 0 0 99 101 103 104 105 105 105 106 106 106 105 104 103 102 101 101 100 99 98 100 100 103 105 107 107 108 108 107 107 107 106 105 104 104 102 101 101 101 100 99 100 99 99 99 99 100 99 100 100 101 102 -193 105 107 106 106 106 103 104 104 102 102 101 101 100 99 101 99 97 101 100 107 109 111 110 108 108 106 107 107 105 102 101 103 99 100 100 100 100 100 102 101 99 102 101 101 100 100 100 97 96 98 97 102 102 103 103 100 101 100 100 100 100 100 100 98 101 100 101 101 101 98 99 97 100 100 101 99 97 100 99 98 96 96 96 95 96 97 96 96 100 104 103 102 102 102 103 103 104 98 97 97 99 101 99 99 99 99 102 103 104 105 106 107 108 108 107 109 110 108 109 107 108 109 107 108 108 107 106 108 108 108 108 109 108 108 109 112 109 110 110 112 111 112 114 114 113 117 114 114 116 115 114 113 113 112 110 112 112 108 109 111 110 109 110 108 113 110 108 106 107 107 107 104 104 103 105 105 104 -193 105 107 110 109 109 106 106 107 107 108 108 107 110 114 -193 -209 0 0 0 0 0
    0 0 0 0 0 0 0 0 0 0 0 0 0 0 0 0 0 0 0 0 0 0 0 0 0 0 0 0 0 0 0 0 0 0 0 0 0 0 0 0 0 0 0 0 0 0 0 0 0 0 0 0 0 0 0 0 0 0 0 0 0 0 0 0 0 0 0 0 0 102 103 105 106 106 107 107 108 107 107 106 106 106 104 103 103 102 101 100 102 102 105 106 107 107 108 108 108 108 108 108 107 107 106 105 104 103 103 102 101 101 100 100 100 99 101 101 102 102 102 103 105 105 108 107 107 107 105 106 106 104 104 102 102 102 101 103 101 100 103 103 110 111 112 112 110 110 108 109 109 107 104 101 103 100 101 101 102 102 101 103 103 101 104 103 102 101 101 101 98 97 99 98 102 101 104 103 101 102 101 101 101 102 102 102 101 102 102 103 103 103 100 101 99 102 102 103 102 101 102 101 100 98 98 98 97 98 99 -193 -193 -193 106 106 105 105 105 106 105 105 99 99 99 101 101 100 99 100 100 103 104 106 107 107 108 109 109 108 110 110 108 109 108 110 112 109 111 109 108 108 110 109 109 108 110 109 109 109 113 109 110 111 111 112 112 114 114 114 117 115 115 116 115 115 114 114 112 110 113 113 109 110 112 111 110 112 110 115 112 110 108 107 108 108 106 105 104 106 108 109 -209 109 111 114 113 114 106 105 -193 -209 108 107 107 111 116 -209 -209 0 0 0 0 0
    0 0 0 0 0 0 0 0 0 0 0 0 0 0 0 0 0 0 0 0 0 0 0 0 0 0 0 0 0 0 0 0 0 0 0 0 0 0 0 0 0 0 0 0 0 0 0 0 0 0 0 0 0 0 0 0 0 0 0 0 0 0 0 0 0 0 0 0 0 104 105 106 107 108 108 109 110 109 110 108 108 108 107 105 105 104 104 -209 -193 105 107 107 108 109 110 109 109 109 109 110 108 108 108 106 106 105 105 104 102 103 102 101 101 100 102 102 104 103 104 104 106 106 109 108 109 109 107 109 107 105 105 103 104 103 103 104 102 103 104 105 111 111 112 112 110 112 110 111 110 108 105 102 103 100 102 102 103 103 103 104 104 103 105 104 104 103 103 103 99 99 99 99 100 100 104 103 102 103 102 102 102 104 104 103 103 104 104 104 104 104 102 102 100 103 103 104 104 104 104 102 101 100 100 100 100 101 -193 -193 -193 -193 108 107 106 106 106 107 106 106 101 100 101 102 102 101 101 101 102 104 105 107 108 108 109 109 109 108 110 111 108 110 109 111 113 111 113 111 109 109 111 110 110 109 111 109 110 110 114 110 112 113 113 114 114 115 115 115 117 115 115 117 116 115 115 115 113 112 114 114 111 112 114 112 111 112 111 116 112 110 109 108 110 111 108 108 104 -209 -209 -209 -209 -193 -193 119 118 -209 -209 -209 -209 -209 113 110 108 113 117 -193 411 0 0 0 0 0
    0 0 0 0 0 0 0 0 0 0 0 0 0 0 0 0 0 0 0 0 0 0 0 0 0 0 0 0 0 0 0 0 0 0 0 0 0 0 0 0 0 0 0 0 0 0 0 0 0 0 0 0 0 0 0 0 0 0 0 0 0 0 0 0 0 0 0 0 0 106 108 108 108 109 110 110 111 110 111 109 109 109 109 107 106 106 106 -193 107 107 108 108 109 110 112 110 110 110 110 111 109 109 108 107 108 107 106 106 104 105 104 103 103 103 -193 -193 106 105 106 106 108 108 110 108 110 110 108 110 108 106 106 105 105 105 105 105 103 104 105 106 110 111 112 112 111 112 112 112 112 109 107 104 104 102 103 104 105 105 105 106 106 105 106 106 106 105 105 106 103 105 103 104 104 103 107 104 104 105 104 105 105 106 106 105 105 105 105 105 104 104 103 103 101 104 105 106 106 106 107 104 103 101 102 102 103 103 -193 -193 -193 107 109 107 107 107 107 108 107 106 102 102 103 103 103 102 102 103 104 105 106 109 108 108 109 109 109 108 111 111 108 109 110 111 113 111 113 111 110 109 112 111 110 110 111 111 111 112 115 111 114 115 115 116 115 116 116 117 117 116 116 117 116 116 116 115 113 112 115 115 112 113 114 112 111 112 111 116 112 110 111 110 112 114 113 112 107 116 -209 -193 -209 -193 119 120 119 -209 -209 -209 -209 117 116 -209 -209 -193 119 -209 413 0 0 0 0 0
    0 0 0 0 0 0 0 0 0 0 0 0 0 0 0 0 0 0 0 0 0 0 0 0 0 0 0 0 0 0 0 0 0 0 0 0 0 0 0 0 0 0 0 0 0 0 0 0 0 0 0 0 0 0 0 0 0 0 0 0 0 0 0 0 0 0 0 0 0 108 112 110 110 110 112 111 112 111 112 110 110 110 110 108 108 108 108 107 109 109 110 109 110 111 113 110 111 110 110 112 109 110 109 107 109 109 108 107 106 107 107 106 106 -193 -193 107 108 107 108 108 110 109 111 109 111 110 109 112 108 107 107 106 106 106 106 107 105 106 106 107 112 112 113 113 112 113 114 112 113 111 108 106 107 103 106 106 107 107 107 108 107 107 108 107 108 107 107 108 106 107 106 107 107 106 110 107 107 107 107 108 107 109 108 107 107 106 106 106 105 105 105 104 104 106 108 109 110 109 110 106 105 104 105 104 105 106 106 105 107 108 109 108 108 108 108 108 108 107 104 104 105 105 104 104 103 104 106 106 107 111 109 109 109 109 109 109 111 111 108 110 110 112 113 112 112 110 110 110 113 111 111 112 112 112 113 114 116 114 117 117 117 117 116 116 117 118 117 116 116 117 116 116 116 116 113 113 115 115 113 113 114 112 111 112 112 116 113 112 112 112 113 114 114 112 108 115 119 119 119 119 119 119 118 119 -209 -209 -193 115 115 113 111 114 118 -209 -193 0 0 0 0 0
    0 0 0 0 0 0 0 0 0 0 0 0 0 0 0 0 0 0 0 0 0 0 0 0 0 0 0 0 0 0 0 0 0 0 0 0 0 0 0 0 0 0 0 0 0 0 0 0 0 0 0 0 0 0 0 0 0 0 0 0 0 0 0 0 0 0 0 0 0 110 114 112 112 112 113 112 113 112 113 111 112 111 111 109 110 109 110 109 110 110 110 109 110 111 114 110 111 110 111 113 110 110 109 108 109 109 108 108 107 109 109 -193 -193 -193 109 -193 -193 109 110 108 111 109 111 109 112 110 109 112 109 108 108 107 107 107 107 108 106 108 108 109 113 113 113 114 114 114 114 112 112 110 109 107 109 106 109 108 110 109 108 110 109 109 109 108 109 108 108 109 107 109 108 108 110 108 112 109 109 109 109 110 110 113 110 108 108 108 107 107 107 107 106 106 106 109 111 112 113 112 113 110 109 107 107 107 108 108 108 107 109 109 109 109 109 108 109 109 108 107 106 106 106 106 106 105 105 105 107 107 108 113 109 110 110 109 110 110 112 111 108 112 113 114 115 115 113 111 111 111 114 111 111 112 113 113 114 115 117 116 118 118 118 118 117 117 117 118 117 116 116 117 116 117 117 117 112 114 114 115 113 113 113 112 111 113 113 115 113 112 112 111 111 112 112 109 106 111 116 118 119 118 118 118 118 119 120 120 119 115 116 113 114 115 117 -209 -209 0 0 0 0 0
    0 0 0 0 0 0 0 0 0 0 0 0 0 0 0 0 0 0 0 0 0 0 0 0 0 0 0 0 0 0 0 0 0 0 0 0 0 0 0 0 0 0 0 0 0 0 0 0 0 0 0 0 0 0 0 0 0 0 0 0 0 0 0 0 0 0 0 0 0 112 116 114 113 113 114 113 113 112 113 111 112 111 112 109 110 109 111 109 110 109 109 109 109 110 113 109 110 110 111 113 110 110 110 108 110 109 108 109 108 109 109 -193 -193 -193 -193 -193 -193 109 110 108 112 110 112 109 112 110 109 113 109 109 109 108 108 108 108 108 106 109 109 110 115 114 114 115 115 114 115 113 113 110 109 107 110 108 113 111 113 111 110 111 110 110 110 108 109 108 109 110 108 110 110 110 112 110 113 110 110 110 110 110 111 113 111 109 109 109 108 108 108 108 107 108 108 111 112 113 114 113 114 112 111 110 109 109 110 109 110 108 110 110 110 109 109 109 109 109 109 107 107 108 108 108 107 107 106 107 110 108 108 114 110 110 110 110 110 110 113 113 108 114 115 115 116 116 114 112 113 114 115 111 112 113 113 113 114 116 117 116 118 118 118 118 117 117 117 118 117 117 116 117 117 118 118 118 112 116 116 116 115 115 115 113 113 114 114 115 113 112 112 111 111 112 112 110 108 113 116 119 119 119 119 119 119 120 122 122 121 118 117 115 115 116 118 -209 -209 0 0 0 0 0
    0 0 0 0 0 0 0 0 0 0 0 0 0 0 0 0 0 0 0 0 0 0 0 0 0 0 0 0 0 0 0 0 0 0 0 0 0 0 0 0 0 0 0 0 0 0 0 0 0 0 0 0 0 0 0 0 0 0 0 0 0 0 0 0 0 0 0 0 0 112 116 114 113 113 114 113 113 112 113 111 111 111 111 109 109 109 111 108 109 109 109 108 109 111 114 109 110 111 111 113 111 111 110 108 110 109 108 109 108 109 110 109 -193 108 110 -193 -193 108 109 107 111 110 111 109 111 109 109 113 109 108 109 107 108 107 108 108 106 109 110 110 115 115 115 115 115 115 115 113 114 112 110 109 113 110 114 112 114 112 111 112 111 110 110 109 109 109 109 110 109 111 111 111 112 110 112 110 109 109 109 109 110 112 110 109 109 109 108 109 108 108 107 108 108 110 111 113 113 112 113 111 111 111 110 110 112 110 110 109 111 110 110 109 109 109 109 109 109 108 108 109 109 109 108 108 108 109 111 109 109 115 110 111 111 110 110 111 114 114 109 116 117 117 117 118 116 116 119 119 119 115 117 117 116 116 116 117 119 118 118 118 118 118 118 116 117 117 116 116 116 116 116 118 119 119 114 119 119 119 119 119 118 117 116 116 117 117 115 115 114 114 114 116 118 118 118 120 119 122 124 121 121 121 120 122 124 124 124 121 -193 -193 -209 117 120 -193 228 0 0 0 0 0
    0 0 0 0 0 0 0 0 0 0 0 0 0 0 0 0 0 0 0 0 0 0 0 0 0 0 0 0 0 0 0 0 0 0 0 0 0 0 0 0 0 0 0 0 0 0 0 0 0 0 0 0 0 0 0 0 0 0 0 0 0 0 0 0 0 0 0 0 0 -193 116 114 114 114 114 114 113 112 113 111 111 111 111 110 109 109 111 109 109 109 109 109 109 111 114 109 111 111 111 113 110 111 110 108 110 109 108 109 108 110 110 109 -193 109 110 110 110 108 109 107 110 110 111 110 112 110 109 114 109 108 109 107 108 107 108 108 106 109 110 110 115 115 115 116 115 115 115 114 114 113 110 110 113 111 115 113 114 112 111 112 111 110 110 109 109 109 109 111 110 112 111 111 111 109 110 109 107 107 107 107 107 110 109 108 108 109 108 108 108 108 108 108 108 111 111 113 113 112 113 111 111 110 110 110 113 110 111 109 111 110 110 109 109 108 109 109 109 107 108 110 110 110 109 108 109 110 112 110 109 115 111 111 111 111 111 113 115 114 109 117 118 117 117 118 117 119 122 122 122 121 121 122 120 120 119 119 120 119 119 119 119 119 118 117 117 117 116 117 116 117 118 121 121 122 120 122 122 123 123 122 121 121 119 118 119 119 117 118 116 116 117 118 120 121 121 122 121 123 126 123 123 123 123 124 126 126 126 123 -193 -193 -209 122 125 -193 230 0 0 0 0 0
    0 0 0 0 0 0 0 0 0 0 0 0 0 0 0 0 0 0 0 0 0 0 0 0 0 0 0 0 0 0 0 0 0 0 0 0 0 0 0 0 0 0 0 0 0 0 0 0 0 0 0 0 0 0 0 0 0 0 0 0 0 0 0 0 0 0 0 0 0 -193 116 115 114 114 115 114 114 113 114 111 112 111 112 111 111 111 113 109 111 111 111 110 110 113 115 109 112 111 111 112 110 111 110 108 109 109 108 109 108 109 110 109 109 -193 110 110 109 108 108 107 110 110 111 110 112 110 110 114 109 109 109 107 108 108 108 108 105 108 110 110 114 115 115 116 115 115 116 114 115 114 111 111 112 111 115 114 114 112 111 112 110 110 110 108 109 109 109 111 110 112 112 111 111 109 110 108 106 106 106 106 107 109 108 107 108 109 108 109 109 109 108 109 110 111 111 113 113 111 113 112 112 111 111 111 114 112 112 110 111 110 110 109 109 108 109 109 108 107 109 111 110 111 109 109 110 111 112 111 110 116 111 111 112 111 112 114 116 115 110 117 118 117 118 119 119 121 123 124 123 123 124 124 122 122 121 121 122 121 120 120 120 120 119 118 118 119 118 120 119 120 121 123 124 125 123 124 124 126 125 124 123 123 121 119 120 120 118 119 118 118 119 120 122 122 122 123 122 124 127 125 125 124 124 125 127 126 127 124 125 126 126 126 129 -193 -177 0 0 0 0 0
    0 0 0 0 0 0 0 0 0 0 0 0 0 0 0 0 0 0 0 0 0 0 0 0 0 0 0 0 0 0 0 0 0 0 0 0 0 0 0 0 0 0 0 0 0 0 0 0 0 0 0 0 0 0 0 0 0 0 0 0 0 0 0 0 0 0 0 0 0 -193 116 114 114 114 114 114 113 113 114 112 112 112 113 112 113 113 114 110 111 111 111 110 110 112 115 109 111 111 110 111 110 110 109 107 109 108 107 108 108 109 110 109 109 109 110 110 109 108 108 108 111 111 112 111 113 110 110 115 110 109 109 108 108 108 108 109 105 108 110 110 113 115 114 115 115 115 115 114 114 114 111 112 114 112 115 114 115 113 112 112 111 110 111 108 109 109 109 111 111 113 112 111 112 110 110 108 107 106 106 107 107 109 108 107 108 109 108 109 109 109 108 110 111 113 112 114 113 111 113 112 112 111 111 112 115 112 112 110 111 110 109 110 109 108 109 108 108 107 109 111 111 111 110 109 110 112 113 111 111 116 112 112 112 112 113 115 116 115 111 118 118 118 118 119 118 121 124 124 124 124 124 125 123 123 122 122 124 122 121 121 121 121 121 119 119 119 120 122 121 122 124 125 125 127 125 126 125 127 126 126 125 126 124 121 122 122 120 122 121 120 121 121 124 123 124 125 124 125 128 126 126 125 126 125 127 127 127 124 125 125 127 127 130 134 -177 0 0 0 0 0
    0 0 0 0 0 0 0 0 0 0 0 0 0 0 0 0 0 0 0 0 0 0 0 0 0 0 0 0 0 0 0 0 0 0 0 0 0 0 0 0 0 0 0 0 0 0 0 0 0 0 0 0 0 0 0 0 0 0 0 0 0 0 0 0 0 0 0 0 0 -209 116 115 115 114 115 114 114 114 115 113 113 113 115 115 116 115 116 111 113 113 113 111 111 113 117 110 113 112 110 111 110 110 109 107 109 108 107 109 109 110 111 110 111 111 112 112 -193 110 110 109 113 112 113 112 114 111 111 116 110 109 109 108 108 108 109 109 105 108 111 110 113 115 114 115 115 114 115 113 113 114 111 113 114 113 116 115 115 114 113 112 112 111 111 109 109 109 110 111 112 113 113 112 113 111 111 109 107 107 107 107 107 109 108 108 108 110 109 110 110 109 109 112 114 116 114 115 115 112 115 114 113 112 111 112 115 112 113 111 112 110 110 110 109 108 109 108 108 107 110 113 113 113 113 112 113 115 115 114 113 117 112 112 112 113 114 115 116 115 111 119 119 119 118 119 119 122 125 124 124 124 124 124 123 123 122 122 124 123 121 122 121 121 121 120 120 120 121 123 122 123 126 127 127 128 127 126 125 127 126 127 126 127 125 122 125 124 122 125 123 122 123 122 126 124 125 126 125 126 129 126 127 125 126 126 127 126 126 123 124 124 125 127 129 133 -193 0 0 0 0 0
    0 0 0 0 0 0 0 0 0 0 0 0 0 0 0 0 0 0 0 0 0 0 0 0 0 0 0 0 0 0 0 0 0 0 0 0 0 0 0 0 0 0 0 0 0 0 0 0 0 0 0 0 0 0 0 0 0 0 0 0 0 0 0 0 0 0 0 0 0 -209 -193 117 116 115 116 115 116 115 116 115 114 116 -193 117 -193 -193 -209 113 116 116 116 115 116 117 120 115 118 117 115 114 113 111 110 107 109 107 107 110 110 111 112 111 114 113 114 114 113 111 111 110 114 113 113 114 115 113 114 117 112 111 111 110 110 109 110 110 106 111 114 113 116 117 116 118 117 116 117 115 116 116 115 116 116 115 117 116 116 115 115 114 114 112 114 111 110 111 -193 113 113 114 114 113 114 111 110 110 108 107 107 107 108 110 109 109 109 112 112 113 113 112 112 116 118 118 117 117 117 115 116 116 114 112 111 113 116 113 115 112 113 111 110 111 110 108 109 109 109 108 112 115 117 116 117 117 118 119 118 117 116 118 113 113 113 114 115 116 117 116 113 120 120 120 119 121 121 123 126 125 126 125 125 125 124 124 122 123 124 123 122 123 122 121 121 120 121 121 122 125 124 125 127 129 129 129 129 126 125 127 126 127 127 128 126 124 127 126 125 128 125 124 125 124 128 125 126 127 125 127 128 126 127 125 126 126 127 127 126 124 125 125 127 128 129 132 -193 0 0 0 0 0
    0 0 0 0 0 0 0 0 0 0 0 0 0 0 0 0 0 0 0 0 0 0 0 0 0 0 0 0 0 0 0 0 0 0 0 0 0 0 0 0 0 0 0 0 0 0 0 0 0 0 0 0 0 0 0 0 0 0 0 0 0 0 0 0 0 0 0 0 0 -209 -193 -209 118 118 118 118 118 117 118 118 117 118 -193 -209 -209 -193 -193 -209 119 -193 -209 118 -193 121 123 122 123 122 121 119 117 116 112 107 110 108 108 111 113 113 115 113 116 115 115 115 114 111 112 110 115 114 115 116 117 117 118 120 116 116 116 114 114 113 113 114 109 117 118 117 119 120 119 121 119 120 120 119 120 120 120 121 118 118 118 118 118 117 -193 116 116 115 117 -209 -193 115 -193 115 115 116 115 113 114 112 110 110 107 107 107 107 110 113 110 110 110 115 115 116 116 116 116 119 120 121 121 120 120 119 118 118 116 114 113 116 118 116 117 115 115 113 113 114 112 110 111 110 112 110 117 118 120 119 121 121 122 122 121 121 120 119 115 114 115 116 116 117 118 118 116 121 122 122 121 122 124 125 127 126 127 126 126 126 125 124 123 123 124 123 122 123 122 121 121 121 122 121 124 127 126 127 129 130 130 129 130 127 125 127 126 127 127 129 128 126 130 130 129 132 128 129 129 127 130 127 128 128 126 127 128 126 127 125 126 127 128 128 127 125 128 127 129 130 131 133 -209 0 0 0 0 0
    0 0 0 0 0 0 0 0 0 0 0 0 0 0 0 0 0 0 0 0 0 0 0 0 0 0 0 0 0 0 0 0 0 0 0 0 0 0 0 0 0 0 0 0 0 0 0 0 0 0 0 0 0 0 0 0 0 0 0 0 0 0 0 0 0 0 0 0 0 -193 126 -193 123 122 -193 -209 -193 120 120 -209 -193 -209 -193 -209 -193 -193 -193 -209 -209 -193 -209 -209 -193 124 127 126 126 125 124 123 122 121 118 109 112 108 -193 115 -209 116 118 116 118 117 117 -193 -193 112 114 112 116 116 117 118 119 120 121 122 119 119 119 118 118 118 117 118 115 121 -193 -209 122 123 122 123 122 123 123 122 123 123 124 124 122 122 120 120 119 119 -193 119 119 119 120 -209 -209 -209 -209 -193 118 118 117 115 114 113 112 110 107 107 108 109 113 115 112 112 112 116 117 117 118 119 119 121 123 123 123 122 123 122 120 120 119 117 116 119 -193 119 120 119 118 117 117 117 116 113 114 113 117 118 121 121 123 122 123 123 124 124 122 123 122 120 117 116 116 117 118 118 118 119 118 122 123 123 123 123 125 126 127 127 128 127 127 126 126 124 123 124 125 124 123 125 124 123 123 123 125 123 127 129 128 128 130 130 130 129 130 127 126 128 126 126 127 129 128 128 132 132 132 134 132 133 132 131 132 129 129 129 127 128 129 127 127 126 127 128 128 128 126 125 128 128 130 130 131 133 -209 0 0 0 0 0
    0 0 0 0 0 0 0 0 0 0 0 0 0 0 0 0 0 0 0 0 0 0 0 0 0 0 0 0 0 0 0 0 0 0 0 0 0 0 0 0 0 0 0 0 0 0 0 0 0 0 0 0 0 0 0 0 0 0 0 0 0 0 0 0 0 0 0 0 0 132 129 132 126 127 127 -193 -193 123 123 -193 122 -193 -193 -193 -193 -193 -193 -193 -193 -193 -209 -193 132 126 129 128 128 127 126 125 124 122 123 -209 -209 113 -209 -209 -209 -209 123 120 122 -209 -193 -209 -209 -193 -193 -193 -193 118 119 121 121 125 124 124 122 122 123 122 122 122 120 121 -193 123 -193 -209 125 125 124 126 125 125 125 125 126 126 127 127 124 125 122 123 122 122 123 121 122 123 123 -193 124 125 -193 -209 -193 120 119 117 117 116 116 113 108 109 111 113 116 117 114 112 114 117 119 119 120 121 121 123 124 124 125 124 125 124 122 124 122 119 119 121 124 122 123 122 121 121 121 121 121 118 119 119 122 123 123 123 126 124 125 125 124 125 124 124 123 121 118 117 118 118 119 119 119 120 121 123 125 124 125 125 128 128 128 128 128 128 127 127 126 124 124 124 126 126 125 129 129 128 129 131 131 128 130 131 130 130 131 131 130 130 131 129 128 129 128 128 128 130 130 131 133 133 133 135 134 134 133 132 133 130 130 130 128 129 130 128 129 128 130 131 130 130 129 128 132 130 131 131 132 134 136 0 0 0 0 0
    0 0 0 0 0 0 0 0 0 0 0 0 0 0 0 0 0 0 0 0 0 0 0 0 0 0 0 0 0 0 0 0 0 0 0 0 0 0 0 0 0 0 0 0 0 0 0 0 0 0 0 0 0 0 0 0 0 0 0 0 0 0 0 0 0 0 0 0 0 132 130 133 129 130 130 128 128 125 125 125 123 124 125 -193 -193 127 -193 127 130 -193 -193 -193 134 128 130 129 130 128 128 126 126 124 126 124 125 123 125 -193 132 130 130 126 128 -193 -193 -193 -209 -209 -209 -193 -193 -193 121 124 124 130 127 126 126 125 126 125 126 126 123 124 -193 125 -193 -193 126 126 126 127 127 127 127 127 127 127 128 129 126 126 125 127 125 124 126 123 124 125 125 127 126 127 127 126 128 125 123 122 121 121 121 120 119 118 118 119 119 120 118 115 117 118 120 121 121 123 123 124 126 125 125 124 128 126 124 127 125 122 122 123 127 124 126 124 123 124 124 124 125 122 124 123 125 128 126 127 129 127 127 127 126 126 125 125 124 122 120 119 120 120 121 120 121 121 122 124 126 126 126 126 129 129 128 128 129 128 128 127 126 124 124 126 130 131 132 133 133 134 134 136 135 133 132 132 131 131 132 131 131 130 131 130 130 131 130 129 129 131 131 133 134 133 134 135 134 135 134 133 133 131 131 131 129 130 130 128 130 130 131 131 131 130 130 130 133 132 131 132 133 135 139 0 0 0 0 0
    0 0 0 0 0 0 0 0 0 0 0 0 0 0 0 0 0 0 0 0 0 0 0 0 0 0 0 0 0 0 0 0 0 0 0 0 0 0 0 0 0 0 0 0 0 0 0 0 0 0 0 0 0 0 0 0 0 0 0 0 0 0 0 0 0 0 0 0 0 132 131 133 130 132 131 130 130 127 128 127 124 126 126 126 129 129 130 129 131 133 -193 133 134 129 131 130 131 129 129 128 128 125 128 125 126 125 128 127 132 130 131 128 130 -193 -193 -193 -209 -209 -209 -193 -193 -193 124 127 126 131 129 128 129 128 129 129 130 130 126 128 129 127 128 127 128 127 126 128 128 128 128 128 129 128 129 130 127 128 127 129 127 126 129 125 126 127 127 128 127 128 129 128 131 129 127 127 124 124 125 123 123 122 122 123 122 123 122 119 122 120 123 122 123 125 125 126 127 126 126 125 129 128 125 127 125 123 124 125 129 126 128 126 125 126 126 126 127 124 126 125 127 131 128 129 131 128 129 129 128 128 127 127 126 123 122 121 122 122 123 122 122 123 124 125 127 127 127 127 131 130 128 128 129 128 128 127 127 124 123 129 132 133 135 135 135 136 136 138 137 135 134 133 132 132 133 132 131 131 131 130 132 132 131 130 130 133 133 135 135 134 134 135 135 136 135 134 134 132 133 132 131 131 131 129 131 132 132 132 132 131 131 131 134 132 131 133 134 137 142 0 0 0 0 0
    0 0 0 0 0 0 0 0 0 0 0 0 0 0 0 0 0 0 0 0 0 0 0 0 0 0 0 0 0 0 0 0 0 0 0 0 0 0 0 0 0 0 0 0 0 0 0 0 0 0 0 0 0 0 0 0 0 0 0 0 0 0 0 0 0 0 0 0 0 133 131 133 130 132 131 130 130 128 129 128 125 128 127 127 131 130 131 131 132 134 -193 134 135 130 132 130 131 130 129 128 129 126 128 126 127 125 128 127 131 129 130 128 130 -193 -193 -193 -209 -209 124 -193 125 123 125 128 127 132 130 129 131 130 131 130 131 131 127 129 130 128 129 128 128 127 126 129 129 129 128 129 130 129 130 130 128 129 129 131 129 128 131 126 128 129 128 128 128 129 129 128 131 130 127 129 126 126 127 125 125 124 124 125 123 124 123 122 124 122 126 124 124 127 128 129 129 127 128 126 130 129 126 128 126 124 126 126 131 127 129 127 126 127 127 127 128 124 127 125 128 131 129 129 131 129 129 129 128 128 127 127 127 124 124 123 123 124 125 123 124 125 126 126 129 129 129 128 132 130 128 129 130 128 128 127 127 124 124 132 135 136 137 137 137 138 138 140 138 136 135 134 134 133 134 132 131 131 131 130 133 133 132 132 132 135 136 137 136 136 135 136 135 136 136 135 135 134 134 134 132 132 131 129 131 132 133 133 131 132 131 133 135 134 131 135 135 138 146 0 0 0 0 0
    0 0 0 0 0 0 0 0 0 0 0 0 0 0 0 0 0 0 0 0 0 0 0 0 0 0 0 0 0 0 0 0 0 0 0 0 0 0 0 0 0 0 0 0 0 0 0 0 0 0 0 0 0 0 0 0 0 0 0 0 0 0 0 0 0 0 0 0 0 133 131 133 130 132 131 130 130 129 129 128 125 128 128 128 132 131 132 131 132 134 -193 133 135 130 132 131 131 130 130 128 129 126 128 126 127 125 128 127 131 129 131 129 131 130 128 126 127 -193 126 124 126 124 126 129 127 133 130 129 131 130 131 130 131 130 126 129 130 128 128 127 127 127 127 130 130 130 129 129 130 130 131 130 128 129 128 131 130 128 131 126 129 130 128 128 128 128 129 128 131 129 127 129 126 125 126 125 125 125 125 126 124 126 125 124 127 124 128 125 126 128 129 130 129 127 128 126 130 130 126 128 126 125 127 127 131 127 130 127 127 127 127 127 128 124 127 125 128 131 129 129 131 129 129 129 128 128 127 128 128 125 125 124 125 125 126 124 126 127 128 127 129 129 130 129 132 131 128 129 129 128 128 127 127 124 124 134 136 138 138 138 138 139 139 140 139 138 137 135 136 135 135 133 131 131 131 131 134 134 134 134 134 137 138 138 138 138 136 137 136 137 136 136 136 135 135 135 133 134 133 131 133 134 134 134 133 134 133 134 135 135 133 136 135 140 148 0 0 0 0 0
    0 0 0 0 0 0 0 0 0 0 0 0 0 0 0 0 0 0 0 0 0 0 0 0 0 0 0 0 0 0 0 0 0 0 0 0 0 0 0 0 0 0 0 0 0 0 0 0 0 0 0 0 0 0 0 0 0 0 0 0 0 0 0 0 0 0 0 0 0 133 131 133 130 131 131 130 130 128 128 128 125 128 128 128 132 131 132 131 132 134 134 133 135 130 133 131 132 130 130 129 129 126 129 126 127 125 129 128 131 130 132 131 132 -193 -193 128 129 124 128 125 127 125 128 131 128 133 130 129 131 130 131 131 131 130 126 129 130 128 129 128 128 128 128 131 130 130 129 130 131 130 131 130 127 129 129 131 130 128 130 126 129 130 128 128 128 128 129 128 131 129 126 130 127 126 127 127 127 126 126 127 125 127 126 125 128 126 129 126 126 129 129 130 129 127 127 125 129 129 126 127 125 125 127 127 131 127 129 127 127 127 127 126 127 124 126 125 127 130 128 128 130 128 128 128 127 127 126 127 127 125 126 125 126 125 127 125 126 127 129 128 130 129 130 129 132 131 128 129 129 128 128 127 128 124 127 135 137 137 138 138 138 138 139 140 139 138 138 -209 138 137 137 134 132 132 132 132 135 136 136 137 136 139 139 140 140 139 138 138 137 137 137 137 136 136 135 136 134 135 135 133 135 136 136 136 135 136 134 135 136 135 134 137 136 142 149 0 0 0 0 0
    0 0 0 0 0 0 0 0 0 0 0 0 0 0 0 0 0 0 0 0 0 0 0 0 0 0 0 0 0 0 0 0 0 0 0 0 0 0 0 0 0 0 0 0 0 0 0 0 0 0 0 0 0 0 0 0 0 0 0 0 0 0 0 0 0 0 0 0 0 133 131 133 130 131 131 130 129 128 128 127 124 128 127 128 132 131 132 131 132 134 134 133 135 130 132 131 132 130 130 129 129 126 129 126 127 126 130 129 132 131 132 132 134 -209 -193 132 -209 -193 130 127 128 126 129 131 130 134 130 129 131 130 130 130 130 130 126 129 130 128 129 128 128 129 129 131 130 130 130 130 131 130 131 130 128 130 129 132 130 128 131 127 129 130 128 128 128 128 128 127 130 129 126 130 127 127 128 127 127 127 126 127 125 127 126 125 127 126 129 126 126 129 130 130 129 128 128 126 129 129 127 127 126 126 128 127 131 128 129 127 127 127 127 126 127 124 126 124 126 129 128 128 129 127 127 127 126 126 125 126 126 124 126 126 126 125 127 125 126 127 128 128 129 129 130 129 132 131 128 129 129 127 128 127 128 125 127 136 137 137 137 137 137 137 138 139 139 138 138 -193 139 139 139 135 132 132 133 134 137 138 138 139 138 140 141 141 141 140 139 139 138 138 138 138 137 137 137 138 137 138 138 137 137 138 138 138 137 137 136 136 136 136 136 138 139 143 147 0 0 0 0 0
    0 0 0 0 0 0 0 0 0 0 0 0 0 0 0 0 0 0 0 0 0 0 0 0 0 0 0 0 0 0 0 0 0 0 0 0 0 0 0 0 0 0 0 0 0 0 0 0 0 0 0 0 0 0 0 0 0 0 0 0 0 0 0 0 0 0 0 0 0 133 131 133 130 131 131 130 129 127 128 126 124 127 126 127 133 132 133 132 132 134 134 133 134 130 132 130 131 130 129 129 129 126 129 126 128 127 130 129 132 132 133 134 136 -209 -193 -193 -209 -209 134 133 129 127 130 132 130 134 130 129 131 130 130 130 130 129 126 129 130 127 129 128 128 128 129 131 130 130 129 130 131 130 130 130 128 130 130 132 131 129 131 127 130 130 128 128 128 128 127 127 129 129 126 129 127 127 128 128 128 127 126 127 125 127 125 124 127 125 129 126 126 130 131 130 129 128 128 126 129 129 127 127 126 126 128 128 131 128 129 127 127 127 127 126 127 124 126 124 126 128 127 128 128 127 126 126 125 126 125 126 126 124 125 126 126 126 128 125 127 128 129 129 130 130 131 130 133 132 128 129 129 127 128 127 128 126 127 135 137 136 137 136 136 137 137 138 138 138 138 -193 139 140 140 137 132 134 134 136 138 139 140 141 139 140 141 141 141 140 140 139 138 139 140 140 139 139 139 140 140 141 141 139 140 141 140 140 139 139 137 137 138 137 138 140 140 143 147 0 0 0 0 0
    0 0 0 0 0 0 0 0 0 0 0 0 0 0 0 0 0 0 0 0 0 0 0 0 0 0 0 0 0 0 0 0 0 0 0 0 0 0 0 0 0 0 0 0 0 0 0 0 0 0 0 0 0 0 0 0 0 0 0 0 0 0 0 0 0 0 0 0 0 133 131 133 129 131 130 129 129 127 128 126 124 127 126 126 133 132 134 133 133 134 135 133 135 130 132 130 131 130 129 128 129 126 129 127 128 127 131 130 132 133 134 -193 -193 139 -193 -193 -209 -209 135 132 128 124 128 131 130 134 130 129 131 130 130 130 130 129 126 129 130 127 129 129 128 129 130 132 130 129 129 130 131 130 130 129 128 130 130 132 131 129 132 128 129 130 128 128 127 127 127 125 128 128 125 128 127 127 129 129 128 128 126 127 125 127 125 124 126 124 128 126 126 129 130 130 129 128 128 126 130 129 127 127 125 126 128 127 131 128 129 127 127 127 127 126 127 124 126 124 125 127 127 128 128 127 126 127 126 126 126 126 126 124 125 126 126 126 127 125 127 128 129 129 130 130 131 131 133 133 128 129 129 128 128 128 128 128 127 135 136 136 136 136 136 136 137 138 138 138 139 -193 139 140 140 139 135 135 135 136 140 140 142 142 140 140 141 141 141 140 139 139 138 139 141 140 140 139 140 142 142 143 142 140 142 142 142 142 140 140 138 138 139 138 140 141 141 143 145 0 0 0 0 0
    0 0 0 0 0 0 0 0 0 0 0 0 0 0 0 0 0 0 0 0 0 0 0 0 0 0 0 0 0 0 0 0 0 0 0 0 0 0 0 0 0 0 0 0 0 0 0 0 0 0 0 0 0 0 0 0 0 0 0 0 0 0 0 0 0 0 0 0 0 132 131 132 129 130 130 129 128 127 128 126 124 128 127 -193 -193 -193 -193 133 133 134 134 134 135 131 132 130 131 130 130 129 129 126 129 127 127 128 130 130 132 132 134 135 -193 139 -193 -193 -209 -209 135 132 129 124 127 132 131 134 130 130 131 130 130 130 130 129 126 129 131 127 129 130 129 129 131 132 129 129 129 129 130 129 130 129 127 130 130 133 132 129 132 128 130 130 128 128 127 126 126 125 127 128 125 128 126 127 128 129 128 128 125 127 125 126 125 123 125 124 128 126 125 129 130 130 129 128 128 126 130 130 127 126 124 125 127 127 131 127 129 127 127 127 127 127 127 124 125 124 125 126 126 127 128 127 127 128 126 127 127 126 127 125 126 126 126 126 126 124 126 126 127 128 128 130 130 130 133 134 128 129 129 127 127 128 129 130 129 136 138 137 138 137 137 137 138 138 139 138 139 137 139 139 140 139 139 138 139 139 143 145 146 146 141 141 142 141 141 140 139 139 138 139 142 141 141 140 140 142 142 144 144 140 142 143 143 142 140 140 138 137 138 138 140 140 141 142 145 0 0 0 0 0
    0 0 0 0 0 0 0 0 0 0 0 0 0 0 0 0 0 0 0 0 0 0 0 0 0 0 0 0 0 0 0 0 0 0 0 0 0 0 0 0 0 0 0 0 0 0 0 0 0 0 0 0 0 0 0 0 0 0 0 0 0 0 0 0 0 0 0 0 0 132 131 132 128 129 129 128 128 127 128 126 124 130 129 -209 -209 -193 -193 -193 133 134 134 133 135 131 132 131 131 130 130 129 129 126 128 127 127 128 130 129 131 132 133 135 -193 139 -193 -193 138 -193 135 132 129 124 127 132 131 134 131 129 131 130 130 130 129 129 125 128 131 127 130 130 129 130 132 133 129 129 129 129 130 129 130 129 128 131 131 133 133 131 132 129 130 130 128 128 127 126 126 124 127 128 125 127 126 126 128 128 128 128 125 127 125 127 125 124 125 124 129 126 125 130 130 131 129 128 129 127 130 130 127 126 124 126 128 126 131 127 129 127 127 128 127 127 127 124 125 124 125 126 126 128 129 128 128 129 127 128 127 127 127 125 125 126 125 125 124 123 124 125 126 126 127 129 129 130 132 134 128 128 128 127 127 129 129 131 130 136 137 137 138 137 137 137 137 137 138 138 139 138 139 140 141 140 141 140 142 142 145 147 149 147 143 143 143 142 142 140 139 138 137 138 -193 -193 -193 -193 139 141 141 143 142 139 141 142 143 141 140 140 138 137 138 137 140 140 140 141 143 0 0 0 0 0
    0 0 0 0 0 0 0 0 0 0 0 0 0 0 0 0 0 0 0 0 0 0 0 0 0 0 0 0 0 0 0 0 0 0 0 0 0 0 0 0 0 0 0 0 0 0 0 0 0 0 0 0 0 0 0 0 0 0 0 0 0 0 0 0 0 0 0 0 0 132 131 132 128 128 128 127 127 127 127 126 124 131 -193 -209 -177 -193 -193 -193 -193 133 133 -193 134 131 131 131 131 130 130 130 130 126 129 128 127 130 131 130 132 132 133 135 135 138 137 137 138 136 136 133 131 125 128 133 133 134 131 129 131 129 129 129 128 128 125 128 131 128 131 132 131 132 134 134 130 129 129 129 130 129 130 128 128 132 132 134 133 132 133 129 129 129 128 127 127 126 125 123 125 127 125 127 126 126 128 128 128 128 125 127 125 128 127 126 127 125 130 126 126 130 130 131 129 129 129 127 131 130 127 126 124 126 128 126 131 127 129 128 128 128 127 127 127 124 125 124 125 126 126 128 129 129 128 130 127 128 127 127 127 124 125 125 124 124 123 121 122 123 124 125 126 128 128 130 131 135 128 128 129 127 129 130 130 132 131 136 136 136 137 136 136 136 136 136 137 137 138 137 141 143 144 142 143 142 145 146 146 146 149 148 145 144 144 142 142 141 140 139 137 -209 -193 -193 -193 -193 140 140 140 143 142 139 140 142 143 141 141 142 139 139 139 138 141 140 141 142 142 0 0 0 0 0
    0 0 0 0 0 0 0 0 0 0 0 0 0 0 0 0 0 0 0 0 0 0 0 0 0 0 0 0 0 0 0 0 0 0 0 0 0 0 0 0 0 0 0 0 0 0 0 0 0 0 0 0 0 0 0 0 0 0 0 0 0 0 0 0 0 0 0 0 0 132 132 132 128 128 128 127 127 127 127 125 124 130 -193 -177 -177 -193 -193 -193 -193 131 -193 -193 134 131 131 131 131 130 130 130 130 126 130 130 128 131 132 132 133 133 134 136 135 138 138 138 139 137 137 -193 132 128 130 134 133 134 130 129 130 129 129 129 128 128 125 128 132 129 133 134 134 135 136 135 130 130 129 129 129 129 130 128 128 133 132 134 134 132 133 129 128 127 127 126 126 125 124 122 124 127 125 127 126 127 128 128 128 129 126 128 127 131 130 130 129 127 130 126 125 130 130 130 128 129 129 128 131 130 127 126 124 127 128 126 131 128 129 128 129 129 128 128 128 124 125 125 124 126 126 128 129 128 128 130 127 128 127 126 126 124 124 125 123 123 121 120 121 122 123 124 124 125 127 129 130 134 127 128 129 128 129 131 131 132 131 134 134 135 136 135 135 135 135 134 136 136 136 135 141 142 142 141 143 143 147 147 147 145 149 147 146 145 144 143 142 141 141 139 138 -193 -193 -193 -193 144 142 141 141 145 144 141 143 143 144 142 143 146 140 142 140 139 141 140 141 141 141 0 0 0 0 0
    0 0 0 0 0 0 0 0 0 0 0 0 0 0 0 0 0 0 0 0 0 0 0 0 0 0 0 0 0 0 0 0 0 0 0 0 0 0 0 0 0 0 0 0 0 0 0 0 0 0 0 0 0 0 0 0 0 0 0 0 0 0 0 0 0 0 0 0 0 132 132 131 128 128 128 127 127 127 127 125 124 129 -193 -177 -177 -177 -193 -193 -209 -193 -193 -193 134 131 131 131 130 130 130 130 130 126 130 131 129 133 133 132 133 133 134 135 135 138 137 137 138 137 137 135 132 128 131 135 134 134 130 128 130 129 129 128 127 127 125 128 133 130 134 135 135 136 137 134 129 129 128 128 128 128 129 127 129 134 133 135 135 134 133 129 128 127 126 126 126 124 124 122 123 127 125 128 126 128 129 130 130 129 126 128 128 131 129 129 127 125 128 126 125 131 129 130 128 129 129 128 130 130 126 126 124 127 127 126 131 128 129 129 130 131 129 129 129 125 126 125 124 125 126 128 128 128 128 130 126 127 127 126 125 123 124 124 122 122 121 119 120 121 123 123 123 124 126 128 128 134 127 128 129 128 130 131 131 132 132 134 134 135 136 135 135 135 134 133 135 134 134 134 139 140 141 141 142 143 146 147 147 145 149 147 146 145 145 144 143 143 144 140 140 143 148 150 152 151 152 149 148 150 149 147 149 147 147 144 145 148 141 144 140 139 141 141 141 141 141 0 0 0 0 0
    0 0 0 0 0 0 0 0 0 0 0 0 0 0 0 0 0 0 0 0 0 0 0 0 0 0 0 0 0 0 0 0 0 0 0 0 0 0 0 0 0 0 0 0 0 0 0 0 0 0 0 0 0 0 0 0 0 0 0 0 0 0 0 0 0 0 0 0 0 132 132 132 128 127 128 127 127 126 127 125 124 128 -209 -193 -193 -209 -209 -209 -209 -193 -193 132 134 130 130 130 130 130 130 130 130 126 130 132 130 133 133 132 132 133 133 134 134 136 135 135 137 137 136 131 131 126 130 135 135 134 130 128 130 129 128 128 127 127 125 128 133 130 135 135 136 136 138 133 128 127 127 127 126 127 128 127 -193 135 135 136 135 135 -193 130 129 127 127 126 126 -193 -193 -193 -193 127 126 127 126 127 129 130 129 128 125 127 127 131 128 125 124 121 128 124 125 131 129 130 128 129 130 128 130 129 126 126 124 126 127 126 130 128 129 130 130 132 130 130 130 126 127 126 125 125 126 128 129 128 129 131 127 128 128 127 127 124 125 125 123 123 122 121 121 122 123 123 124 126 128 128 126 134 129 129 130 130 131 132 131 133 132 134 134 135 136 135 134 135 134 133 134 134 133 134 139 140 141 142 144 145 148 148 148 146 150 149 148 147 147 146 146 146 147 142 146 148 151 152 154 153 154 152 152 152 152 151 152 149 149 146 146 149 146 148 143 141 143 142 142 142 142 0 0 0 0 0
    0 0 0 0 0 0 0 0 0 0 0 0 0 0 0 0 0 0 0 0 0 0 0 0 0 0 0 0 0 0 0 0 0 0 0 0 0 0 0 0 0 0 0 0 0 0 0 0 0 0 0 0 0 0 0 0 0 0 0 0 0 0 0 0 0 0 0 0 0 132 132 132 129 127 128 127 127 127 127 125 124 130 -193 52 -193 -209 -209 -209 -193 129 132 132 134 131 131 131 130 131 131 130 130 126 130 133 129 134 134 133 132 133 133 133 134 135 134 134 135 135 135 128 131 126 131 135 136 135 131 129 130 129 129 128 127 127 125 128 134 133 -193 -193 -193 136 137 132 126 125 125 126 125 126 127 -193 -193 -193 -193 -209 -209 -209 -177 -209 -193 -193 -177 -177 -177 -177 -177 -177 -193 -209 -209 -209 -193 -193 -193 -193 130 -193 -193 -209 -209 -193 132 -209 -209 -209 -209 124 125 132 130 130 130 130 130 128 130 128 124 125 124 126 128 127 131 130 131 132 132 133 132 132 132 130 131 131 130 130 130 132 132 131 132 133 128 130 130 130 129 126 127 127 124 127 125 128 123 124 -193 126 129 -209 -193 134 129 135 130 132 132 132 133 133 133 134 134 135 135 136 137 136 135 136 135 134 134 134 134 136 143 145 145 147 148 148 150 150 149 146 151 150 149 149 149 148 149 148 150 143 147 149 151 151 154 153 154 153 153 153 152 152 153 150 151 148 147 149 149 149 145 142 144 143 143 143 144 0 0 0 0 0
    0 0 0 0 0 0 0 0 0 0 0 0 0 0 0 0 0 0 0 0 0 0 0 0 0 0 0 0 0 0 0 0 0 0 0 0 0 0 0 0 0 0 0 0 0 0 0 0 0 0 0 0 0 0 0 0 0 0 0 0 0 0 0 0 0 0 0 0 0 132 132 132 130 127 128 127 127 127 127 126 126 133 -209 51 -193 -209 -209 -209 -209 -193 -209 -209 -193 132 -193 -193 133 132 133 132 132 127 132 135 130 136 134 134 133 134 134 134 134 134 133 131 134 132 133 128 133 130 -193 143 151 142 -193 132 132 130 131 130 128 129 126 130 136 -193 145 -209 -209 147 150 -209 126 123 124 126 124 125 -193 -193 -193 -209 -209 -209 -209 -209 -193 -209 -193 -193 -193 644 642 -177 -177 -177 648 -193 -209 -209 -209 -209 -209 -209 -193 -193 -193 -193 -209 -209 -209 -209 -193 -209 -209 -193 129 134 132 132 131 131 131 129 130 128 124 127 127 130 131 131 134 134 134 -193 -209 135 134 135 -193 -193 135 136 138 138 138 137 138 136 137 138 -193 -193 -193 -193 -209 133 135 133 -193 -193 -193 -209 -193 -209 -209 -209 -209 -193 -193 145 -193 137 133 135 135 135 136 136 135 136 137 139 139 140 141 138 138 138 137 136 136 136 137 139 148 149 149 149 149 150 151 150 149 147 151 151 151 151 151 150 151 151 151 146 148 149 151 152 154 153 154 153 153 153 153 153 154 152 153 150 149 151 151 151 148 144 145 144 146 147 147 0 0 0 0 0
    0 0 0 0 0 0 0 0 0 0 0 0 0 0 0 0 0 0 0 0 0 0 0 0 0 0 0 0 0 0 0 0 0 0 0 0 0 0 0 0 0 0 0 0 0 0 0 0 0 0 0 0 0 0 0 0 0 0 0 0 0 0 0 0 0 0 0 0 0 133 134 134 132 128 130 129 128 128 127 128 -193 -209 -209 -209 -209 -209 -209 -209 157 157 -209 -209 -209 -193 -193 -193 135 135 135 135 134 131 134 -193 -209 137 -193 132 133 132 135 135 -193 135 -193 -209 -193 -209 -209 -193 156 -193 151 152 155 152 154 140 -193 134 135 -209 129 130 128 -193 140 -193 152 155 156 155 -193 -193 -209 -209 -209 -209 -209 -193 -209 -209 -193 -209 -209 -209 -209 -209 -209 -209 -209 -209 -209 -209 -209 -193 -209 -209 -209 -209 155 156 -209 -193 -209 -209 126 -193 -193 -225 -193 -193 -209 -209 -209 -209 903 -193 136 138 135 135 135 135 134 133 133 132 129 133 134 136 136 137 138 138 138 -209 -193 139 -209 -209 -209 -209 -193 149 150 147 147 145 147 141 144 143 144 140 143 -193 144 142 144 -193 -193 146 149 148 150 154 155 154 -209 -193 151 152 153 146 137 141 144 141 144 147 140 142 146 147 147 147 148 142 141 142 141 139 137 137 139 142 150 150 150 150 150 150 151 151 150 149 152 152 153 153 154 153 154 154 154 150 151 151 152 153 156 154 155 154 154 154 153 153 154 152 153 150 149 151 152 153 150 147 148 147 150 152 153 0 0 0 0 0
    0 0 0 0 0 0 0 0 0 0 0 0 0 0 0 0 0 0 0 0 0 0 0 0 0 0 0 0 0 0 0 0 0 0 0 0 0 0 0 0 0 0 0 0 0 0 0 0 0 0 0 0 0 0 0 0 0 0 0 0 0 0 0 0 0 0 0 0 0 135 135 135 134 132 133 133 133 -209 -209 -193 -209 -209 -209 -209 -209 -193 159 159 159 158 156 157 -193 -209 -193 -209 140 138 140 140 137 138 138 152 154 152 153 -209 -209 -209 142 143 -193 -193 -209 -193 154 155 155 158 159 156 155 154 157 154 155 154 153 154 153 -193 -209 -193 -209 -209 147 150 154 156 159 157 156 157 156 159 161 -193 -209 -209 -209 -209 -209 -209 -209 -209 -209 -193 -209 -209 -177 -177 -177 -193 -193 -193 -193 -209 153 154 155 156 159 160 159 159 158 165 167 -193 -209 -193 -209 -209 -209 -209 -193 -193 143 150 152 -193 -193 141 139 139 138 -193 -193 140 143 142 144 144 143 145 144 145 144 145 -193 -193 -193 -193 154 153 153 151 150 149 150 146 148 148 150 147 150 150 151 150 150 -209 -209 -209 -193 -193 153 155 154 154 153 153 153 153 154 152 146 151 153 153 152 154 148 149 150 151 149 149 149 144 141 144 143 141 139 137 142 148 152 151 152 151 151 151 152 151 150 150 152 151 153 153 154 154 154 153 154 150 151 152 153 153 156 155 156 155 155 154 154 154 154 152 153 151 150 152 152 153 152 150 151 151 152 154 155 0 0 0 0 0
    0 0 0 0 0 0 0 0 0 0 0 0 0 0 0 0 0 0 0 0 0 0 0 0 0 0 0 0 0 0 0 0 0 0 0 0 0 0 0 0 0 0 0 0 0 0 0 0 0 0 0 0 0 0 0 0 0 0 0 0 0 0 0 0 0 0 0 0 0 135 136 135 -193 -209 -209 -209 -209 -209 -193 -193 -209 -193 156 158 160 -193 158 159 158 158 157 157 157 154 -193 -193 153 150 151 151 149 150 152 155 159 156 158 156 154 -193 -193 152 153 154 154 154 155 156 156 158 159 157 155 155 159 156 156 155 155 155 156 157 155 151 153 150 150 150 153 154 157 157 156 157 157 159 161 163 157 -193 -209 -193 -209 -209 -209 -209 -209 -209 -209 -209 -177 -177 -193 -177 -177 -177 -193 -193 154 155 156 156 159 160 159 159 158 160 162 159 156 -193 -209 -193 -193 150 -193 142 149 152 153 155 154 152 152 152 151 -209 149 151 151 150 151 151 149 150 149 150 148 -193 -193 740 -193 -193 155 154 154 153 152 151 152 149 150 150 153 151 152 153 153 153 153 -193 153 -209 153 -193 154 156 154 155 154 154 154 154 155 154 151 154 156 155 154 155 153 153 154 154 152 151 151 151 148 150 148 147 144 141 148 151 153 153 153 152 152 152 152 152 151 150 151 151 153 153 154 153 153 152 152 149 150 151 152 153 155 154 156 155 155 155 154 154 154 153 153 152 151 152 153 154 153 152 153 152 153 155 155 0 0 0 0 0
    0 0 0 0 0 0 0 0 0 0 0 0 0 0 0 0 0 0 0 0 0 0 0 0 0 0 0 0 0 0 0 0 0 0 0 0 0 0 0 0 0 0 0 0 0 0 0 0 0 0 0 0 0 0 0 0 0 0 0 0 0 0 0 0 0 0 0 0 0 134 -209 -209 -209 -209 -209 -209 155 157 160 158 159 158 157 158 160 159 157 158 158 158 158 158 158 156 156 156 155 155 155 155 155 154 155 156 159 157 161 158 157 157 156 156 158 157 157 156 157 157 157 159 159 157 156 156 162 156 156 156 156 156 156 156 155 153 154 152 151 150 152 152 154 155 154 155 155 157 158 160 156 155 154 155 154 -209 -209 -209 -193 -209 -209 -193 -209 -209 -209 -209 -193 -193 -193 -193 154 154 155 155 157 159 157 158 157 158 159 158 156 -193 -193 -193 -193 151 150 143 150 151 153 155 154 153 152 153 152 -193 152 153 152 152 153 153 -193 153 151 153 151 -193 -193 -193 -193 155 155 155 154 153 152 152 153 151 151 151 153 153 153 154 153 154 153 154 154 -193 154 154 154 157 155 155 155 155 154 155 155 155 153 155 157 156 155 156 156 156 155 155 153 153 152 152 151 151 151 150 149 147 151 155 155 154 154 153 153 153 153 153 151 149 150 149 153 151 152 151 152 151 151 148 149 149 151 151 153 153 155 155 155 155 154 154 154 153 153 153 152 152 153 153 153 153 154 154 154 156 158 0 0 0 0 0
    0 0 0 0 0 0 0 0 0 0 0 0 0 0 0 0 0 0 0 0 0 0 0 0 0 0 0 0 0 0 0 0 0 0 0 0 0 0 0 0 0 0 0 0 0 0 0 0 0 0 0 0 0 0 0 0 0 0 0 0 0 0 0 0 0 0 0 0 0 -209 -209 -209 -209 159 159 159 157 158 160 158 159 158 157 158 158 158 157 158 157 157 158 158 158 157 157 158 156 157 156 156 156 155 156 157 159 157 160 158 157 158 157 157 159 158 159 157 158 158 158 159 159 157 156 157 163 157 157 156 155 155 155 156 155 153 153 152 151 150 151 152 153 154 153 154 155 156 157 159 155 155 153 154 154 -193 -209 -209 -177 -193 -209 -193 -193 -209 -193 -209 -193 -193 -193 -193 154 154 155 154 156 157 156 158 156 158 159 157 156 155 154 -193 152 153 152 149 151 152 153 156 154 153 153 154 -193 153 152 153 153 152 153 153 -193 153 152 153 152 -193 -193 -193 -193 155 155 155 154 154 152 152 152 151 152 151 154 153 153 154 154 154 154 154 154 153 154 154 154 157 155 156 155 155 155 155 156 155 153 155 156 155 155 156 156 157 156 155 154 153 153 153 152 151 151 150 150 151 152 158 156 156 156 154 154 154 154 154 151 150 150 147 153 149 151 149 150 149 149 145 148 149 151 151 153 153 154 155 155 155 154 154 154 153 153 152 152 152 153 154 154 154 155 156 156 159 160 0 0 0 0 0
    0 0 0 0 0 0 0 0 0 0 0 0 0 0 0 0 0 0 0 0 0 0 0 0 0 0 0 0 0 0 0 0 0 0 0 0 0 0 0 0 0 0 0 0 0 0 0 0 0 0 0 0 0 0 0 0 0 0 0 0 0 0 0 0 0 0 0 0 0 -209 -209 -193 -193 160 163 162 157 159 159 158 158 157 157 157 158 157 156 158 157 158 158 158 159 157 158 158 156 158 156 156 157 156 156 156 159 156 159 158 157 157 157 157 159 158 159 156 157 158 158 159 159 157 157 157 163 157 157 156 155 155 155 156 155 152 153 151 151 150 151 152 -193 154 154 154 154 156 157 159 155 155 153 154 155 154 -209 -209 -193 -193 -209 157 157 -209 -209 -209 -193 -193 -193 -193 153 153 154 153 155 156 155 157 156 157 158 157 156 155 155 155 153 154 154 153 152 154 154 157 155 154 153 154 153 154 153 153 153 152 153 153 152 153 -193 153 153 -193 -193 -193 155 155 155 155 154 154 152 153 152 151 152 152 154 153 153 155 154 155 154 154 154 154 154 154 154 157 155 156 155 155 155 155 155 155 153 155 156 155 155 155 156 157 156 155 155 154 153 153 153 152 151 151 150 151 152 158 156 155 155 154 154 154 154 154 150 150 150 145 153 150 151 149 149 147 146 143 147 148 149 150 152 152 153 154 154 154 154 154 154 152 152 151 151 151 153 153 154 154 155 156 158 161 162 0 0 0 0 0
    0 0 0 0 0 0 0 0 0 0 0 0 0 0 0 0 0 0 0 0 0 0 0 0 0 0 0 0 0 0 0 0 0 0 0 0 0 0 0 0 0 0 0 0 0 0 0 0 0 0 0 0 0 0 0 0 0 0 0 0 0 0 0 0 0 0 0 0 0 -193 -193 -193 -193 160 163 161 158 158 158 157 158 156 156 156 157 156 156 158 157 157 158 158 159 157 158 159 157 158 157 156 157 156 156 157 159 156 159 157 157 157 156 157 158 157 158 156 157 158 158 159 159 157 157 157 163 157 157 156 155 155 155 156 155 152 153 151 151 151 151 152 -193 154 154 154 154 156 157 159 156 155 154 155 155 155 154 154 -193 -193 154 157 157 157 160 -193 -193 -193 -193 -193 153 152 153 152 154 155 155 157 156 157 157 156 156 155 155 155 153 154 154 154 153 155 155 157 155 153 153 154 153 154 153 153 153 153 153 153 152 153 -193 153 153 -193 -193 -193 155 156 156 156 155 155 153 153 152 151 152 152 154 153 153 155 154 155 154 154 154 154 154 154 154 157 154 155 155 155 155 155 155 155 153 154 155 154 154 154 156 156 155 155 155 154 154 153 153 153 152 152 151 152 153 159 155 155 155 153 153 154 154 153 147 149 149 141 152 147 149 149 150 150 149 147 149 151 152 152 153 153 154 154 154 154 153 153 153 152 152 151 151 151 152 153 153 154 156 157 159 162 163 0 0 0 0 0
    0 0 0 0 0 0 0 0 0 0 0 0 0 0 0 0 0 0 0 0 0 0 0 0 0 0 0 0 0 0 0 0 0 0 0 0 0 0 0 0 0 0 0 0 0 0 0 0 0 0 0 0 0 0 0 0 0 0 0 0 0 0 0 0 0 0 0 0 0 167 -193 162 159 159 161 160 157 158 158 156 157 156 155 155 156 156 155 157 157 157 158 158 159 157 159 159 157 158 157 156 157 155 156 156 159 157 159 157 157 -193 156 157 158 156 157 156 157 157 158 158 158 157 156 156 162 157 156 156 155 155 155 156 155 152 153 152 151 151 151 152 -193 154 153 154 154 155 157 158 156 155 154 155 155 155 155 154 153 155 154 156 156 156 159 154 153 153 153 -193 153 152 153 152 154 155 154 156 155 156 156 155 155 155 154 154 153 154 154 154 153 155 154 156 154 153 153 154 153 154 153 154 154 153 154 154 153 154 153 154 154 -193 155 156 156 157 156 156 155 155 153 153 152 151 152 152 154 -193 153 155 -193 -193 154 154 154 154 154 154 154 157 154 155 155 155 155 154 154 155 153 153 154 154 154 154 155 157 155 155 155 154 154 153 153 153 152 152 152 153 154 159 155 154 154 153 153 153 153 153 145 149 149 140 148 143 149 151 153 153 152 152 153 155 156 155 155 154 155 155 155 154 154 153 153 153 151 150 151 152 152 153 154 155 157 158 161 163 164 0 0 0 0 0
    0 0 0 0 0 0 0 0 0 0 0 0 0 0 0 0 0 0 0 0 0 0 0 0 0 0 0 0 0 0 0 0 0 0 0 0 0 0 0 0 0 0 0 0 0 0 0 0 0 0 0 0 0 0 0 0 0 0 0 0 0 0 0 0 0 0 0 0 0 165 -193 162 159 158 158 157 157 157 156 155 156 155 155 155 156 155 155 156 156 156 157 157 158 157 159 159 157 158 157 156 157 155 155 155 158 156 158 157 157 157 157 157 158 156 157 156 157 157 157 157 157 156 156 156 162 156 156 155 155 155 154 155 154 152 153 152 151 151 151 152 -193 154 -193 154 154 155 156 158 156 155 154 155 155 154 155 154 152 154 154 155 155 155 159 153 153 153 153 -193 152 152 153 152 154 155 154 156 155 155 156 155 155 154 154 154 153 154 154 154 154 155 154 156 154 153 153 154 153 154 153 154 154 154 154 155 153 155 154 155 154 154 155 156 156 156 155 156 155 155 153 153 153 152 153 153 155 153 154 155 -193 -193 155 154 155 154 155 155 154 158 154 155 155 155 154 154 154 154 152 153 154 153 153 153 155 157 155 155 155 154 154 153 153 153 152 152 152 152 153 158 154 154 154 153 153 153 153 153 146 151 151 145 153 150 153 160 164 159 156 157 161 164 164 161 156 156 157 156 156 155 154 153 153 153 151 150 151 151 152 153 153 155 157 159 162 164 165 0 0 0 0 0
    0 0 0 0 0 0 0 0 0 0 0 0 0 0 0 0 0 0 0 0 0 0 0 0 0 0 0 0 0 0 0 0 0 0 0 0 0 0 0 0 0 0 0 0 0 0 0 0 0 0 0 0 0 0 0 0 0 0 0 0 0 0 0 0 0 0 0 0 0 165 163 162 160 158 158 156 156 156 155 155 155 154 154 155 156 155 154 156 156 156 157 157 158 157 159 159 157 159 158 157 158 155 156 155 159 157 158 158 157 158 157 158 159 156 157 156 156 157 157 158 157 156 156 157 161 156 156 155 154 155 154 155 154 152 154 153 152 152 152 152 -193 -193 -193 -193 154 154 156 157 155 155 154 155 155 155 155 154 153 154 154 155 155 155 157 152 152 153 152 -193 152 152 153 153 155 156 155 157 156 156 156 155 155 154 154 154 153 154 155 154 155 156 155 157 155 153 153 154 153 154 154 154 155 154 155 155 154 155 154 155 155 154 155 156 155 156 155 155 155 155 153 153 153 152 154 154 155 154 154 156 -193 -193 155 155 155 154 155 155 155 159 154 155 155 155 154 154 154 154 152 153 153 153 153 153 155 156 155 155 155 153 153 152 152 152 151 152 151 152 153 158 154 154 154 153 153 153 153 153 145 153 153 153 155 156 160 167 168 165 164 163 166 167 167 164 157 157 158 157 156 155 155 154 154 154 151 150 152 152 152 152 154 155 157 159 162 164 166 0 0 0 0 0
    0 0 0 0 0 0 0 0 0 0 0 0 0 0 0 0 0 0 0 0 0 0 0 0 0 0 0 0 0 0 0 0 0 0 0 0 0 0 0 0 0 0 0 0 0 0 0 0 0 0 0 0 0 0 0 0 0 0 0 0 0 0 0 0 0 0 0 0 0 164 162 162 160 158 158 157 155 156 155 155 155 154 154 155 155 155 154 156 155 156 157 157 158 157 159 160 158 159 158 157 158 155 158 156 160 157 159 159 158 158 158 158 159 157 158 156 157 157 158 158 157 157 157 157 161 156 156 155 154 154 154 154 154 152 154 155 154 153 153 153 -193 -193 -193 -193 -193 154 155 157 155 155 154 155 155 155 155 155 153 154 154 155 155 155 157 152 152 153 152 -193 152 152 153 153 155 156 155 157 156 156 156 155 155 154 153 153 152 154 155 154 155 155 155 156 155 153 153 154 153 154 154 154 155 154 155 156 154 156 155 155 155 154 155 156 155 155 154 154 154 154 153 153 152 152 155 154 156 154 154 156 155 156 156 155 155 154 155 155 155 159 155 155 155 154 154 153 153 153 151 152 153 152 152 152 154 155 154 154 154 152 152 152 152 151 151 151 151 152 152 158 154 153 154 153 153 153 153 153 144 154 157 158 158 159 164 167 168 167 166 166 168 169 169 164 157 157 157 157 156 155 154 153 155 155 151 150 152 152 153 153 155 156 159 160 164 165 167 0 0 0 0 0
    0 0 0 0 0 0 0 0 0 0 0 0 0 0 0 0 0 0 0 0 0 0 0 0 0 0 0 0 0 0 0 0 0 0 0 0 0 0 0 0 0 0 0 0 0 0 0 0 0 0 0 0 0 0 0 0 0 0 0 0 0 0 0 0 0 0 0 0 0 164 161 162 161 158 158 157 156 156 155 155 155 154 154 155 155 154 154 156 155 156 157 157 158 157 159 160 158 160 158 157 158 155 157 156 159 157 158 159 158 158 158 158 159 157 158 157 157 158 159 159 157 157 157 158 161 156 156 155 154 154 154 154 154 153 154 155 155 154 154 154 155 -193 -193 -177 -193 154 155 156 155 155 154 155 155 155 156 155 153 154 154 154 155 155 157 152 152 153 153 152 152 152 153 153 155 155 154 156 155 155 154 154 154 153 153 154 153 154 156 155 155 155 155 156 155 154 154 154 154 154 154 154 156 155 155 155 154 155 155 155 155 154 155 155 155 155 154 154 154 154 153 153 152 152 155 154 156 154 155 156 155 156 156 155 155 154 155 155 154 158 154 154 154 154 154 153 153 153 151 152 152 152 150 151 153 154 153 153 153 152 152 152 152 152 151 152 151 151 152 158 153 153 153 153 153 153 153 154 146 156 162 163 160 161 165 167 168 168 168 168 169 169 169 166 160 160 159 158 157 156 155 154 155 154 151 150 152 152 153 154 156 157 161 163 166 167 168 0 0 0 0 0
    0 0 0 0 0 0 0 0 0 0 0 0 0 0 0 0 0 0 0 0 0 0 0 0 0 0 0 0 0 0 0 0 0 0 0 0 0 0 0 0 0 0 0 0 0 0 0 0 0 0 0 0 0 0 0 0 0 0 0 0 0 0 0 0 0 0 0 0 0 162 159 159 159 157 156 155 155 155 153 154 154 153 153 154 155 154 154 156 156 156 157 157 158 157 159 159 157 159 157 156 157 155 157 156 158 156 157 158 157 158 157 157 158 155 156 156 156 158 159 159 157 156 157 157 160 156 155 155 154 154 154 155 154 153 155 155 155 154 154 154 155 156 -193 -193 -193 154 156 156 156 155 154 156 156 156 156 155 153 154 153 154 155 155 156 152 152 -193 153 153 152 152 153 153 155 155 153 155 154 154 154 154 154 154 154 154 154 155 156 155 156 155 156 156 155 154 154 154 154 154 153 153 156 155 155 155 154 155 155 155 155 153 154 155 154 155 154 154 154 154 153 153 152 152 155 155 156 154 155 156 155 156 156 154 155 154 155 155 154 158 154 154 154 154 153 153 153 153 150 151 152 152 149 150 153 154 152 153 153 152 152 152 152 152 152 152 152 151 152 158 153 153 153 153 153 153 153 153 149 157 164 165 163 164 166 167 168 169 168 169 169 170 170 167 164 162 162 162 159 157 156 154 157 152 150 149 151 153 153 155 158 161 165 165 167 168 169 0 0 0 0 0
    0 0 0 0 0 0 0 0 0 0 0 0 0 0 0 0 0 0 0 0 0 0 0 0 0 0 0 0 0 0 0 0 0 0 0 0 0 0 0 0 0 0 0 0 0 0 0 0 0 0 0 0 0 0 0 0 0 0 0 0 0 0 0 0 0 0 0 0 0 160 157 157 157 155 155 154 153 153 152 153 154 153 153 155 156 155 155 156 156 156 158 157 158 157 159 159 157 159 157 156 156 154 156 157 158 157 157 158 157 157 157 156 156 154 154 154 154 156 158 158 157 156 157 157 160 156 156 155 154 155 155 155 155 153 155 156 155 155 154 155 156 157 154 154 154 154 156 157 156 155 155 156 157 157 157 155 153 154 153 153 154 155 155 152 152 -193 153 153 153 153 153 153 155 156 153 155 154 154 154 154 154 154 154 154 154 155 156 155 156 155 155 155 154 154 153 153 154 154 153 153 157 155 155 155 154 155 155 155 155 153 154 154 154 154 153 153 154 153 153 153 153 153 155 155 156 154 155 156 155 156 155 154 155 154 155 155 154 158 154 154 154 154 153 153 153 153 150 151 152 152 148 148 152 152 152 153 153 152 152 152 153 152 152 152 152 152 152 158 152 152 152 152 152 152 152 153 150 157 163 164 164 165 166 167 168 169 169 170 170 171 170 169 166 165 164 166 161 158 157 154 157 -193 150 148 152 154 154 156 164 167 168 168 169 170 171 0 0 0 0 0
    0 0 0 0 0 0 0 0 0 0 0 0 0 0 0 0 0 0 0 0 0 0 0 0 0 0 0 0 0 0 0 0 0 0 0 0 0 0 0 0 0 0 0 0 0 0 0 0 0 0 0 0 0 0 0 0 0 0 0 0 0 0 0 0 0 0 0 0 0 159 157 157 156 155 154 153 153 153 153 153 154 153 154 156 156 155 155 156 156 156 158 157 158 157 158 159 157 158 157 156 156 154 156 157 158 157 157 158 157 157 157 156 156 154 154 154 154 156 158 158 156 156 157 157 159 156 156 155 155 155 155 155 155 154 156 157 156 155 155 155 156 157 154 154 154 154 156 157 156 155 154 156 157 156 156 155 153 154 153 153 154 155 155 152 152 154 154 154 153 153 153 154 156 156 154 155 154 155 154 154 154 154 154 154 154 155 156 155 155 154 154 154 154 153 153 153 153 153 153 153 157 155 155 155 155 155 155 155 155 152 154 154 153 153 152 152 153 153 153 153 153 153 156 155 156 154 155 156 155 156 155 154 155 154 155 154 154 157 154 154 154 154 154 153 153 153 150 151 152 152 148 148 152 153 151 153 152 152 152 152 153 152 151 152 152 152 152 158 152 152 152 152 152 152 152 153 151 158 163 164 163 165 166 167 168 170 169 170 171 171 171 170 168 166 165 167 164 162 162 157 162 -193 -209 -193 154 161 155 162 169 170 172 171 171 171 172 0 0 0 0 0
    0 0 0 0 0 0 0 0 0 0 0 0 0 0 0 0 0 0 0 0 0 0 0 0 0 0 0 0 0 0 0 0 0 0 0 0 0 0 0 0 0 0 0 0 0 0 0 0 0 0 0 0 0 0 0 0 0 0 0 0 0 0 0 0 0 0 0 0 0 158 156 156 155 154 153 152 152 152 153 153 154 153 154 157 157 156 155 156 156 156 158 157 157 156 157 158 157 158 157 156 156 154 155 156 157 156 156 157 157 157 157 156 156 155 155 155 154 156 157 158 156 157 156 157 158 156 156 155 155 155 155 155 155 154 156 157 156 155 155 155 157 157 155 155 154 154 156 157 156 155 154 156 156 156 156 155 152 154 153 153 154 154 154 152 152 154 153 153 153 153 153 154 156 157 154 155 154 155 155 155 155 154 154 154 154 155 155 154 155 154 154 154 154 153 153 153 154 153 152 152 157 155 155 155 155 155 155 155 155 152 153 153 152 152 151 152 153 152 153 153 153 153 156 155 156 154 156 156 155 156 155 154 155 154 155 154 154 157 154 154 154 154 154 153 153 153 151 153 153 154 150 150 153 154 151 152 152 151 151 152 152 152 151 152 152 151 152 159 152 151 151 152 152 152 153 154 152 158 163 165 164 165 166 167 168 170 170 171 172 172 172 171 169 168 166 168 166 165 168 164 169 174 179 -193 -193 167 165 166 172 172 174 172 172 171 172 0 0 0 0 0
    0 0 0 0 0 0 0 0 0 0 0 0 0 0 0 0 0 0 0 0 0 0 0 0 0 0 0 0 0 0 0 0 0 0 0 0 0 0 0 0 0 0 0 0 0 0 0 0 0 0 0 0 0 0 0 0 0 0 0 0 0 0 0 0 0 0 0 0 0 158 156 156 154 154 152 152 152 152 153 153 155 154 155 157 157 156 156 156 156 156 158 156 157 156 157 157 157 157 156 155 156 153 155 156 156 155 156 157 157 157 157 156 156 155 156 155 155 157 158 159 157 158 157 157 158 156 156 155 154 155 155 155 155 154 156 156 156 156 155 156 157 157 155 155 154 155 157 157 156 155 154 155 157 156 155 154 153 154 153 154 154 154 154 152 152 154 153 153 153 153 153 154 155 156 154 155 155 157 157 157 157 155 155 155 155 156 156 154 155 154 155 -193 154 153 154 153 154 153 152 152 156 155 155 155 154 154 155 155 155 151 152 152 150 151 150 151 152 152 152 152 152 153 155 155 156 154 156 156 155 156 155 154 155 154 155 154 154 157 154 155 154 154 154 154 154 154 152 153 154 155 153 153 154 155 151 151 151 150 150 151 152 151 150 151 152 151 152 158 152 150 151 152 152 152 153 154 152 158 163 165 164 165 166 167 168 170 170 171 171 171 171 170 169 167 164 168 167 166 170 169 174 180 182 181 -209 170 175 -209 -193 177 178 174 173 172 173 0 0 0 0 0
    0 0 0 0 0 0 0 0 0 0 0 0 0 0 0 0 0 0 0 0 0 0 0 0 0 0 0 0 0 0 0 0 0 0 0 0 0 0 0 0 0 0 0 0 0 0 0 0 0 0 0 0 0 0 0 0 0 0 0 0 0 0 0 0 0 0 0 0 0 158 155 155 154 153 153 152 152 152 154 154 156 155 156 158 158 157 156 156 156 155 157 156 156 155 156 157 156 157 156 155 155 153 155 156 156 155 156 157 157 157 157 156 -193 155 -193 -193 -193 157 161 161 158 159 157 157 158 156 156 155 154 155 155 155 155 154 156 156 157 156 156 156 158 158 156 156 155 156 157 157 156 155 154 155 157 155 155 154 153 155 154 155 155 155 154 152 152 154 153 153 152 153 153 153 155 156 153 154 155 158 158 159 158 155 155 156 156 157 156 155 155 154 155 -193 -193 153 154 153 154 152 151 151 156 154 154 154 154 154 154 155 155 151 152 151 150 150 150 150 152 151 152 152 152 153 155 154 155 154 155 155 155 155 155 153 155 154 155 154 154 157 154 155 155 155 154 154 154 154 153 154 154 156 154 153 153 -193 149 149 149 148 149 150 152 150 150 152 153 151 152 158 151 149 151 152 152 152 152 154 152 157 162 164 164 165 166 167 167 169 169 170 170 170 170 169 167 166 162 168 167 166 170 169 173 178 182 181 -209 169 183 -193 184 180 180 174 173 173 172 0 0 0 0 0
    0 0 0 0 0 0 0 0 0 0 0 0 0 0 0 0 0 0 0 0 0 0 0 0 0 0 0 0 0 0 0 0 0 0 0 0 0 0 0 0 0 0 0 0 0 0 0 0 0 0 0 0 0 0 0 0 0 0 0 0 0 0 0 0 0 0 0 0 0 157 155 155 155 154 153 153 154 154 156 156 157 155 157 159 159 157 156 156 156 155 157 156 156 155 155 156 156 157 156 155 155 153 154 156 156 155 156 157 157 157 157 156 -209 -209 -193 -209 -209 -209 -209 -193 158 160 158 157 158 155 156 155 154 155 155 155 155 154 156 156 157 156 156 156 158 158 156 156 156 157 158 158 156 155 154 155 157 155 155 153 -193 154 154 155 156 155 155 152 152 154 154 153 152 152 152 153 154 155 152 153 154 157 158 159 158 156 156 156 156 157 156 155 155 153 154 -209 -209 152 -193 153 154 151 149 150 155 154 154 154 154 154 154 155 155 151 152 151 150 150 150 150 151 151 152 152 152 153 155 154 155 154 155 155 155 155 154 153 154 154 155 154 154 156 154 156 155 155 155 155 154 155 153 155 155 157 154 153 153 -193 148 147 148 146 148 150 152 150 150 152 153 152 152 159 152 149 150 152 151 151 152 153 151 156 159 162 162 163 165 166 166 168 168 169 169 169 168 167 165 165 161 167 165 166 171 170 173 176 181 183 -193 -193 187 187 185 182 181 175 174 173 172 0 0 0 0 0
    0 0 0 0 0 0 0 0 0 0 0 0 0 0 0 0 0 0 0 0 0 0 0 0 0 0 0 0 0 0 0 0 0 0 0 0 0 0 0 0 0 0 0 0 0 0 0 0 0 0 0 0 0 0 0 0 0 0 0 0 0 0 0 0 0 0 0 0 0 157 155 154 155 154 153 152 154 154 156 156 158 155 157 159 159 157 156 156 156 155 157 156 156 155 155 156 156 157 156 154 154 153 153 156 156 155 155 156 157 157 156 156 -209 -209 -209 -209 -209 -209 -209 162 157 161 157 157 158 155 156 155 154 155 155 155 155 154 156 156 156 156 155 155 158 158 156 156 156 157 158 158 157 155 154 155 156 154 154 152 152 153 154 154 155 155 155 152 152 154 154 153 152 152 152 152 153 154 150 151 153 157 159 160 159 157 157 158 157 158 157 155 155 153 154 -209 -209 150 -209 -209 -209 -193 148 150 155 153 154 153 154 153 154 155 155 152 153 152 151 150 151 151 152 152 152 152 152 153 155 154 155 153 155 154 154 155 154 153 154 154 154 154 154 156 154 156 156 156 156 156 155 156 154 156 155 158 155 154 154 155 151 150 149 -193 148 150 -193 151 149 -193 -193 -193 152 161 151 148 149 151 151 151 151 152 150 155 157 160 160 162 163 166 166 168 168 169 168 168 166 166 163 159 158 165 165 167 172 171 173 174 179 181 182 182 183 -193 184 183 182 177 175 174 173 0 0 0 0 0
    0 0 0 0 0 0 0 0 0 0 0 0 0 0 0 0 0 0 0 0 0 0 0 0 0 0 0 0 0 0 0 0 0 0 0 0 0 0 0 0 0 0 0 0 0 0 0 0 0 0 0 0 0 0 0 0 0 0 0 0 0 0 0 0 0 0 0 0 0 156 154 -193 -193 153 152 151 -193 153 155 155 157 155 158 159 159 158 156 156 156 155 157 155 156 154 155 155 156 156 155 154 154 152 153 155 156 155 155 156 157 156 156 -193 -209 -209 -177 -209 -209 -209 -209 -193 157 162 157 157 158 155 156 155 155 155 155 156 156 155 157 155 156 156 156 156 159 158 157 157 157 158 159 158 157 155 154 155 157 155 155 152 -193 154 155 155 155 154 154 152 152 154 153 152 151 151 151 151 153 153 150 151 154 158 161 161 160 159 158 158 158 159 157 155 155 153 154 -209 -209 -193 -209 -193 -193 -193 147 149 154 153 154 153 154 153 155 155 155 153 153 152 151 150 150 151 151 151 152 152 152 153 154 154 154 153 154 153 153 154 153 152 -193 153 154 153 153 156 154 156 156 156 156 156 156 156 155 157 156 158 157 155 156 159 157 155 155 -209 -193 -209 -209 -209 -209 -209 -209 -209 154 163 151 146 148 151 150 150 150 151 149 154 156 157 157 158 159 165 165 167 167 167 167 167 164 164 159 157 157 162 161 164 169 171 173 -193 176 181 180 180 182 183 183 183 183 179 177 176 173 0 0 0 0 0
    0 0 0 0 0 0 0 0 0 0 0 0 0 0 0 0 0 0 0 0 0 0 0 0 0 0 0 0 0 0 0 0 0 0 0 0 0 0 0 0 0 0 0 0 0 0 0 0 0 0 0 0 0 0 0 0 0 0 0 0 0 0 0 0 0 0 0 0 0 157 155 -193 -193 -193 -193 -193 -209 153 155 156 158 156 158 159 160 158 156 156 155 155 157 155 155 154 154 155 155 156 155 154 154 151 153 154 156 154 155 156 156 156 156 -209 47 43 43 49 -209 -177 -177 -193 158 164 157 157 158 156 156 156 155 155 155 155 155 154 157 155 156 157 157 158 163 160 158 158 158 159 159 158 157 154 155 155 158 155 155 153 156 156 156 156 156 -193 154 -193 152 154 153 152 151 151 151 151 152 153 151 153 155 161 165 164 163 161 160 159 160 -193 -193 155 155 -193 -193 -225 -209 -193 -209 -193 -177 -193 144 149 -193 153 154 154 154 154 155 156 156 153 153 152 151 150 150 150 151 151 152 152 151 153 153 153 153 152 152 -193 152 152 151 150 -193 153 153 153 153 -193 -193 156 156 156 156 156 156 156 155 158 156 159 157 155 155 158 -193 -193 -193 -209 -209 83 84 -209 -209 -209 -209 -209 -209 -209 148 143 147 150 149 148 149 149 147 153 155 155 -193 -193 154 162 163 165 164 165 165 165 162 163 157 154 154 157 155 158 162 166 -193 -177 174 182 184 184 185 186 186 186 185 183 181 180 173 0 0 0 0 0
    0 0 0 0 0 0 0 0 0 0 0 0 0 0 0 0 0 0 0 0 0 0 0 0 0 0 0 0 0 0 0 0 0 0 0 0 0 0 0 0 0 0 0 0 0 0 0 0 0 0 0 0 0 0 0 0 0 0 0 0 0 0 0 0 0 0 0 0 0 158 155 -193 -193 -209 -209 -209 -209 -209 157 157 159 157 159 159 160 159 157 155 155 154 156 154 155 153 154 154 155 155 154 153 153 150 151 152 155 154 154 155 156 156 157 -209 47 44 43 47 -209 -177 -177 -177 158 165 158 157 157 155 156 155 154 155 154 155 155 154 158 155 158 162 161 163 166 161 160 158 159 159 159 158 156 154 154 154 157 153 153 -209 153 154 157 156 158 -193 156 -193 152 153 153 151 151 150 151 150 152 153 151 154 158 165 -193 -193 -225 -225 -225 -225 -225 -225 -225 -225 -225 -225 -225 -225 -225 391 395 -209 -209 -209 -193 -193 -209 152 -193 153 -193 154 155 157 157 154 155 153 151 150 151 150 150 150 151 151 150 152 152 -193 -193 151 -193 -193 151 151 148 148 149 -193 152 152 152 -209 -193 157 157 156 156 157 157 157 157 159 156 159 159 -225 -225 -225 0 0 0 0 0 -193 -193 -177 -177 -177 -209 -177 -209 -209 139 139 143 147 146 146 147 147 -193 -209 -209 -209 -209 141 151 161 160 162 158 159 160 160 159 159 154 152 154 159 156 159 161 162 160 163 173 183 185 185 187 188 188 190 189 188 185 185 181 0 0 0 0 0
    0 0 0 0 0 0 0 0 0 0 0 0 0 0 0 0 0 0 0 0 0 0 0 0 0 0 0 0 0 0 0 0 0 0 0 0 0 0 0 0 0 0 0 0 0 0 0 0 0 0 0 0 0 0 0 0 0 0 0 0 0 0 0 0 0 0 0 0 0 157 -193 -193 -193 -193 -209 -209 -193 -193 -193 159 160 158 161 160 161 160 157 -193 -193 0 -256 -1 14783 151 153 153 154 153 152 151 151 148 150 151 154 153 154 156 -193 -193 -209 44 46 45 43 44 -177 -177 -177 -177 -177 -177 159 158 156 155 155 155 154 154 154 154 155 155 158 -225 -225 165 165 165 168 164 164 162 162 160 160 158 156 154 155 154 158 -193 155 -209 -209 -193 -209 -193 -209 -209 -209 -209 -193 153 152 150 150 149 149 147 149 150 -225 -225 -225 -225 -225 -225 -225 -225 -225 -225 -225 -225 -225 -225 -225 -225 -225 -225 -225 -225 -225 -209 -209 -193 -193 -193 -193 -193 322 -209 -209 154 155 157 157 156 156 154 152 150 151 149 149 148 150 149 148 150 -193 -193 -193 -193 -193 146 147 -193 143 144 144 -193 144 140 146 -193 -193 160 157 156 156 157 157 157 157 159 155 159 -225 -225 -225 -225 -225 -225 -225 -225 -225 -193 -193 -193 -193 -209 -193 -209 -209 -209 -209 -209 141 -209 -209 -209 59 66 72 73 87 -177 -209 135 148 160 158 158 156 155 156 157 156 156 152 150 153 157 155 159 164 165 164 166 174 184 185 185 186 187 188 190 191 190 186 188 187 0 0 0 0 0
    0 0 0 0 0 0 0 0 0 0 0 0 0 0 0 0 0 0 0 0 0 0 0 0 0 0 0 0 0 0 0 0 0 0 0 0 0 0 0 0 0 0 0 0 0 0 0 0 0 0 0 0 0 0 0 0 0 0 0 0 0 0 0 0 0 0 0 0 0 157 -193 722 -193 -193 -193 -177 -177 -193 -193 -193 162 161 162 161 163 162 157 -193 0 -209 -209 -209 -209 148 150 150 151 150 -193 -193 -209 -193 148 -193 156 155 155 159 -193 -209 47 44 46 -177 -225 -225 -225 107 108 111 -209 -177 -177 -209 -209 -193 154 153 153 153 154 154 154 -225 -225 -225 -225 -225 -225 -225 -225 -225 168 166 164 163 162 -193 -209 -193 -209 -209 -209 -209 -209 117 120 -209 -193 935 -193 919 921 918 -193 -193 -209 -193 -225 -225 -225 -225 -225 -225 -225 -225 -225 -225 -225 -225 -225 -225 -225 -225 -225 -225 -225 -225 -225 -225 -225 -225 -225 -225 -225 -225 -225 -225 -225 -225 -225 -225 -209 -209 -209 -193 156 158 159 158 159 156 156 152 -225 -225 -225 -225 -225 -225 -225 -225 -225 -225 -225 -225 -225 -225 -225 -225 -225 -225 -225 -225 -225 -225 -225 -225 -225 -225 -225 -193 -193 158 157 -225 -225 -225 -225 -225 -225 -225 -225 -225 -225 -225 -225 -225 -225 -225 -225 -225 29 37 37 42 46 49 48 52 56 61 66 61 64 68 73 77 88 101 115 -177 -177 -177 156 156 154 154 154 155 155 155 149 149 152 156 154 158 163 165 165 167 175 184 185 185 187 187 187 190 192 192 187 191 192 0 0 0 0 0
    0 0 0 0 0 0 0 0 0 0 0 0 0 0 0 0 0 0 0 0 0 0 0 0 0 0 0 0 0 0 0 0 0 0 0 0 0 0 0 0 0 0 0 0 0 0 0 0 0 0 0 0 0 0 0 0 0 0 0 0 0 0 0 0 0 0 0 0 0 -193 -193 721 726 -193 -209 -193 -209 -209 -193 -209 -193 -193 -193 164 164 -193 -193 -209 -193 -209 -209 -209 -193 -193 -193 -193 -193 -209 -209 -209 -209 -209 -209 -209 161 -209 157 -193 -209 47 47 46 -225 -225 -225 -225 -225 -225 -225 -225 -225 -225 -225 -225 -225 -225 -225 -225 -225 -225 -225 -225 -225 -225 -225 -225 -225 -225 -225 -225 -225 -225 -225 -225 -225 -225 -225 -209 -225 -225 -225 -209 -225 -225 -209 117 119 -209 -209 944 -209 923 924 926 923 -225 -225 -225 -225 -225 -225 -225 -225 -225 -225 -225 -225 -225 -225 -225 -225 -225 -225 -225 -225 -225 -225 -225 -225 -225 -225 -225 -225 -225 -225 -225 -225 -225 -225 -225 -225 -225 -225 -225 164 158 159 160 160 160 160 158 159 154 -225 -225 -225 -225 -225 -225 -225 -225 -225 -225 -225 -225 -225 -225 -225 -225 -225 -225 -225 -225 -225 -225 -225 -225 -225 -225 -225 -225 -225 -225 -225 -225 -225 -225 -225 -225 -225 -225 -225 -225 -225 -225 -225 -225 -225 -225 -225 -225 128 -209 44 55 -209 -209 -209 57 64 70 72 73 72 72 74 80 88 100 109 -177 -177 -209 153 151 148 150 152 153 154 153 150 149 152 157 155 158 164 165 166 167 175 184 185 186 187 187 188 190 192 192 188 192 194 0 0 0 0 0
    0 0 0 0 0 0 0 0 0 0 0 0 0 0 0 0 0 0 0 0 0 0 0 0 0 0 0 0 0 0 0 0 0 0 0 0 0 0 0 0 0 0 0 0 0 0 0 0 0 0 0 0 0 0 0 0 0 0 0 0 0 0 0 0 0 0 0 0 0 155 -193 -193 727 -209 323 328 -193 -209 -209 329 -193 -209 -193 -209 -193 -225 -225 35 -209 -209 -209 -209 -209 -209 -209 -209 -193 -209 -209 -209 -209 -209 -209 -209 -209 -209 -193 -209 44 -225 -225 -225 -225 -225 -225 -225 -225 -225 -225 -225 -225 -225 -225 -225 -225 -225 -225 -225 -225 -225 -225 -225 -225 -225 -225 -225 -225 -225 -225 -225 -225 -225 -225 -225 -225 -225 -225 -225 -225 -225 -225 -225 -225 -225 -225 -225 -225 -225 -225 -225 -225 -225 -225 -225 -225 -225 -225 -225 -225 -225 -225 -225 -225 -225 -225 -225 -225 -225 -225 -225 -225 -225 -225 -225 -225 -225 -225 -225 -225 -225 -225 -225 -225 -225 -225 -225 -225 -225 -225 -225 -225 -225 -225 -225 166 160 161 163 164 164 164 161 163 -193 -225 -225 -225 -225 -225 -225 -225 -225 -225 -225 -225 -225 -225 -225 -225 -225 -225 -225 -225 -225 -225 -225 -225 -225 -225 -225 -225 -225 -225 -225 -225 -225 -225 -225 -225 -225 -225 -225 -225 -225 60 69 -193 -193 -209 -209 -193 134 135 -193 -209 171 180 182 -209 -193 77 83 79 81 -209 -193 78 82 88 94 100 -193 -209 -209 -209 142 141 146 150 150 153 153 150 149 151 158 153 159 167 169 169 169 180 186 186 187 188 188 188 189 191 191 189 193 195 0 0 0 0 0
    0 0 0 0 0 0 0 0 0 0 0 0 0 0 0 0 0 0 0 0 0 0 0 0 0 0 0 0 0 0 0 0 0 0 0 0 0 0 0 0 0 0 0 0 0 0 0 0 0 0 0 0 0 0 0 0 0 0 0 0 0 0 0 0 0 0 0 0 0 157 -193 -193 -225 -225 325 328 328 329 327 329 -225 -225 -225 -225 -225 -225 -225 -225 -225 -225 -225 -225 -225 -225 -225 -225 -225 -225 -225 -225 -225 -225 -225 -225 -225 -225 -225 -225 -225 -225 -225 -225 -225 -225 -225 -225 -225 -225 -225 -225 -225 -225 -225 -225 -225 -225 -225 -225 -225 -225 -225 -225 -225 -225 -225 -225 -225 -225 -225 -225 -225 -225 -225 -225 -225 -225 -225 -225 -225 -225 -225 -225 -225 -225 -225 -225 -225 -225 -225 -225 -225 -225 -225 -225 -225 -225 -225 -225 -225 -225 -225 -225 -225 -225 -225 -225 -225 -225 -225 -225 -225 -225 -225 -225 -225 -225 -225 -225 -225 -225 -225 -225 -225 -225 -225 -225 -225 -225 -225 -225 -225 -225 -225 -193 -209 -209 -209 164 -209 -209 -209 -209 -193 -209 -209 -193 -209 -209 -209 512 -209 640 645 -193 -225 732 -209 -193 -193 -225 -225 -225 -225 -225 -225 -225 -193 -225 -225 -225 -193 -225 -225 -225 -225 -225 -225 -225 -225 -225 -225 442 448 -209 58 70 -193 -193 -209 186 -193 192 -177 187 191 183 185 185 184 -209 -209 -209 -209 -209 -209 -209 -209 77 85 87 87 90 97 104 -209 -209 -193 -193 -193 143 149 -193 -193 149 -193 168 159 165 170 172 176 177 183 187 187 187 188 189 188 189 191 191 189 194 196 0 0 0 0 0
    0 0 0 0 0 0 0 0 0 0 0 0 0 0 0 0 0 0 0 0 0 0 0 0 0 0 0 0 0 0 0 0 0 0 0 0 0 0 0 0 0 0 0 0 0 0 0 0 0 0 0 0 0 0 0 0 0 0 0 0 0 0 0 0 0 0 0 0 0 -225 -225 -225 -225 -225 -225 -225 -225 -225 -225 -225 -225 -225 -225 -225 -225 -225 -225 -225 -225 -225 -225 -225 -225 -225 -225 -225 -225 -225 -225 -225 -225 -225 -225 -225 -225 -225 -225 -225 -225 -225 -225 -225 -225 -225 -225 -225 -225 -225 -225 -225 -225 -225 -225 -225 -225 -225 -225 -225 -225 -225 -225 -225 -225 -225 -225 -225 -225 -225 -225 -225 -225 -225 -225 -225 -225 -209 -209 -209 -193 -209 -193 -225 -193 -209 -209 -225 -225 894 892 -193 -225 -225 -225 -225 -225 -225 -225 -225 -225 -225 -225 -225 -225 -225 -225 -225 -225 -225 -225 -225 -225 -225 -225 -225 -225 -225 -225 -225 -225 -225 -225 -225 -225 -225 -225 -225 -225 -225 -209 -209 396 398 207 210 204 -193 204 203 -193 -209 -209 -193 177 177 174 179 181 183 185 -193 187 -193 188 190 190 188 189 188 189 -193 189 193 -209 -209 -193 -209 -209 -209 193 -193 -209 847 -193 -209 -193 188 189 -209 -209 -209 -209 112 -193 -209 -193 -193 -193 -193 187 187 189 191 188 188 189 184 186 185 186 185 -209 -209 -209 -193 181 173 -209 -209 -209 -209 -209 -209 72 -209 -209 -209 -209 -209 -209 -209 -209 -193 -193 -193 -193 174 171 167 172 178 183 183 185 189 189 189 190 190 189 190 192 192 190 195 197 0 0 0 0 0
    0 0 0 0 0 0 0 0 0 0 0 0 0 0 0 0 0 0 0 0 0 0 0 0 0 0 0 0 0 0 0 0 0 0 0 0 0 0 0 0 0 0 0 0 0 0 0 0 0 0 0 0 0 0 0 0 0 0 0 0 0 0 0 0 0 0 0 0 0 -225 -225 -225 -225 -225 -225 -225 -225 -225 -225 -225 -225 -225 -225 -225 -225 -225 -225 -225 -225 -225 -225 -225 -225 -225 -209 -209 202 206 -209 -193 -209 -193 -193 -209 -209 -177 347 -209 -209 -193 -225 -225 -225 -225 -225 -225 -225 -225 -225 -225 -225 -225 -225 -225 -225 -225 -225 -225 -225 -225 -225 -225 -225 -225 -225 -225 -225 -225 -225 -225 -225 -225 -209 -209 -209 -209 -209 -193 -209 -209 722 -209 -209 -193 700 -209 -209 -193 -193 961 -209 308 308 311 314 -225 -225 -225 -225 -225 -225 196 -209 197 196 196 196 195 196 192 196 193 192 194 194 193 -193 -177 -225 -225 -225 -225 -225 -225 -225 858 -177 -177 -193 -209 396 -193 208 211 205 203 203 202 203 -209 -193 -193 184 183 182 181 183 184 186 186 187 189 188 189 190 189 189 188 189 189 188 192 189 189 192 -193 -193 -193 192 192 189 -193 189 189 188 188 188 -193 -193 197 -193 -193 -193 196 196 -193 192 191 189 188 190 191 189 188 189 186 187 187 188 187 -209 -193 -193 182 185 183 179 181 185 187 -209 -209 -209 -209 -209 65 70 -177 -209 -177 -209 182 181 183 183 182 183 177 180 184 185 185 186 189 190 190 191 191 190 191 193 192 190 194 196 0 0 0 0 0
    0 0 0 0 0 0 0 0 0 0 0 0 0 0 0 0 0 0 0 0 0 0 0 0 0 0 0 0 0 0 0 0 0 0 0 0 0 0 0 0 0 0 0 0 0 0 0 0 0 0 0 0 0 0 0 0 0 0 0 0 0 0 0 0 0 0 0 0 0 192 196 199 203 201 204 -225 -225 -225 -225 -225 -225 -225 -225 -225 -225 -225 -225 -225 -225 -225 -225 185 -193 184 -209 -209 -209 -209 -193 203 204 201 202 203 -209 -209 -209 -209 -209 -193 -209 822 -177 -209 -193 -193 -193 -193 771 770 -209 -193 -193 -209 875 -193 -193 -209 -193 -225 -225 -225 -225 -225 -225 -225 -225 -225 -225 -225 -225 37 -209 -209 -209 -193 -209 -209 -193 -209 -193 190 -209 -209 701 -209 -209 -209 -209 -193 302 307 308 312 -177 -225 -225 -225 -225 -225 197 194 -193 -193 -193 -193 195 193 196 192 196 194 193 194 194 193 194 -193 -193 -209 728 731 -193 -209 -193 860 -177 -177 -193 -209 -209 -193 207 208 203 201 201 201 200 198 193 187 186 185 185 183 184 187 187 187 188 190 188 190 191 189 189 189 190 190 189 193 190 189 192 193 193 194 192 192 190 190 189 189 188 189 189 191 190 196 196 -193 -193 196 196 195 193 193 190 190 191 193 191 189 190 188 188 189 189 188 187 187 188 185 187 186 186 185 187 188 189 187 190 189 -209 -209 -209 -209 -209 -209 -193 184 182 184 185 185 185 183 183 186 186 186 188 190 190 190 191 191 190 191 193 192 190 195 197 0 0 0 0 0
    0 0 0 0 0 0 0 0 0 0 0 0 0 0 0 0 0 0 0 0 0 0 0 0 0 0 0 0 0 0 0 0 0 0 0 0 0 0 0 0 0 0 0 0 0 0 0 0 0 0 0 0 0 0 0 0 0 0 0 0 0 0 0 0 0 0 0 0 0 190 195 198 202 199 202 202 -193 -193 -177 -209 -193 -193 -209 -193 197 197 196 193 188 187 185 186 -193 185 186 191 -193 -209 -193 200 202 200 202 202 -209 -209 -209 -193 878 880 -209 -193 -193 -193 -193 -193 -193 767 770 771 -209 -209 198 -209 -193 -209 -209 -209 -209 -177 -177 -193 -225 -225 -225 -225 -225 -225 -225 -225 36 -209 -209 -193 -193 194 194 -209 -193 -193 194 191 188 -209 -209 -193 -177 -209 -209 -209 -193 308 310 314 317 -193 -209 189 195 193 195 193 195 194 193 194 195 192 196 194 197 195 194 194 195 194 194 193 195 194 -209 736 -193 -209 -209 859 866 -177 -177 -209 -209 -209 206 204 201 199 199 198 198 195 193 187 187 187 186 185 187 189 189 188 189 191 189 191 192 190 189 190 191 191 190 193 190 189 192 193 193 194 192 193 190 191 190 190 189 190 189 191 189 195 194 195 192 195 194 193 192 192 190 190 191 193 191 189 190 189 189 189 190 189 187 187 188 186 188 187 187 186 188 190 190 188 191 189 192 188 188 -209 -209 188 187 186 185 185 186 186 186 186 185 190 189 188 190 191 190 190 190 190 189 190 192 191 189 195 197 0 0 0 0 0
    0 0 0 0 0 0 0 0 0 0 0 0 0 0 0 0 0 0 0 0 0 0 0 0 0 0 0 0 0 0 0 0 0 0 0 0 0 0 0 0 0 0 0 0 0 0 0 0 0 0 0 0 0 0 0 0 0 0 0 0 0 0 0 0 0 0 0 0 0 191 196 198 200 199 199 199 199 198 198 -193 195 194 196 198 197 198 198 196 189 188 188 187 186 187 187 192 192 197 198 198 199 199 200 -209 -209 -209 -209 -209 878 881 -193 -209 -209 -193 -193 946 947 -209 -177 -177 -209 199 197 -193 -193 200 -193 -193 -193 -177 -177 -209 -193 -193 -209 -209 -209 -225 -225 -209 -209 -209 -209 -209 -193 196 196 -209 196 196 194 192 189 188 -193 -177 183 -193 185 -209 -209 -209 -209 -193 -193 -193 -193 189 194 193 195 193 194 194 193 194 195 192 196 194 196 195 194 194 194 193 194 193 195 195 196 -209 -209 -193 -209 -209 -209 857 862 -193 -209 -209 204 201 199 198 198 197 196 193 193 188 187 187 187 186 188 190 189 189 189 191 189 191 192 190 189 190 191 191 190 193 190 189 191 192 192 194 191 193 191 191 191 190 190 190 189 191 189 193 192 193 191 194 192 191 191 190 188 189 189 192 191 189 190 190 190 190 190 189 187 187 188 186 188 187 187 186 188 191 191 188 193 191 194 189 188 187 189 190 189 187 186 187 188 187 187 187 186 192 191 190 192 192 191 190 190 190 188 189 191 189 188 193 197 0 0 0 0 0
    0 0 0 0 0 0 0 0 0 0 0 0 0 0 0 0 0 0 0 0 0 0 0 0 0 0 0 0 0 0 0 0 0 0 0 0 0 0 0 0 0 0 0 0 0 0 0 0 0 0 0 0 0 0 0 0 0 0 0 0 0 0 0 0 0 0 0 0 0 194 196 197 198 197 198 198 198 197 198 199 197 197 -193 -209 -193 200 201 198 192 191 191 188 187 188 188 191 191 195 196 194 195 196 197 -209 -209 -209 -209 -209 -193 885 -193 -209 -209 -193 -193 945 946 -193 -209 201 199 199 197 198 198 199 200 200 198 -193 -193 -209 -193 197 -193 -209 -193 -193 189 -193 -209 -209 -209 -209 197 197 197 -193 196 196 195 193 190 190 187 187 -177 187 187 188 187 187 -193 -193 -193 -193 -193 189 194 192 194 193 194 194 192 193 195 192 196 195 196 196 194 195 195 194 195 194 196 196 196 -193 -209 -209 -177 804 -209 854 860 867 -209 -209 203 199 198 196 196 196 195 192 193 188 188 188 187 187 190 190 190 189 189 191 189 191 192 190 190 190 191 192 190 192 190 188 191 191 191 194 191 193 191 191 191 191 190 191 190 191 189 192 191 192 191 193 191 190 190 189 187 188 189 191 191 189 190 190 190 190 190 190 188 188 189 187 189 188 188 187 189 192 192 188 195 192 194 190 189 188 190 191 189 188 186 187 188 187 187 187 187 192 191 190 192 192 191 190 190 189 188 188 189 188 187 189 196 0 0 0 0 0
    0 0 0 0 0 0 0 0 0 0 0 0 0 0 0 0 0 0 0 0 0 0 0 0 0 0 0 0 0 0 0 0 0 0 0 0 0 0 0 0 0 0 0 0 0 0 0 0 0 0 0 0 0 0 0 0 0 0 0 0 0 0 0 0 0 0 0 0 0 194 196 197 197 197 197 197 197 197 198 198 198 198 199 -193 -209 200 200 198 194 193 192 189 187 188 189 191 191 194 196 193 194 194 194 -193 -209 -209 -209 -193 -193 -193 -209 -209 -193 -193 -193 -177 946 -193 -193 200 198 199 197 198 198 199 200 199 198 -193 -193 -209 195 195 192 -209 -193 188 189 191 -193 -193 -193 -193 196 197 197 197 196 197 195 194 191 190 188 187 184 187 187 189 188 188 -193 -193 -193 -193 -193 190 194 192 194 193 193 194 192 193 194 191 195 194 196 196 195 195 195 194 195 194 195 195 195 196 -209 -209 -177 803 -209 -177 -177 -177 -209 -209 202 199 197 196 196 196 195 192 193 189 188 188 188 188 190 190 190 189 190 191 189 191 192 190 190 191 192 192 190 193 191 189 191 191 191 194 191 193 191 192 191 191 191 191 190 191 189 192 191 192 191 193 191 190 190 189 188 189 189 192 191 190 191 191 191 191 191 191 188 188 190 188 189 190 190 189 190 192 192 188 193 191 192 189 188 188 189 190 189 188 187 187 187 187 187 187 187 193 192 189 191 191 190 190 190 189 188 187 188 187 186 187 194 0 0 0 0 0
    0 0 0 0 0 0 0 0 0 0 0 0 0 0 0 0 0 0 0 0 0 0 0 0 0 0 0 0 0 0 0 0 0 0 0 0 0 0 0 0 0 0 0 0 0 0 0 0 0 0 0 0 0 0 0 0 0 0 0 0 0 0 0 0 0 0 0 0 0 195 196 197 198 198 198 198 198 198 198 199 199 198 199 -193 -193 198 199 198 195 193 193 191 189 190 191 192 192 194 196 194 194 194 -193 -193 -193 -193 -193 -193 -193 885 891 -209 -209 -209 -209 -209 -193 198 198 199 197 198 196 198 198 199 200 199 197 199 197 198 195 195 194 187 190 190 190 193 192 193 195 195 196 196 196 197 195 196 196 194 191 191 188 187 185 188 188 189 190 189 -193 -193 -209 -193 -193 192 195 193 195 193 193 194 192 193 194 191 194 193 195 195 194 194 194 193 195 194 194 195 194 195 197 195 -193 -193 -193 -177 -177 -177 -209 -209 201 198 197 196 196 196 195 193 194 189 189 189 189 189 191 190 190 189 190 192 190 192 192 190 190 192 192 193 191 193 191 190 191 191 191 194 191 193 191 192 191 191 191 191 190 191 189 192 190 192 191 193 190 190 191 190 189 190 189 192 192 191 191 191 191 191 191 191 189 189 191 189 190 191 191 190 190 192 191 189 194 190 191 189 189 189 190 190 189 187 187 186 187 187 186 186 188 193 192 189 190 191 190 189 189 189 187 187 188 187 185 185 190 0 0 0 0 0</data></disparity>
</opencv_storage>
