<?xml version="1.0"?>
<opencv_storage>
<gps_time_stamp>29230</gps_time_stamp>
<gps_x>-7.2002630233764648e+000</gps_x>
<gps_y>1.0209332704544067e+000</gps_y>
<gps_z>-1.9962801933288574e+000</gps_z>
<image_time_stamp>17167</image_time_stamp>
<disparity type_id="opencv-matrix">
  <rows>89</rows>
  <cols>320</cols>
  <dt>s</dt>
  <data>
    0 0 0 0 0 0 0 0 0 0 0 0 0 0 0 0 0 0 0 0 0 0 0 0 0 0 0 0 0 0 0 0 0 0 0 0 0 0 0 0 0 0 0 0 0 0 0 0 0 0 0 0 0 0 0 0 0 0 0 0 0 0 0 0 0 0 0 0 0 12 12 10 13 17 12 11 11 10 9 9 9 9 0 10 11 10 11 10 12 11 11 10 10 10 0 0 0 0 0 0 0 0 0 0 0 0 0 0 0 0 0 0 0 0 0 0 0 0 0 0 0 0 0 11 0 0 0 0 0 0 0 0 0 0 0 0 0 0 0 0 0 -177 0 -193 -193 -193 -177 -177 127 131 -193 -209 -209 -193 127 -193 -193 -193 -193 -193 -193 128 124 -193 -209 -193 -209 125 -193 -193 -193 242 240 241 -193 -193 14 11 13 13 13 14 13 12 12 9 10 9 10 10 0 9 10 10 10 9 10 0 0 9 12 0 0 0 11 10 11 11 11 9 13 12 12 10 11 10 10 10 11 10 10 11 11 12 13 15 15 15 15 15 16 17 16 18 19 17 20 17 17 17 20 22 -193 -209 -177 -193 -209 63 67 71 -209 -193 -209 -193 24 24 24 19 23 24 23 20 23 24 25 -193 -209 -193 75 79 81 85 87 89 90 89 91 93 94 96 95 96 94 93 94 -193 -193 -193 -193 -193 106 109 111 112 111 -193 38 38 38 38 37 36 36 35 37 37 37 37 37 36 37 35 36 35 34 0 0 0 0 0
    0 0 0 0 0 0 0 0 0 0 0 0 0 0 0 0 0 0 0 0 0 0 0 0 0 0 0 0 0 0 0 0 0 0 0 0 0 0 0 0 0 0 0 0 0 0 0 0 0 0 0 0 0 0 0 0 0 0 0 0 0 0 0 0 0 0 0 0 0 13 12 11 14 18 13 12 12 11 10 10 10 9 0 10 10 9 11 11 11 11 10 10 9 9 0 0 0 0 0 0 0 0 0 0 0 0 0 0 0 0 0 0 0 0 0 0 0 0 0 0 0 0 0 11 9 9 0 0 9 9 0 0 0 0 0 0 0 0 0 0 0 0 0 0 -193 -193 -193 -193 -193 -209 -209 -193 -193 0 -193 0 0 -193 0 0 0 127 124 -193 -209 -209 -209 -193 -193 -193 -193 -177 239 -193 -193 -193 15 11 13 13 13 14 13 12 12 9 10 9 10 10 9 10 10 10 11 10 12 9 0 9 12 0 9 0 11 10 11 11 11 9 13 11 11 10 10 9 9 10 11 10 10 11 11 12 13 14 14 15 14 15 14 16 16 18 19 17 20 17 17 17 20 22 -193 -193 -193 -193 -193 62 66 71 -193 160 -193 23 25 25 25 20 24 24 24 21 22 21 23 22 23 25 24 -177 -209 -209 84 89 89 89 90 93 94 96 95 96 93 93 93 -193 -193 -193 -209 100 105 108 110 111 111 111 106 -209 -193 39 38 36 37 36 37 37 36 37 36 36 37 36 36 35 35 0 0 0 0 0
    0 0 0 0 0 0 0 0 0 0 0 0 0 0 0 0 0 0 0 0 0 0 0 0 0 0 0 0 0 0 0 0 0 0 0 0 0 0 0 0 0 0 0 0 0 0 0 0 0 0 0 0 0 0 0 0 0 0 0 0 0 0 0 0 0 0 0 0 0 14 14 13 16 19 13 13 13 12 11 11 10 10 0 10 10 9 10 9 9 10 0 0 0 0 0 0 0 0 0 0 0 0 0 0 0 0 0 0 0 0 0 0 0 0 0 0 0 0 0 0 0 0 0 11 9 9 0 0 9 9 9 9 0 0 0 0 0 0 0 0 0 0 0 0 0 0 0 0 0 9 -193 0 0 0 0 0 0 0 0 0 0 -193 -193 -193 -193 -209 -193 -193 -193 -209 -209 -193 -193 -193 -193 10 15 12 13 13 13 14 13 12 12 9 10 9 10 11 9 11 11 11 12 11 12 9 0 9 12 0 9 0 12 10 11 11 11 9 12 11 11 10 10 9 9 10 11 10 10 12 11 12 13 14 13 14 13 15 13 15 15 18 19 17 21 17 17 17 20 22 -193 -177 -193 -177 -177 -193 66 71 -193 160 -193 23 26 25 25 20 24 24 24 20 21 20 22 20 21 23 23 24 25 -193 -209 -209 -193 88 -193 94 95 97 96 97 94 94 94 -193 -177 -193 -209 102 105 108 110 110 111 112 108 105 106 108 109 -193 37 37 38 37 37 37 36 37 38 37 37 35 36 0 0 0 0 0
    0 0 0 0 0 0 0 0 0 0 0 0 0 0 0 0 0 0 0 0 0 0 0 0 0 0 0 0 0 0 0 0 0 0 0 0 0 0 0 0 0 0 0 0 0 0 0 0 0 0 0 0 0 0 0 0 0 0 0 0 0 0 0 0 0 0 0 0 0 17 16 15 18 20 14 14 14 12 11 11 11 10 0 10 10 0 0 0 0 9 0 0 0 0 0 0 0 0 0 0 0 0 0 0 0 0 0 0 0 0 0 0 0 0 0 0 0 0 0 0 0 0 0 11 9 10 0 0 9 9 9 9 0 0 0 0 0 0 0 0 0 0 0 0 0 0 0 0 0 0 0 0 0 0 0 0 0 0 0 0 0 0 0 0 9 0 0 9 10 9 0 0 -193 -193 -193 10 16 12 14 13 13 13 12 12 12 0 10 9 10 11 9 10 10 11 11 10 11 0 0 0 11 0 9 9 12 11 11 12 12 9 11 10 11 9 9 0 9 10 11 10 10 12 11 13 13 13 13 14 14 15 13 15 15 18 18 17 21 17 17 17 20 21 -177 -177 -209 -177 -177 -193 66 71 -193 -193 -209 23 25 25 25 21 25 24 24 20 21 21 22 20 21 22 22 23 24 -209 -177 -177 -177 -209 -193 95 95 97 97 97 94 95 94 -193 -177 -193 -209 103 105 108 109 109 111 111 108 105 107 110 111 115 113 -193 -193 38 38 37 36 37 38 37 36 35 36 0 0 0 0 0
    0 0 0 0 0 0 0 0 0 0 0 0 0 0 0 0 0 0 0 0 0 0 0 0 0 0 0 0 0 0 0 0 0 0 0 0 0 0 0 0 0 0 0 0 0 0 0 0 0 0 0 0 0 0 0 0 0 0 0 0 0 0 0 0 0 0 0 0 0 -209 18 16 20 21 15 15 14 13 12 12 12 11 9 10 10 0 0 0 0 0 0 0 0 0 0 0 0 0 0 0 0 0 0 0 0 0 0 0 0 0 0 0 0 0 0 0 0 0 0 0 0 0 0 10 9 10 0 9 9 9 9 9 0 0 0 0 0 0 0 0 0 0 0 0 0 0 0 0 0 0 0 0 0 0 0 0 0 0 0 0 0 0 0 0 0 0 0 9 9 0 0 0 0 10 11 10 17 13 14 13 13 13 12 12 12 9 10 9 10 10 9 9 10 10 10 9 10 0 0 0 10 0 9 0 11 11 11 12 12 9 11 10 10 9 9 0 10 10 11 11 11 14 13 15 14 13 13 14 14 15 13 15 15 18 17 17 21 17 17 17 19 21 -177 -177 -193 -177 -193 -193 66 70 -209 -209 -209 22 25 25 25 22 25 24 24 21 22 22 22 21 22 23 23 23 24 31 -177 -177 -177 -177 -177 -209 94 96 96 97 94 95 95 99 -193 -193 105 103 105 108 109 108 110 111 107 106 108 110 113 115 112 116 114 118 -193 37 37 38 39 38 36 35 36 0 0 0 0 0
    0 0 0 0 0 0 0 0 0 0 0 0 0 0 0 0 0 0 0 0 0 0 0 0 0 0 0 0 0 0 0 0 0 0 0 0 0 0 0 0 0 0 0 0 0 0 0 0 0 0 0 0 0 0 0 0 0 0 0 0 0 0 0 0 0 0 0 0 0 -177 -209 -209 21 21 15 15 16 14 13 13 13 12 9 11 -209 -209 -209 -209 -193 -209 0 0 0 0 0 0 0 0 0 0 0 0 0 0 0 0 0 0 0 0 0 0 0 0 0 0 0 0 0 0 0 0 0 -193 0 9 0 0 0 9 0 0 0 0 0 0 0 0 0 0 0 0 0 0 0 0 0 0 0 0 -177 0 -193 -209 61 68 66 -209 -209 -193 -193 0 0 0 0 0 0 0 0 0 0 0 9 10 11 10 18 13 14 13 13 12 12 12 12 9 10 9 10 10 9 9 9 10 9 0 9 0 0 0 10 0 0 0 11 11 11 12 12 9 11 11 11 9 9 11 12 11 12 12 12 16 13 16 13 13 13 14 14 14 13 15 14 17 16 16 20 16 16 16 19 20 -177 -177 -177 -177 -177 -193 66 70 -209 -209 -209 -193 -193 24 25 22 25 24 24 21 22 22 22 22 22 23 24 23 24 30 -177 -177 -177 -177 -177 -193 94 94 95 96 94 95 95 99 96 103 105 104 104 108 110 108 110 111 107 105 108 112 114 115 114 117 116 119 121 -193 37 38 39 39 37 36 37 0 0 0 0 0
    0 0 0 0 0 0 0 0 0 0 0 0 0 0 0 0 0 0 0 0 0 0 0 0 0 0 0 0 0 0 0 0 0 0 0 0 0 0 0 0 0 0 0 0 0 0 0 0 0 0 0 0 0 0 0 0 0 0 0 0 0 0 0 0 0 0 0 0 0 -177 -209 -193 -209 -209 -193 14 17 14 13 13 14 13 11 14 -209 -209 -193 -177 -177 -209 -209 -209 0 0 0 0 0 0 0 0 0 0 0 0 0 0 0 0 0 0 0 0 0 9 0 0 0 0 0 0 0 -193 0 -193 9 9 0 0 0 0 0 0 0 0 0 0 0 0 0 0 0 0 0 0 0 0 0 0 0 0 -193 -209 -209 62 68 72 70 71 73 -193 -193 -193 -193 0 0 0 0 0 0 0 0 0 9 11 -193 9 18 13 14 13 13 13 13 13 13 10 12 10 11 11 10 10 10 11 9 9 9 0 0 0 9 0 0 0 9 10 11 12 12 10 11 11 11 10 9 13 14 12 12 13 14 17 14 17 13 13 14 14 14 14 13 15 14 17 16 16 20 16 16 16 19 20 -177 -177 -177 -177 -177 -193 66 70 -193 -209 -209 -193 -193 24 25 22 24 24 24 21 22 22 22 22 23 24 24 25 24 30 -177 -177 -177 -177 -177 -177 94 94 94 95 94 96 96 100 97 104 105 105 104 108 111 108 110 111 108 105 108 115 115 116 115 117 118 121 123 124 130 -193 -209 40 37 36 38 0 0 0 0 0
    0 0 0 0 0 0 0 0 0 0 0 0 0 0 0 0 0 0 0 0 0 0 0 0 0 0 0 0 0 0 0 0 0 0 0 0 0 0 0 0 0 0 0 0 0 0 0 0 0 0 0 0 0 0 0 0 0 0 0 0 0 0 0 0 0 0 0 0 0 -193 -209 -209 70 -209 -193 13 18 16 15 14 15 15 15 -193 -209 -209 -209 -177 -209 -209 -209 -209 -193 0 0 -193 0 0 0 0 0 0 -193 0 0 0 0 0 0 0 0 0 0 9 0 0 0 0 0 0 0 -193 -193 -193 9 10 0 -209 -209 -209 0 0 0 0 0 0 0 0 0 0 0 0 0 0 0 0 0 0 -177 -193 -193 -209 66 71 70 73 72 72 74 77 -193 -193 -209 -193 0 0 0 0 0 0 0 0 9 11 -193 9 18 13 15 14 14 14 14 14 15 11 16 13 13 12 13 12 12 13 10 10 9 0 0 0 0 0 0 0 0 10 11 11 11 10 11 12 12 10 10 17 16 14 14 16 16 18 15 18 14 14 14 14 14 14 13 15 14 16 16 16 20 16 16 16 19 19 -177 -177 -177 -177 -177 -209 67 -193 -193 -193 -193 -193 -193 25 25 22 25 24 24 22 23 23 23 23 23 25 25 26 26 31 -177 -193 -193 -209 -177 -177 94 94 -193 -193 94 96 97 101 -193 104 105 105 104 108 111 106 109 109 108 105 108 115 115 115 114 118 118 122 123 126 129 135 137 138 -209 37 39 0 0 0 0 0
    0 0 0 0 0 0 0 0 0 0 0 0 0 0 0 0 0 0 0 0 0 0 0 0 0 0 0 0 0 0 0 0 0 0 0 0 0 0 0 0 0 0 0 0 0 0 0 0 0 0 0 0 0 0 0 0 0 0 0 0 0 0 0 0 0 0 0 0 0 -193 -193 74 73 73 -209 -193 18 16 15 14 16 18 19 -209 -209 -209 -209 -209 -209 -209 -209 -193 -209 -209 -209 -209 -209 -193 0 -193 -209 -209 -209 -209 -209 -209 -193 0 0 0 0 0 0 9 0 0 -193 0 0 0 0 -193 -193 -209 -209 10 -209 -209 -209 -209 -209 -209 0 0 0 0 0 0 0 -193 0 0 0 0 0 0 0 -193 -209 -209 -209 71 70 73 71 73 72 73 74 76 76 79 80 -209 -193 0 0 0 0 0 0 9 11 13 -193 10 18 14 15 15 15 15 14 15 16 12 18 13 12 12 13 13 12 15 11 10 9 0 0 0 0 0 0 0 0 9 10 11 11 10 11 12 12 11 10 15 16 15 16 17 18 19 16 18 15 14 15 14 14 13 13 15 14 16 16 16 21 16 16 17 20 19 -177 -177 -177 -177 -177 -193 -193 -193 -193 -193 -209 -193 -193 24 25 23 25 25 25 24 24 24 24 24 24 25 25 26 26 30 -193 -209 -209 -177 -193 -193 -193 -193 0 0 94 97 -193 101 -193 -193 105 -193 -193 108 111 106 109 109 108 106 109 113 112 112 112 116 117 121 122 124 128 134 136 136 136 138 -193 0 0 0 0 0
    0 0 0 0 0 0 0 0 0 0 0 0 0 0 0 0 0 0 0 0 0 0 0 0 0 0 0 0 0 0 0 0 0 0 0 0 0 0 0 0 0 0 0 0 0 0 0 0 0 0 0 0 0 0 0 0 0 0 0 0 0 0 0 0 0 0 0 0 0 -193 73 75 74 74 73 -193 -193 -193 -193 13 15 20 -209 -193 -193 -209 -209 -209 -209 -193 75 75 75 74 74 -193 -193 -193 -209 -209 -209 -209 -209 -209 -209 -193 -209 -209 -209 0 0 -193 -209 -209 -209 -193 77 -193 -209 -193 -193 -209 -193 -209 -209 -193 -209 -209 -209 -209 -209 -209 0 0 -193 9 -193 -193 -209 -209 0 0 0 0 0 -193 -193 -209 -193 -209 -209 73 72 74 72 73 73 73 74 75 75 77 77 84 -209 -209 -209 -209 -209 0 10 11 -193 13 -193 11 19 15 18 18 18 -209 -193 -193 -193 14 -209 -193 13 13 15 13 13 16 12 9 8 0 0 0 0 0 0 0 0 0 10 10 11 10 11 12 12 11 10 15 16 15 15 16 19 18 17 19 15 15 15 15 15 13 14 15 14 16 15 15 20 16 16 17 20 19 -177 -177 -193 -177 -177 -177 -177 -193 -209 -209 -209 -193 25 25 25 23 26 25 26 25 25 25 24 24 25 24 24 26 26 29 -209 -209 -193 -177 -209 -193 0 0 0 0 -193 99 -193 -177 -193 -193 -193 -193 -193 108 112 106 109 109 107 105 110 113 113 112 112 116 117 122 123 126 129 134 136 135 135 136 138 0 0 0 0 0
    0 0 0 0 0 0 0 0 0 0 0 0 0 0 0 0 0 0 0 0 0 0 0 0 0 0 0 0 0 0 0 0 0 0 0 0 0 0 0 0 0 0 0 0 0 0 0 0 0 0 0 0 0 0 0 0 0 0 0 0 0 0 0 0 0 0 0 0 0 74 75 76 75 75 75 75 75 76 80 -193 -193 -209 -193 -193 -193 -209 -209 -209 74 76 76 75 75 75 75 75 74 74 72 71 70 -193 -193 -209 -193 -193 -209 -209 -209 -209 -209 -209 71 -209 -193 75 76 80 81 80 81 85 -209 -209 -209 -209 -209 -209 -209 -209 -209 -209 -209 -193 73 -209 -209 -209 -209 70 -209 0 0 -193 -209 -209 -209 -209 -209 -209 -193 74 74 75 73 74 73 73 73 75 74 76 76 -193 -209 -177 -177 -177 -177 -209 -193 -209 -209 -209 -193 11 19 16 20 -209 -209 -209 369 372 -193 -209 -209 -193 15 14 18 14 13 16 12 0 0 0 0 0 0 0 0 0 0 0 9 9 10 10 11 12 13 12 11 14 15 14 14 15 18 17 16 19 16 16 16 16 16 14 15 15 14 15 15 15 20 16 16 17 20 19 -193 -177 -193 -177 -193 -177 -177 -193 -209 -209 -209 -193 24 24 25 24 26 26 26 25 26 26 24 24 25 24 24 26 26 27 -209 -209 -209 -193 -209 -177 0 0 0 0 -193 100 -193 -177 -193 -193 -193 -209 -193 109 112 105 107 107 -193 102 109 114 114 112 113 115 116 121 121 122 127 133 135 133 133 133 134 0 0 0 0 0
    0 0 0 0 0 0 0 0 0 0 0 0 0 0 0 0 0 0 0 0 0 0 0 0 0 0 0 0 0 0 0 0 0 0 0 0 0 0 0 0 0 0 0 0 0 0 0 0 0 0 0 0 0 0 0 0 0 0 0 0 0 0 0 0 0 0 0 0 0 75 76 77 77 77 77 77 76 76 79 77 73 -193 -193 -209 76 75 76 77 76 77 76 76 76 76 76 75 74 74 73 72 72 73 71 -193 -193 -193 -193 -193 -209 -193 -193 73 73 75 -193 77 77 79 80 79 80 82 82 77 79 80 76 78 79 78 -193 75 75 74 73 75 -209 67 66 -209 -177 -177 -177 -177 -177 -209 -193 -193 -209 -193 76 74 75 77 74 74 74 74 74 75 74 76 -193 -209 -209 -209 -209 -177 -193 -209 -193 -193 -209 -209 -209 -193 -193 -193 -193 -209 -209 -209 368 371 374 -209 -209 -193 -209 15 22 16 -193 16 12 0 0 0 0 0 0 0 0 0 0 0 0 0 9 9 11 12 14 13 12 16 16 14 14 15 18 17 16 19 16 17 17 17 17 15 17 16 15 15 14 14 19 16 15 17 20 19 -193 -177 -193 -177 -193 -177 -177 -193 -209 -209 -209 -193 24 24 25 25 27 26 27 26 28 27 25 25 25 23 24 26 25 -209 -209 -209 -209 -209 -193 -193 0 0 0 0 -193 101 -193 -177 -193 -177 107 107 -193 109 112 103 -209 -209 90 94 108 115 115 112 114 115 117 120 120 121 125 127 130 127 130 131 129 0 0 0 0 0
    0 0 0 0 0 0 0 0 0 0 0 0 0 0 0 0 0 0 0 0 0 0 0 0 0 0 0 0 0 0 0 0 0 0 0 0 0 0 0 0 0 0 0 0 0 0 0 0 0 0 0 0 0 0 0 0 0 0 0 0 0 0 0 0 0 0 0 0 0 76 77 78 78 78 79 78 78 78 79 78 76 74 -193 76 78 76 77 77 76 77 76 76 77 77 76 76 74 75 74 73 74 73 72 73 73 73 73 74 74 74 74 74 74 76 77 78 78 79 79 79 79 80 79 77 78 78 76 77 78 77 76 75 75 75 75 76 75 73 74 75 -193 -193 -177 -193 -193 79 78 78 78 77 77 75 76 79 75 76 75 75 74 75 75 76 74 76 -209 -209 -193 -209 -209 -209 -177 -193 -193 -193 76 -193 -193 -193 -193 -193 -209 -209 366 370 373 -209 -209 -193 -209 21 -209 -209 -193 -193 -193 -209 75 -193 0 0 0 0 0 0 0 0 0 0 0 9 12 13 15 14 14 17 16 14 -193 15 19 16 17 19 17 18 19 18 17 15 19 15 15 15 14 13 17 15 15 16 20 -209 -177 -177 -209 -209 -177 -177 -193 74 -193 -209 -209 -209 -193 -193 25 25 28 27 27 27 29 27 24 25 24 23 24 27 -209 -209 -209 -209 -209 -209 -193 -193 -177 0 0 0 0 103 -193 106 -177 -177 -177 107 -193 109 112 88 91 -193 -193 -209 102 109 110 109 111 112 116 120 120 123 123 123 126 123 126 127 125 0 0 0 0 0
    0 0 0 0 0 0 0 0 0 0 0 0 0 0 0 0 0 0 0 0 0 0 0 0 0 0 0 0 0 0 0 0 0 0 0 0 0 0 0 0 0 0 0 0 0 0 0 0 0 0 0 0 0 0 0 0 0 0 0 0 0 0 0 0 0 0 0 0 0 76 78 78 79 79 79 79 78 78 79 78 78 77 76 77 79 77 77 78 76 77 76 76 77 77 77 76 75 76 75 74 75 74 73 74 73 74 73 74 75 74 74 74 74 77 78 79 79 80 79 79 79 78 77 77 77 77 75 76 77 76 76 75 75 75 76 77 76 76 77 78 80 79 83 78 80 80 79 79 78 78 78 76 77 81 76 77 76 76 75 76 75 76 74 75 -193 -193 77 80 -209 -193 -193 -193 77 -193 77 77 77 76 -193 -193 80 81 -193 368 372 -193 -209 -209 73 -209 -209 72 74 76 -209 77 77 77 74 -193 -193 -193 0 0 -193 -193 -193 0 0 9 12 13 17 15 15 -193 -193 -193 79 -193 -193 -193 16 -193 16 19 20 18 17 15 21 13 16 -193 13 -193 -193 14 13 16 -193 -209 -177 -193 -209 -209 373 -193 74 75 75 -209 -209 -209 -193 -193 26 26 30 27 27 28 29 26 23 24 24 22 24 27 -209 -209 -209 -193 -209 -193 894 -193 -193 -177 -177 0 0 104 106 107 106 108 -177 108 -193 108 111 91 93 -209 -209 -209 -209 107 105 107 109 109 115 -193 -193 127 124 122 123 121 124 124 123 0 0 0 0 0
    0 0 0 0 0 0 0 0 0 0 0 0 0 0 0 0 0 0 0 0 0 0 0 0 0 0 0 0 0 0 0 0 0 0 0 0 0 0 0 0 0 0 0 0 0 0 0 0 0 0 0 0 0 0 0 0 0 0 0 0 0 0 0 0 0 0 0 0 0 77 79 79 79 80 79 79 79 79 80 79 79 78 77 79 81 79 78 78 76 78 77 76 79 78 77 78 77 78 76 76 76 74 74 74 74 75 73 74 75 74 74 74 76 79 79 80 80 80 80 79 78 78 76 76 76 75 75 76 75 76 75 75 75 75 78 78 77 78 79 81 82 81 83 79 81 81 80 79 79 78 78 76 77 82 77 77 77 76 76 76 76 76 73 74 74 73 74 77 75 75 75 75 77 77 78 79 78 78 78 78 80 79 75 -193 -193 74 74 74 74 74 73 74 76 76 77 80 80 80 76 -193 -193 78 -193 -193 -193 77 77 -193 -193 -193 -193 -193 -193 -193 -193 76 79 78 79 78 78 78 -193 -209 18 21 21 20 19 16 -209 -209 -209 -209 -209 -209 77 77 -209 -209 -209 -209 -193 -209 -209 -209 76 76 76 76 76 -209 -209 -209 -193 -193 29 29 39 -209 -193 -193 -193 -209 -209 -209 23 22 23 27 -209 -209 -193 -209 -193 -209 -193 -193 -193 -177 -177 -177 -177 -193 107 108 106 108 108 108 106 108 110 100 101 -209 -193 -193 -193 -193 -193 106 -193 105 113 148 -209 135 127 126 127 123 125 125 124 0 0 0 0 0
    0 0 0 0 0 0 0 0 0 0 0 0 0 0 0 0 0 0 0 0 0 0 0 0 0 0 0 0 0 0 0 0 0 0 0 0 0 0 0 0 0 0 0 0 0 0 0 0 0 0 0 0 0 0 0 0 0 0 0 0 0 0 0 0 0 0 0 0 0 79 81 79 80 81 80 80 80 80 80 79 81 80 78 80 83 82 80 80 78 80 78 77 82 80 79 80 78 79 78 78 78 75 75 76 75 75 73 75 76 75 76 76 77 81 80 81 81 81 80 79 79 78 76 76 76 76 75 76 76 77 76 77 76 76 81 79 78 79 79 81 82 82 84 79 82 82 81 80 79 78 78 77 78 82 77 77 78 77 76 77 76 77 74 74 74 73 74 76 75 75 75 76 78 77 80 80 79 79 79 78 81 80 77 75 75 75 75 76 76 75 74 76 77 77 80 82 83 82 78 82 78 79 79 78 78 78 77 79 76 78 76 76 77 76 79 78 80 79 79 80 80 79 81 80 82 -193 -193 21 21 -209 -209 -209 84 -193 -193 76 79 77 78 79 -193 -193 -193 78 78 78 78 78 77 77 77 75 74 -193 -193 -193 -193 -177 -209 73 77 78 79 79 82 84 -209 20 23 -193 -209 -209 -193 -193 -209 -209 -193 -209 -177 -177 -177 -177 -177 106 108 109 107 109 109 108 106 108 109 103 103 -193 -209 -193 -193 -193 -209 -193 -209 -209 -209 -209 -209 -209 -209 -193 125 120 124 123 124 0 0 0 0 0
    0 0 0 0 0 0 0 0 0 0 0 0 0 0 0 0 0 0 0 0 0 0 0 0 0 0 0 0 0 0 0 0 0 0 0 0 0 0 0 0 0 0 0 0 0 0 0 0 0 0 0 0 0 0 0 0 0 0 0 0 0 0 0 0 0 0 0 0 0 81 83 80 81 82 81 80 81 80 80 79 81 80 78 80 82 82 80 81 78 81 80 79 84 81 80 82 80 81 79 79 79 76 77 78 76 77 76 76 77 77 79 77 79 82 80 80 81 80 80 79 79 78 76 77 76 76 76 78 78 79 77 80 78 77 83 80 79 80 79 82 82 82 84 79 82 82 82 81 80 79 79 78 79 83 78 78 79 78 77 77 77 78 74 75 75 73 74 77 75 76 75 76 78 78 81 80 79 81 81 80 82 81 79 77 78 77 77 77 78 76 75 78 78 79 83 82 83 83 80 83 79 80 79 78 78 78 77 79 76 78 77 77 79 77 81 80 82 80 79 80 80 80 81 79 81 82 85 -209 -209 -193 86 82 83 77 77 76 79 77 77 78 78 77 79 79 79 78 79 79 78 77 78 76 75 77 -209 -209 -209 -209 75 77 81 81 82 82 83 84 85 -193 21 -209 -209 -209 -209 -209 -209 -209 -209 -193 -177 -177 -177 -177 -177 107 109 109 107 109 109 108 106 108 108 105 104 -193 -209 -193 -209 -209 -193 -209 -209 -209 -209 -209 80 85 92 -193 -209 115 122 122 123 0 0 0 0 0
    0 0 0 0 0 0 0 0 0 0 0 0 0 0 0 0 0 0 0 0 0 0 0 0 0 0 0 0 0 0 0 0 0 0 0 0 0 0 0 0 0 0 0 0 0 0 0 0 0 0 0 0 0 0 0 0 0 0 0 0 0 0 0 0 0 0 0 0 0 84 84 82 82 83 81 80 81 81 80 80 81 80 78 81 82 81 81 81 80 83 83 81 85 82 81 83 81 81 80 80 80 76 79 81 79 80 81 79 79 79 81 79 80 82 80 80 81 80 80 79 79 79 76 79 77 77 77 81 80 82 79 83 80 80 85 81 81 81 81 82 82 82 83 79 83 83 83 82 81 80 80 79 81 85 79 79 80 79 78 78 77 78 74 75 75 74 75 78 76 77 76 76 79 79 82 81 80 82 82 81 82 81 79 77 78 78 77 77 78 77 75 79 77 80 84 83 84 84 81 84 80 81 80 78 79 78 77 79 76 78 77 77 79 78 82 81 82 81 80 81 80 80 81 78 79 78 80 84 85 85 84 82 82 79 79 79 81 78 78 79 79 78 80 79 79 79 80 80 78 77 78 77 77 78 75 76 77 78 79 81 83 82 82 82 83 84 85 87 89 90 -209 -209 -209 -209 -209 -209 -193 -193 -193 -193 -177 -177 -193 108 110 109 107 109 109 108 106 107 107 104 103 100 -193 -193 -193 -209 -193 -209 -193 -209 86 -209 80 83 88 95 100 106 119 119 122 0 0 0 0 0
    0 0 0 0 0 0 0 0 0 0 0 0 0 0 0 0 0 0 0 0 0 0 0 0 0 0 0 0 0 0 0 0 0 0 0 0 0 0 0 0 0 0 0 0 0 0 0 0 0 0 0 0 0 0 0 0 0 0 0 0 0 0 0 0 0 0 0 0 0 86 85 83 82 83 81 81 81 81 80 80 81 81 78 81 83 82 82 82 82 84 85 83 86 83 82 83 82 81 81 80 81 77 79 81 81 81 83 79 79 81 82 82 81 83 80 80 81 81 80 79 79 79 75 80 78 77 78 84 84 84 81 85 82 83 86 82 82 82 82 83 82 83 84 79 84 84 84 83 82 82 81 81 81 85 80 80 81 79 79 80 79 80 75 77 76 75 78 81 77 79 78 78 81 81 85 82 81 83 83 81 82 81 80 77 79 79 78 78 79 78 76 81 78 83 86 84 85 85 83 84 81 82 80 79 79 78 78 79 76 78 78 77 79 78 82 82 82 82 81 82 82 81 82 79 79 78 78 83 84 83 84 81 82 80 81 80 81 79 79 79 80 79 80 79 80 79 81 82 79 78 81 80 80 81 78 80 82 81 82 83 83 82 83 83 83 84 85 86 88 88 89 89 90 -193 -209 -193 103 108 107 107 -193 -193 108 108 110 110 107 109 108 108 105 106 106 103 102 98 88 88 89 87 85 85 85 86 85 86 83 85 90 97 99 102 104 108 117 0 0 0 0 0
    0 0 0 0 0 0 0 0 0 0 0 0 0 0 0 0 0 0 0 0 0 0 0 0 0 0 0 0 0 0 0 0 0 0 0 0 0 0 0 0 0 0 0 0 0 0 0 0 0 0 0 0 0 0 0 0 0 0 0 0 0 0 0 0 0 0 0 0 0 86 85 84 83 83 81 81 81 81 80 80 82 81 78 82 83 82 83 83 84 85 86 84 87 83 83 83 83 82 82 81 81 77 81 83 82 82 84 79 80 83 84 84 83 84 81 81 82 81 80 80 79 79 76 81 79 78 81 85 86 85 83 86 84 84 86 83 83 83 83 84 83 84 84 80 85 85 85 84 84 83 80 82 80 85 81 80 81 80 80 81 80 81 76 80 79 77 82 83 80 82 81 81 83 84 86 83 83 84 84 82 82 81 81 78 80 79 79 78 79 79 78 82 80 84 86 84 85 85 83 84 82 82 80 79 80 78 78 78 76 77 77 77 78 77 81 82 82 82 82 82 82 82 83 80 80 80 80 84 85 84 85 81 82 81 82 80 82 80 79 79 81 80 80 79 81 80 82 83 80 79 82 82 82 82 79 82 84 82 83 84 84 82 83 84 83 85 85 85 86 87 87 88 89 90 100 98 102 108 107 107 107 -193 108 108 110 109 107 109 108 108 105 106 105 102 101 97 88 87 88 87 85 85 86 87 86 86 85 87 90 96 99 101 104 103 105 0 0 0 0 0
    0 0 0 0 0 0 0 0 0 0 0 0 0 0 0 0 0 0 0 0 0 0 0 0 0 0 0 0 0 0 0 0 0 0 0 0 0 0 0 0 0 0 0 0 0 0 0 0 0 0 0 0 0 0 0 0 0 0 0 0 0 0 0 0 0 0 0 0 0 87 87 86 85 84 82 82 82 82 81 81 82 82 79 83 84 83 84 85 85 86 87 86 87 84 84 84 83 83 82 81 82 78 83 83 84 83 86 80 82 85 85 86 84 85 82 82 83 82 81 80 80 80 77 84 83 83 88 89 89 88 86 88 85 85 87 83 83 83 84 84 83 84 84 81 86 86 86 85 84 84 80 82 79 86 81 81 82 81 81 82 81 83 77 83 82 80 84 84 83 83 83 83 85 84 87 83 83 84 84 82 82 81 81 78 80 80 80 79 80 80 80 83 82 85 87 85 86 85 84 85 83 83 82 79 80 78 78 78 76 77 77 77 78 78 82 83 82 83 82 82 83 82 83 81 80 81 81 84 86 84 86 82 81 82 83 82 83 81 81 81 83 82 82 81 82 82 83 84 82 82 84 84 83 82 79 83 83 83 83 85 84 82 84 84 84 85 85 85 86 87 88 89 90 91 100 97 102 106 106 107 107 -193 107 108 109 109 107 109 108 107 105 106 102 102 101 97 89 88 88 87 86 86 86 87 87 87 86 88 91 94 96 98 99 100 101 0 0 0 0 0
    0 0 0 0 0 0 0 0 0 0 0 0 0 0 0 0 0 0 0 0 0 0 0 0 0 0 0 0 0 0 0 0 0 0 0 0 0 0 0 0 0 0 0 0 0 0 0 0 0 0 0 0 0 0 0 0 0 0 0 0 0 0 0 0 0 0 0 0 0 88 88 88 87 86 84 83 83 83 82 81 83 83 78 84 85 84 86 87 87 88 88 87 88 85 85 85 83 83 83 82 82 79 83 84 85 85 87 84 85 88 88 88 87 86 83 83 84 83 82 81 81 82 80 89 89 89 91 92 93 91 89 90 86 86 87 84 84 84 84 85 84 85 85 82 87 87 87 86 85 85 82 84 82 87 82 82 83 82 82 83 83 83 78 84 83 80 84 83 83 83 83 83 85 84 87 83 83 84 84 82 82 81 82 78 81 81 80 79 81 82 81 84 83 86 87 85 86 85 85 85 84 84 82 80 82 79 78 78 76 78 78 77 79 79 83 84 83 83 83 83 83 83 84 82 80 83 83 86 87 84 87 82 81 83 84 83 84 83 83 83 85 85 84 83 84 84 85 86 84 86 86 86 85 84 83 86 86 85 85 87 86 83 85 85 84 85 85 85 86 88 89 90 92 93 101 98 102 105 105 106 106 -193 107 108 108 108 107 108 108 107 105 105 99 100 99 95 89 88 89 87 86 87 88 89 89 89 88 90 92 95 96 97 98 98 100 0 0 0 0 0
    0 0 0 0 0 0 0 0 0 0 0 0 0 0 0 0 0 0 0 0 0 0 0 0 0 0 0 0 0 0 0 0 0 0 0 0 0 0 0 0 0 0 0 0 0 0 0 0 0 0 0 0 0 0 0 0 0 0 0 0 0 0 0 0 0 0 0 0 0 89 89 89 89 86 85 85 84 84 83 82 83 83 78 86 86 85 87 89 88 89 89 88 88 86 86 85 84 84 83 82 83 80 84 84 85 86 87 85 86 89 89 89 88 86 84 84 85 84 83 82 83 84 85 90 91 91 92 93 94 92 90 91 88 88 88 85 85 85 86 86 85 86 86 83 87 88 88 87 87 87 85 87 85 88 84 84 85 84 83 84 84 84 79 85 84 82 85 84 84 83 84 84 85 84 86 83 83 84 84 83 83 82 83 79 83 82 81 80 81 82 82 85 83 86 87 85 86 85 85 85 84 84 83 80 83 80 81 79 77 79 79 78 80 80 84 85 83 83 83 83 84 83 84 83 80 84 84 86 86 85 87 84 83 84 85 84 85 84 85 84 85 86 85 85 86 85 86 87 86 88 87 87 86 86 86 89 89 89 88 91 89 86 87 86 85 86 86 86 87 89 90 92 93 94 100 98 102 104 105 105 106 -193 107 107 108 108 107 108 108 106 105 105 95 98 96 93 89 88 88 87 86 87 88 89 90 91 90 91 93 95 95 94 93 92 93 0 0 0 0 0
    0 0 0 0 0 0 0 0 0 0 0 0 0 0 0 0 0 0 0 0 0 0 0 0 0 0 0 0 0 0 0 0 0 0 0 0 0 0 0 0 0 0 0 0 0 0 0 0 0 0 0 0 0 0 0 0 0 0 0 0 0 0 0 0 0 0 0 0 0 89 89 90 89 87 86 86 85 85 83 83 83 84 80 87 87 86 87 90 89 89 90 89 89 87 88 87 84 84 84 82 83 81 84 84 85 86 87 86 87 89 89 89 88 87 85 85 85 85 -193 83 85 86 87 91 92 92 93 93 96 93 92 93 90 89 89 87 87 86 87 87 87 87 87 85 88 90 90 89 89 90 88 89 88 90 86 85 86 85 85 85 85 85 81 87 86 84 86 85 85 84 86 85 86 85 87 83 84 85 85 84 84 83 84 81 85 83 82 81 83 84 84 86 84 87 87 85 86 85 85 85 84 84 84 82 84 82 84 80 78 78 79 77 81 80 84 85 83 84 84 83 84 84 85 83 82 85 86 86 86 85 87 84 83 85 85 85 86 86 86 85 87 87 87 87 87 87 87 88 87 88 87 87 86 86 87 89 89 89 89 91 91 89 90 89 86 87 87 87 88 90 91 92 93 94 100 98 102 103 104 104 105 -193 106 107 107 107 107 109 108 106 105 105 94 96 95 92 89 87 88 86 86 87 89 89 90 91 91 93 94 96 95 93 93 89 89 0 0 0 0 0
    0 0 0 0 0 0 0 0 0 0 0 0 0 0 0 0 0 0 0 0 0 0 0 0 0 0 0 0 0 0 0 0 0 0 0 0 0 0 0 0 0 0 0 0 0 0 0 0 0 0 0 0 0 0 0 0 0 0 0 0 0 0 0 0 0 0 0 0 0 89 89 90 90 88 89 89 88 88 85 86 84 84 83 87 87 86 88 90 89 89 90 89 90 89 89 88 85 85 85 82 83 82 84 84 86 87 87 86 87 89 89 89 88 87 85 86 86 85 -193 85 86 88 89 91 92 92 94 94 97 93 93 95 92 90 90 88 88 87 88 88 88 88 87 87 89 91 91 91 91 91 89 90 90 91 87 86 87 86 86 86 86 86 82 88 88 85 87 86 87 85 87 87 87 86 87 84 85 85 86 84 84 84 84 82 86 85 84 83 85 85 86 88 85 87 87 85 86 86 86 85 85 85 85 84 85 85 87 83 82 78 80 78 80 80 84 84 83 83 84 83 84 84 85 84 84 87 87 87 87 86 88 84 84 85 85 85 86 86 86 85 88 88 88 88 89 89 89 89 89 90 88 87 87 87 88 90 89 89 89 92 92 92 92 92 88 89 89 88 89 90 91 92 93 94 99 98 102 102 102 103 -193 -193 106 107 107 107 107 109 108 106 105 106 94 96 95 92 89 88 88 87 86 87 88 89 91 92 92 94 95 97 97 95 95 91 90 0 0 0 0 0
    0 0 0 0 0 0 0 0 0 0 0 0 0 0 0 0 0 0 0 0 0 0 0 0 0 0 0 0 0 0 0 0 0 0 0 0 0 0 0 0 0 0 0 0 0 0 0 0 0 0 0 0 0 0 0 0 0 0 0 0 0 0 0 0 0 0 0 0 0 88 88 89 -193 88 90 91 90 90 87 89 87 86 86 87 87 87 88 90 89 89 90 90 90 90 90 89 87 87 87 83 84 83 84 85 86 87 88 87 88 90 89 89 88 88 86 86 86 86 -193 86 87 89 89 92 93 93 95 94 97 93 93 95 93 91 90 89 89 88 89 89 89 89 88 88 89 91 91 92 92 92 90 91 91 92 88 88 87 87 86 87 87 87 84 89 89 85 87 86 88 87 89 88 88 88 88 86 87 86 87 85 85 85 85 84 88 87 87 87 87 88 88 90 87 88 87 86 86 86 87 86 86 86 85 85 86 87 89 87 88 80 85 82 83 82 84 85 83 84 84 84 85 85 86 86 86 88 88 88 88 87 88 84 84 86 86 86 86 87 87 86 89 89 89 90 90 90 91 90 91 92 89 89 87 88 89 91 90 90 90 93 93 93 94 94 89 89 88 88 89 90 90 92 92 94 98 98 102 101 101 102 104 -193 105 107 106 106 107 109 108 106 106 107 95 97 96 93 90 89 89 88 87 87 89 90 92 92 93 95 96 98 97 96 96 92 91 0 0 0 0 0
    0 0 0 0 0 0 0 0 0 0 0 0 0 0 0 0 0 0 0 0 0 0 0 0 0 0 0 0 0 0 0 0 0 0 0 0 0 0 0 0 0 0 0 0 0 0 0 0 0 0 0 0 0 0 0 0 0 0 0 0 0 0 0 0 0 0 0 0 0 88 88 89 90 89 92 93 92 92 90 92 91 89 89 88 88 88 89 92 90 90 91 90 91 91 91 90 89 90 90 86 86 85 86 86 87 88 89 89 89 91 89 90 89 88 87 87 87 87 -193 87 -193 90 90 93 93 94 96 95 97 93 93 94 92 91 90 89 89 88 90 90 89 89 89 88 90 91 92 92 92 92 90 91 91 93 89 89 88 88 87 88 88 88 85 89 89 86 87 87 88 88 90 89 88 89 90 88 88 88 88 87 87 87 86 86 89 89 89 89 90 90 90 91 89 88 88 86 87 86 87 86 86 86 86 86 87 89 89 88 89 83 89 86 86 84 85 85 84 85 85 84 86 86 87 87 88 89 89 89 89 88 89 85 85 86 86 86 87 87 88 87 90 90 90 91 92 92 92 91 93 93 91 90 89 89 90 91 91 91 91 94 94 94 95 95 90 90 89 88 89 91 91 92 92 95 98 98 103 100 100 102 104 -193 104 107 106 106 108 110 109 107 107 108 98 98 98 93 90 89 90 89 88 88 90 90 93 93 94 96 97 98 98 97 96 94 93 0 0 0 0 0
    0 0 0 0 0 0 0 0 0 0 0 0 0 0 0 0 0 0 0 0 0 0 0 0 0 0 0 0 0 0 0 0 0 0 0 0 0 0 0 0 0 0 0 0 0 0 0 0 0 0 0 0 0 0 0 0 0 0 0 0 0 0 0 0 0 0 0 0 0 89 89 90 90 89 93 94 93 93 93 95 96 93 92 92 91 89 90 93 90 90 91 91 91 91 92 91 90 92 92 89 89 88 88 89 91 91 92 92 91 93 90 90 89 88 88 88 88 88 -209 89 91 91 92 94 95 95 96 95 98 93 93 94 92 91 90 90 89 89 90 90 90 89 90 89 90 92 92 92 92 92 91 91 92 93 90 89 89 89 89 89 89 89 86 89 90 87 88 87 89 89 90 90 90 90 90 89 90 89 89 88 88 88 88 89 90 90 90 91 91 91 91 93 92 89 88 87 87 87 88 87 88 87 88 88 89 89 90 89 90 -193 90 89 89 87 86 87 85 86 86 86 87 88 89 89 90 91 91 91 91 90 90 87 86 87 87 87 88 88 90 89 90 91 91 92 93 93 93 92 94 94 92 90 89 90 90 91 91 91 91 94 94 95 96 96 91 91 90 88 90 92 92 93 93 96 98 99 103 100 100 101 103 -193 104 107 107 106 108 110 110 108 108 109 100 100 99 94 91 90 91 90 90 90 92 91 94 95 96 98 98 98 98 98 97 96 96 0 0 0 0 0
    0 0 0 0 0 0 0 0 0 0 0 0 0 0 0 0 0 0 0 0 0 0 0 0 0 0 0 0 0 0 0 0 0 0 0 0 0 0 0 0 0 0 0 0 0 0 0 0 0 0 0 0 0 0 0 0 0 0 0 0 0 0 0 0 0 0 0 0 0 90 90 91 91 90 93 94 95 94 96 98 99 96 95 95 94 91 92 94 91 91 92 92 92 92 93 92 90 93 93 90 90 90 90 92 95 93 95 94 93 95 91 91 90 88 88 87 88 88 -209 90 92 93 94 96 96 96 97 97 98 95 95 95 93 91 91 90 90 90 91 91 91 90 90 90 91 92 92 92 92 92 91 92 92 93 91 90 90 90 89 90 90 89 87 90 91 89 89 88 89 90 91 91 91 91 91 90 91 91 90 90 90 90 89 90 91 91 92 93 92 93 93 96 95 93 91 89 89 88 90 89 89 89 89 89 89 90 90 89 90 90 91 91 91 90 88 88 87 87 87 87 88 90 90 91 91 92 92 92 92 91 91 88 88 88 88 88 89 89 91 90 91 91 92 93 93 94 94 92 95 95 93 91 90 91 91 92 92 93 93 95 96 96 97 97 92 93 92 90 92 92 93 95 94 98 98 99 103 99 99 101 103 104 104 107 107 106 108 110 110 108 108 109 101 100 100 94 92 90 92 90 91 91 93 92 96 96 99 99 99 99 99 99 98 97 98 0 0 0 0 0
    0 0 0 0 0 0 0 0 0 0 0 0 0 0 0 0 0 0 0 0 0 0 0 0 0 0 0 0 0 0 0 0 0 0 0 0 0 0 0 0 0 0 0 0 0 0 0 0 0 0 0 0 0 0 0 0 0 0 0 0 0 0 0 0 0 0 0 0 0 91 91 91 92 91 94 94 96 94 98 98 98 97 95 95 95 92 93 94 91 92 93 93 93 93 94 93 91 95 94 91 91 92 91 95 98 96 97 97 95 98 93 93 91 88 88 87 87 -193 -209 90 92 93 95 96 97 97 98 98 99 96 96 96 95 92 92 91 91 91 91 91 91 90 91 90 91 92 92 92 92 92 92 92 93 95 92 91 91 91 90 91 90 90 87 90 91 89 89 89 90 91 92 91 92 92 91 91 92 92 91 91 91 91 90 91 92 91 92 94 93 94 94 98 99 98 99 93 91 89 92 90 90 89 90 90 90 90 91 90 90 90 92 92 91 91 88 89 88 88 89 89 89 92 91 92 92 93 93 93 93 92 92 90 90 90 88 88 89 89 93 90 91 91 93 93 94 94 95 92 95 95 94 91 92 94 92 94 94 94 95 97 98 98 98 98 94 96 96 95 96 93 95 95 95 99 99 100 103 100 100 102 103 104 104 107 107 106 108 110 109 108 109 109 101 100 100 93 91 90 92 90 91 91 93 92 96 96 100 99 99 99 99 100 100 99 101 0 0 0 0 0
    0 0 0 0 0 0 0 0 0 0 0 0 0 0 0 0 0 0 0 0 0 0 0 0 0 0 0 0 0 0 0 0 0 0 0 0 0 0 0 0 0 0 0 0 0 0 0 0 0 0 0 0 0 0 0 0 0 0 0 0 0 0 0 0 0 0 0 0 0 92 92 92 92 92 96 95 98 94 99 99 99 98 96 95 95 92 94 94 91 92 93 94 94 94 95 94 93 96 96 93 93 95 94 97 100 98 99 99 98 99 95 94 92 88 88 87 86 -193 -209 89 92 93 95 96 96 97 98 99 99 97 97 97 95 93 93 92 91 91 92 92 91 91 91 90 91 92 92 92 92 92 92 93 93 96 93 92 92 92 91 92 92 91 88 90 91 90 90 91 90 92 93 92 93 93 92 92 93 93 92 92 92 92 91 92 93 92 93 94 93 94 94 98 101 102 105 100 94 91 95 91 91 90 90 90 90 91 91 90 90 90 91 91 90 90 88 89 89 89 90 90 91 93 92 94 93 93 94 93 93 92 92 92 91 92 89 89 90 89 94 91 91 92 93 93 94 94 95 92 96 96 95 92 95 97 94 96 96 95 95 97 99 98 99 99 96 98 98 98 99 94 97 96 96 100 99 101 104 100 101 102 103 103 104 107 107 106 108 110 109 108 109 110 103 102 102 95 93 91 93 91 93 92 93 92 94 95 98 97 98 98 100 101 101 101 103 0 0 0 0 0
    0 0 0 0 0 0 0 0 0 0 0 0 0 0 0 0 0 0 0 0 0 0 0 0 0 0 0 0 0 0 0 0 0 0 0 0 0 0 0 0 0 0 0 0 0 0 0 0 0 0 0 0 0 0 0 0 0 0 0 0 0 0 0 0 0 0 0 0 0 93 93 92 93 93 97 96 99 94 99 100 99 99 97 96 95 93 95 94 91 92 94 94 95 96 97 96 94 98 97 95 95 97 96 99 101 99 100 100 99 100 97 96 93 88 88 87 87 -193 -193 89 92 92 94 95 96 97 98 100 99 98 98 98 96 94 94 94 92 92 92 93 92 91 92 90 91 92 92 92 92 92 93 93 93 97 94 93 93 92 92 93 93 93 89 91 92 91 91 93 92 94 94 93 94 94 93 93 93 93 92 92 92 92 91 93 93 92 93 94 92 93 93 96 100 102 103 102 98 94 98 94 92 92 92 92 91 92 92 91 91 90 91 90 89 90 88 90 90 91 92 91 92 95 93 94 94 94 94 93 94 93 92 93 92 93 92 91 92 91 97 92 93 93 95 94 94 96 96 93 98 97 96 94 99 100 96 98 97 95 96 98 100 99 99 100 98 99 100 101 101 96 100 99 99 101 101 102 104 101 102 103 103 103 104 108 107 106 109 110 109 108 110 110 105 104 104 98 96 94 96 94 95 93 94 92 93 94 98 97 97 98 100 102 103 103 104 0 0 0 0 0
    0 0 0 0 0 0 0 0 0 0 0 0 0 0 0 0 0 0 0 0 0 0 0 0 0 0 0 0 0 0 0 0 0 0 0 0 0 0 0 0 0 0 0 0 0 0 0 0 0 0 0 0 0 0 0 0 0 0 0 0 0 0 0 0 0 0 0 0 0 93 94 93 94 95 98 97 100 95 100 100 99 99 98 97 96 94 97 95 92 93 95 96 97 97 98 97 96 99 99 97 97 99 97 100 102 100 101 101 100 101 99 98 95 89 91 89 89 90 90 91 93 93 95 96 97 98 99 100 99 99 99 99 97 96 96 95 93 93 93 93 92 92 92 91 92 92 92 92 92 92 93 93 94 98 95 93 94 94 94 94 94 95 90 92 94 92 93 94 94 96 94 94 96 96 94 94 94 93 92 93 93 93 92 93 94 93 94 95 92 93 93 95 98 99 98 99 97 94 98 95 93 93 93 93 92 93 93 92 92 91 91 91 90 90 89 91 91 92 93 92 93 96 93 94 94 94 94 93 95 95 94 96 95 97 97 95 95 93 100 94 94 94 96 94 95 96 97 94 98 98 97 96 100 100 99 99 98 97 98 99 101 99 100 101 100 101 101 103 103 101 104 103 103 103 102 104 105 103 103 104 104 104 104 109 107 107 109 110 109 108 111 111 105 106 106 100 98 96 98 96 97 95 94 93 93 94 98 96 96 98 101 103 104 104 105 0 0 0 0 0
    0 0 0 0 0 0 0 0 0 0 0 0 0 0 0 0 0 0 0 0 0 0 0 0 0 0 0 0 0 0 0 0 0 0 0 0 0 0 0 0 0 0 0 0 0 0 0 0 0 0 0 0 0 0 0 0 0 0 0 0 0 0 0 0 0 0 0 0 0 94 95 94 95 96 98 98 100 95 101 101 99 100 99 98 98 96 99 97 94 96 97 98 99 99 100 99 98 100 100 98 99 99 97 100 102 100 101 101 101 101 100 100 98 91 94 91 91 92 92 93 94 94 96 97 98 98 99 100 100 100 99 99 98 97 97 96 95 95 94 94 93 93 93 92 93 93 93 93 92 92 93 94 94 99 97 95 95 95 96 96 96 98 92 94 96 95 96 96 95 97 94 95 96 96 95 94 95 94 93 95 95 94 93 94 95 94 95 95 92 93 93 94 98 98 97 98 97 95 98 95 94 94 94 94 93 93 93 92 92 92 92 91 90 91 90 92 91 92 94 92 93 96 94 95 94 94 95 94 96 96 96 98 98 100 100 99 99 96 101 95 95 96 98 95 96 97 98 95 99 99 98 97 100 101 99 99 99 98 99 100 101 100 101 102 101 101 102 103 104 103 105 105 105 104 103 105 105 103 104 104 105 105 105 109 107 107 109 110 109 109 111 111 106 107 106 100 99 98 99 98 98 97 97 95 95 97 99 97 96 98 101 103 104 105 105 0 0 0 0 0
    0 0 0 0 0 0 0 0 0 0 0 0 0 0 0 0 0 0 0 0 0 0 0 0 0 0 0 0 0 0 0 0 0 0 0 0 0 0 0 0 0 0 0 0 0 0 0 0 0 0 0 0 0 0 0 0 0 0 0 0 0 0 0 0 0 0 0 0 0 96 97 95 97 98 98 98 100 96 101 101 100 100 99 99 99 97 100 98 95 100 99 100 101 101 102 101 100 101 101 100 99 100 97 100 102 100 101 101 101 101 101 102 100 93 98 94 94 94 94 94 95 95 97 97 99 99 100 101 100 101 100 100 99 98 99 98 98 98 96 96 96 97 97 96 97 95 95 94 94 -193 96 95 95 100 98 96 97 97 98 97 98 99 94 96 98 97 97 97 96 97 94 95 96 96 95 95 95 95 94 97 96 95 95 95 95 95 96 95 92 93 94 95 99 99 98 99 98 97 99 96 95 95 95 95 94 95 94 94 94 93 94 93 91 92 90 92 92 93 94 93 93 96 94 95 94 94 95 94 98 97 97 99 99 100 101 99 100 97 102 96 96 97 98 95 96 97 98 96 100 100 98 98 101 101 100 100 99 99 99 101 102 101 101 102 102 102 103 104 104 104 106 106 106 105 104 106 106 104 105 105 105 105 105 110 108 107 110 110 109 109 111 111 106 108 107 101 100 99 101 99 100 98 98 96 97 99 100 98 97 99 102 104 105 106 106 0 0 0 0 0
    0 0 0 0 0 0 0 0 0 0 0 0 0 0 0 0 0 0 0 0 0 0 0 0 0 0 0 0 0 0 0 0 0 0 0 0 0 0 0 0 0 0 0 0 0 0 0 0 0 0 0 0 0 0 0 0 0 0 0 0 0 0 0 0 0 0 0 0 0 96 98 96 97 98 98 98 101 96 102 101 100 100 99 99 99 98 100 98 96 102 101 103 104 104 104 103 -193 -193 101 100 99 99 97 100 102 100 101 101 101 102 101 102 101 96 100 97 97 96 95 96 97 96 98 98 100 100 101 102 101 101 101 100 100 100 100 100 100 100 99 99 99 101 101 101 101 99 99 100 100 -193 -193 99 98 101 100 99 99 99 99 98 100 100 95 97 99 98 98 98 97 98 94 96 97 95 95 95 95 95 95 98 97 96 96 96 97 96 98 96 92 94 95 96 99 99 98 99 98 98 99 96 96 96 96 98 96 97 97 97 97 97 97 97 93 94 91 93 93 93 95 93 94 97 95 95 94 95 96 94 99 97 97 99 99 99 100 99 99 96 102 97 96 98 99 96 96 98 98 97 100 100 99 99 102 102 102 102 101 101 101 103 103 103 103 103 102 103 103 105 105 105 106 106 106 105 105 106 106 105 105 106 106 106 106 110 108 108 110 110 109 109 111 110 106 108 108 102 101 101 102 101 101 99 99 98 99 100 99 98 97 100 103 104 107 107 108 0 0 0 0 0
    0 0 0 0 0 0 0 0 0 0 0 0 0 0 0 0 0 0 0 0 0 0 0 0 0 0 0 0 0 0 0 0 0 0 0 0 0 0 0 0 0 0 0 0 0 0 0 0 0 0 0 0 0 0 0 0 0 0 0 0 0 0 0 0 0 0 0 0 0 96 98 96 97 99 99 99 101 96 102 101 100 100 99 99 99 98 100 98 97 103 101 104 106 106 105 -209 -209 -193 102 101 100 100 98 101 102 100 101 101 101 101 101 102 101 96 101 98 98 97 96 96 96 96 98 98 101 101 102 103 102 102 102 101 101 101 101 101 101 101 100 100 101 103 103 103 104 102 103 103 105 -193 103 101 101 103 102 101 101 101 101 100 101 101 97 97 99 99 99 99 99 99 96 98 99 97 97 96 96 95 97 99 98 97 98 97 98 97 99 96 92 94 95 97 100 99 98 99 99 99 99 97 97 97 98 100 99 100 99 100 100 100 99 98 94 95 92 94 93 94 95 95 96 99 97 97 95 96 98 95 100 97 97 99 98 99 99 98 99 95 102 97 97 98 99 96 97 98 98 98 101 101 100 100 102 103 103 103 103 103 103 105 105 104 105 104 103 104 104 106 105 105 106 106 106 106 105 106 106 105 106 107 107 106 107 111 108 109 111 110 110 109 111 109 106 108 107 102 102 102 102 100 101 100 100 98 99 99 99 97 97 99 103 104 108 109 110 0 0 0 0 0
    0 0 0 0 0 0 0 0 0 0 0 0 0 0 0 0 0 0 0 0 0 0 0 0 0 0 0 0 0 0 0 0 0 0 0 0 0 0 0 0 0 0 0 0 0 0 0 0 0 0 0 0 0 0 0 0 0 0 0 0 0 0 0 0 0 0 0 0 0 96 98 96 98 100 100 99 101 96 102 101 100 100 99 99 99 99 101 99 98 103 100 104 106 105 -193 -209 -209 -193 101 101 100 100 97 100 102 100 101 101 101 101 101 102 101 96 102 98 98 96 96 96 95 95 97 97 101 101 103 103 102 102 102 102 101 101 101 101 101 100 100 100 102 103 104 104 106 105 106 106 -193 106 105 103 103 104 103 102 102 102 102 101 102 102 98 98 99 99 99 99 100 100 97 101 101 100 100 99 98 97 100 101 99 99 99 99 99 99 100 97 93 95 97 98 100 99 99 99 100 100 100 98 99 100 101 102 101 101 100 101 101 100 99 98 94 96 92 94 94 95 97 97 98 102 100 100 97 98 100 97 101 98 98 99 98 99 99 98 99 95 102 98 97 99 99 96 98 98 98 98 101 101 100 101 103 103 104 104 104 104 105 106 106 106 106 106 105 105 104 106 106 106 106 107 106 106 106 107 106 106 107 108 107 107 108 111 108 109 111 110 109 109 110 109 106 107 107 103 102 102 103 101 102 101 101 99 100 100 99 97 97 101 -209 107 112 113 113 0 0 0 0 0
    0 0 0 0 0 0 0 0 0 0 0 0 0 0 0 0 0 0 0 0 0 0 0 0 0 0 0 0 0 0 0 0 0 0 0 0 0 0 0 0 0 0 0 0 0 0 0 0 0 0 0 0 0 0 0 0 0 0 0 0 0 0 0 0 0 0 0 0 0 97 99 98 99 101 101 100 102 96 102 100 99 100 99 99 99 99 101 99 100 104 101 -193 110 108 -209 -209 -193 102 102 101 100 101 98 100 102 100 100 100 101 101 100 101 101 96 101 98 98 97 97 97 97 96 99 99 103 102 103 103 103 102 102 101 101 101 101 101 101 100 101 101 102 104 105 105 107 106 -193 106 -193 105 104 103 103 104 104 103 103 103 103 -193 -193 103 99 99 100 99 100 99 100 100 98 101 102 102 102 102 101 100 102 102 101 101 101 100 100 101 101 99 96 98 98 98 100 98 99 98 100 100 100 99 100 101 103 104 102 102 101 101 101 100 99 98 94 96 93 94 95 96 98 100 100 103 102 102 100 100 102 100 102 99 99 100 99 99 100 99 100 95 102 99 97 100 99 97 99 99 99 99 102 102 101 102 103 103 104 104 104 105 106 107 107 107 108 108 107 107 106 108 107 107 108 108 108 107 107 109 106 106 107 108 108 107 109 110 108 109 111 110 109 109 110 108 106 107 107 104 103 104 104 103 104 103 102 101 102 102 101 99 98 -193 -193 -209 114 116 114 0 0 0 0 0
    0 0 0 0 0 0 0 0 0 0 0 0 0 0 0 0 0 0 0 0 0 0 0 0 0 0 0 0 0 0 0 0 0 0 0 0 0 0 0 0 0 0 0 0 0 0 0 0 0 0 0 0 0 0 0 0 0 0 0 0 0 0 0 0 0 0 0 0 0 99 101 99 101 102 102 102 103 97 102 100 99 100 99 99 99 99 101 99 101 105 -193 -193 119 117 -209 -193 -209 104 104 103 102 102 99 101 102 100 100 100 100 100 100 101 101 97 102 100 100 99 100 100 100 100 102 102 105 104 105 105 104 103 103 102 102 101 101 101 101 101 102 102 103 105 106 105 107 106 106 105 104 104 103 102 102 104 103 102 102 103 103 102 103 103 100 100 101 100 101 100 100 100 98 101 101 103 103 103 102 102 103 102 101 101 101 101 101 101 102 100 99 99 99 99 99 97 98 97 99 100 100 99 101 102 104 105 103 102 101 101 101 101 99 99 95 97 94 97 98 100 100 102 102 104 104 104 102 102 103 102 103 100 100 100 100 100 100 99 100 96 102 99 98 100 100 98 100 100 100 100 102 102 102 103 103 103 104 105 105 105 106 107 107 108 109 109 109 108 107 110 108 108 108 109 108 108 108 109 107 108 109 109 109 109 110 111 109 110 111 110 110 109 109 108 106 108 107 105 104 104 105 105 105 105 104 103 104 104 103 102 101 -193 -193 -209 -193 115 114 0 0 0 0 0
    0 0 0 0 0 0 0 0 0 0 0 0 0 0 0 0 0 0 0 0 0 0 0 0 0 0 0 0 0 0 0 0 0 0 0 0 0 0 0 0 0 0 0 0 0 0 0 0 0 0 0 0 0 0 0 0 0 0 0 0 0 0 0 0 0 0 0 0 0 100 102 101 102 103 103 104 105 99 103 101 100 101 100 99 100 99 101 100 102 106 106 112 119 117 -193 115 118 113 110 106 105 104 102 103 103 101 101 100 101 101 100 102 101 98 104 102 103 102 103 103 104 104 107 106 108 107 108 107 106 104 104 103 103 102 102 101 102 101 103 102 104 106 106 106 108 107 107 106 105 104 103 103 103 104 103 103 103 103 103 103 103 103 101 101 102 101 101 100 101 100 99 102 101 102 103 103 103 103 104 103 102 102 102 102 102 102 102 101 101 100 101 100 100 99 99 98 100 101 101 100 102 102 105 106 103 102 101 101 101 101 100 100 96 98 96 99 100 101 101 103 103 104 105 105 104 104 105 103 104 101 101 101 100 100 101 100 100 96 103 100 99 101 101 100 101 100 100 101 103 103 102 103 103 103 104 104 105 106 107 108 108 108 110 110 110 109 107 110 107 108 108 109 108 108 108 109 107 109 110 110 110 110 111 111 110 111 111 110 110 109 109 108 107 108 107 105 104 105 105 106 107 108 106 106 107 107 106 106 104 104 -193 -193 -193 111 111 0 0 0 0 0
    0 0 0 0 0 0 0 0 0 0 0 0 0 0 0 0 0 0 0 0 0 0 0 0 0 0 0 0 0 0 0 0 0 0 0 0 0 0 0 0 0 0 0 0 0 0 0 0 0 0 0 0 0 0 0 0 0 0 0 0 0 0 0 0 0 0 0 0 0 103 104 104 105 105 105 105 106 101 104 101 100 101 100 100 100 100 102 101 103 107 109 114 119 117 119 117 118 116 113 108 107 107 104 104 104 102 101 101 101 101 101 102 103 101 107 106 108 -193 109 109 110 108 111 109 110 111 110 109 108 106 106 104 103 103 102 102 102 101 103 103 105 108 108 107 109 107 108 107 106 105 104 103 103 104 103 103 103 103 103 103 104 104 101 102 103 103 103 102 102 102 102 104 103 104 105 105 105 105 105 104 103 104 104 103 103 103 104 102 103 103 103 101 101 101 101 100 102 102 102 101 103 103 105 105 102 102 101 101 101 101 100 100 97 99 97 100 100 102 101 103 103 104 106 106 105 105 106 105 105 101 101 102 101 101 101 100 101 96 103 101 100 102 101 101 101 101 101 102 103 104 103 104 103 104 104 104 105 106 107 108 108 109 110 111 112 109 108 111 108 109 109 109 108 108 108 108 106 108 110 110 109 109 111 111 110 111 111 110 110 109 109 107 107 108 107 105 105 106 106 107 108 110 108 108 108 109 107 107 105 105 -193 -193 -193 109 -193 0 0 0 0 0
    0 0 0 0 0 0 0 0 0 0 0 0 0 0 0 0 0 0 0 0 0 0 0 0 0 0 0 0 0 0 0 0 0 0 0 0 0 0 0 0 0 0 0 0 0 0 0 0 0 0 0 0 0 0 0 0 0 0 0 0 0 0 0 0 0 0 0 0 0 106 106 106 107 107 108 107 107 104 105 102 101 101 101 100 100 100 102 102 105 108 111 116 119 118 119 118 119 118 114 110 109 109 106 105 104 102 101 101 102 102 101 103 103 103 109 111 112 114 114 113 113 111 113 111 112 113 111 110 110 107 107 106 105 105 103 102 103 102 104 103 105 109 108 108 109 108 109 109 107 106 104 103 103 105 104 103 103 103 103 104 104 104 103 105 105 106 105 105 105 105 105 106 105 106 106 107 107 108 107 106 105 106 106 105 105 105 105 105 105 105 105 103 103 102 103 102 103 104 103 103 104 104 105 106 102 102 101 101 101 101 101 101 98 100 98 102 102 103 101 103 103 105 106 107 106 106 106 105 105 102 102 102 101 100 101 100 100 95 102 101 100 102 102 101 102 101 101 103 104 104 104 104 104 104 105 105 106 107 108 109 110 110 112 114 114 112 111 116 112 113 111 111 110 109 110 109 108 110 112 112 110 111 112 111 110 111 111 110 109 109 109 107 107 108 107 105 105 106 107 108 110 111 110 110 109 109 108 108 106 106 106 -209 -193 -193 -193 0 0 0 0 0
    0 0 0 0 0 0 0 0 0 0 0 0 0 0 0 0 0 0 0 0 0 0 0 0 0 0 0 0 0 0 0 0 0 0 0 0 0 0 0 0 0 0 0 0 0 0 0 0 0 0 0 0 0 0 0 0 0 0 0 0 0 0 0 0 0 0 0 0 0 108 108 108 109 109 110 109 109 106 106 103 102 102 102 101 101 101 103 103 105 108 111 115 118 118 119 119 119 118 115 111 110 111 108 107 106 104 102 102 102 102 102 104 104 105 111 113 115 115 115 114 114 111 113 112 112 113 111 110 110 109 108 107 106 106 104 103 103 103 104 103 105 107 107 107 109 108 110 111 107 107 105 105 104 106 104 104 103 104 105 105 106 106 105 107 109 109 108 109 107 108 108 108 107 107 107 108 108 108 107 106 106 107 107 107 107 106 107 106 107 107 107 105 104 104 104 103 105 105 104 104 105 106 106 108 102 102 101 101 101 101 101 101 99 102 101 104 105 106 103 104 104 105 107 107 106 106 106 106 106 102 102 102 101 100 101 100 100 96 103 102 102 103 103 103 104 103 102 103 104 104 105 104 105 105 106 107 107 108 110 110 111 110 113 114 115 113 113 118 116 116 116 115 113 111 111 110 108 111 113 112 111 111 113 110 111 111 111 109 109 109 108 106 107 107 106 105 105 107 108 110 111 112 111 111 110 110 108 108 106 106 106 -209 -209 -193 -193 0 0 0 0 0
    0 0 0 0 0 0 0 0 0 0 0 0 0 0 0 0 0 0 0 0 0 0 0 0 0 0 0 0 0 0 0 0 0 0 0 0 0 0 0 0 0 0 0 0 0 0 0 0 0 0 0 0 0 0 0 0 0 0 0 0 0 0 0 0 0 0 0 0 0 110 109 109 109 110 111 109 109 107 107 105 104 104 104 103 103 103 104 104 106 109 112 115 117 118 118 118 118 118 114 111 111 111 109 109 107 105 102 102 103 103 104 105 105 107 114 116 117 117 116 115 115 112 114 113 112 114 112 111 111 109 109 108 108 108 105 104 104 104 105 105 106 106 107 107 108 108 109 111 107 106 106 105 105 106 106 105 105 106 107 107 107 108 107 109 112 112 111 112 110 110 109 110 108 109 108 108 108 108 108 108 107 108 109 108 108 108 108 108 107 107 108 106 105 105 105 104 106 106 107 106 107 109 108 109 104 103 102 101 101 102 102 102 101 103 103 106 107 107 104 104 105 105 107 107 107 107 107 107 107 103 103 103 101 101 102 101 101 99 105 104 104 106 106 106 106 104 104 104 105 105 105 105 105 105 106 107 107 108 110 110 111 110 113 114 115 114 114 118 118 118 119 119 117 114 114 113 111 113 115 113 112 113 113 111 112 112 111 109 110 108 107 106 107 107 106 106 106 108 109 112 112 114 112 112 112 111 109 109 107 107 107 -209 -209 -193 111 0 0 0 0 0
    0 0 0 0 0 0 0 0 0 0 0 0 0 0 0 0 0 0 0 0 0 0 0 0 0 0 0 0 0 0 0 0 0 0 0 0 0 0 0 0 0 0 0 0 0 0 0 0 0 0 0 0 0 0 0 0 0 0 0 0 0 0 0 0 0 0 0 0 0 110 110 110 110 111 111 110 110 107 108 107 105 105 106 105 105 105 105 106 108 111 115 116 117 117 118 118 117 117 114 111 112 112 110 110 108 107 103 103 104 104 105 107 108 110 116 117 118 118 118 116 117 114 115 114 113 115 112 111 111 110 110 109 109 109 106 106 106 106 107 107 107 108 109 109 110 109 110 112 109 108 108 107 107 107 108 106 106 107 108 109 109 110 109 110 114 113 113 113 112 112 110 111 109 109 109 109 109 109 109 109 109 109 111 109 109 108 109 108 108 108 108 106 106 105 106 105 107 107 108 108 109 112 110 111 106 104 103 103 103 104 105 105 105 106 107 108 109 109 107 105 106 106 108 108 108 108 108 109 109 104 105 104 103 103 103 103 104 103 108 107 108 108 109 108 108 106 106 104 105 104 104 104 105 105 105 106 107 108 110 111 111 111 114 116 117 116 116 119 120 120 120 120 120 116 117 115 113 115 116 116 115 116 114 113 114 115 113 111 111 109 107 108 108 110 108 108 108 111 113 116 115 116 114 114 113 112 110 110 108 109 108 -193 -193 -193 112 0 0 0 0 0
    0 0 0 0 0 0 0 0 0 0 0 0 0 0 0 0 0 0 0 0 0 0 0 0 0 0 0 0 0 0 0 0 0 0 0 0 0 0 0 0 0 0 0 0 0 0 0 0 0 0 0 0 0 0 0 0 0 0 0 0 0 0 0 0 0 0 0 0 0 111 110 111 111 111 112 110 110 108 108 108 107 107 107 106 106 106 107 108 109 112 116 116 116 117 117 118 116 117 114 112 112 113 112 112 110 109 105 105 107 107 108 110 111 114 117 117 118 118 118 117 117 116 116 116 114 116 113 112 112 111 111 110 110 111 107 109 109 109 109 110 110 110 111 111 111 110 110 112 109 109 109 109 109 109 110 108 107 108 110 110 110 111 110 111 115 114 114 114 113 113 111 112 110 110 110 110 110 109 110 111 110 110 113 110 110 109 110 109 108 109 109 106 106 106 107 106 108 110 110 111 112 114 112 114 110 107 106 106 106 106 109 108 108 109 111 111 111 111 110 107 109 107 110 110 110 110 110 111 111 106 107 105 104 104 105 105 106 106 110 110 111 111 110 110 110 107 107 105 105 104 104 104 105 104 105 106 107 108 110 112 112 112 116 116 117 116 117 119 119 119 119 119 120 117 118 116 113 115 117 118 117 118 117 118 118 118 117 116 116 114 111 112 112 115 112 112 113 115 116 118 116 116 115 115 114 113 111 111 109 111 110 110 108 114 114 0 0 0 0 0
    0 0 0 0 0 0 0 0 0 0 0 0 0 0 0 0 0 0 0 0 0 0 0 0 0 0 0 0 0 0 0 0 0 0 0 0 0 0 0 0 0 0 0 0 0 0 0 0 0 0 0 0 0 0 0 0 0 0 0 0 0 0 0 0 0 0 0 0 0 112 111 111 111 112 112 111 111 109 109 110 108 109 109 108 108 108 108 109 110 112 114 115 115 116 116 117 116 117 114 113 113 114 113 114 111 112 107 109 111 110 111 112 111 114 116 116 117 118 118 117 118 116 117 116 115 117 114 112 113 112 112 111 111 112 108 110 111 112 111 112 111 112 112 112 113 111 111 113 111 111 111 111 110 111 114 110 109 110 112 111 111 113 111 111 115 115 115 115 114 114 112 113 111 112 110 110 110 110 111 113 112 112 115 112 112 111 111 110 109 110 110 107 107 107 108 108 109 111 111 112 113 116 113 115 112 110 109 109 108 108 112 110 110 111 113 113 113 113 112 109 111 110 112 112 112 111 111 112 113 107 108 106 106 105 106 106 108 108 112 112 112 112 112 111 110 108 109 106 105 104 104 105 106 104 105 107 108 109 111 113 113 113 117 116 117 117 117 119 118 118 118 117 120 116 117 115 112 114 117 119 119 120 119 121 121 122 120 120 119 117 115 116 116 118 117 116 118 118 118 119 117 117 115 114 114 113 111 111 110 113 114 -193 111 116 116 0 0 0 0 0
    0 0 0 0 0 0 0 0 0 0 0 0 0 0 0 0 0 0 0 0 0 0 0 0 0 0 0 0 0 0 0 0 0 0 0 0 0 0 0 0 0 0 0 0 0 0 0 0 0 0 0 0 0 0 0 0 0 0 0 0 0 0 0 0 0 0 0 0 0 113 111 111 111 112 112 110 111 109 109 110 109 110 110 109 109 109 109 111 111 112 113 113 114 115 115 117 116 117 115 114 114 115 114 114 112 112 107 110 111 110 110 111 110 113 115 115 116 117 118 117 118 117 117 117 115 118 114 113 113 112 113 112 111 112 107 110 111 112 111 113 112 112 113 113 113 112 112 114 112 112 112 112 112 114 116 112 112 113 114 113 113 114 113 112 115 115 115 115 115 114 113 114 113 113 112 111 112 112 112 114 113 113 116 113 114 112 113 112 111 111 111 108 109 109 109 109 110 112 112 114 114 116 114 116 115 113 112 113 110 109 114 112 111 112 113 114 114 114 114 110 113 113 114 114 114 113 114 114 115 109 111 108 107 107 108 108 110 109 113 113 113 113 113 112 111 109 110 107 104 104 105 105 107 105 106 107 109 109 112 115 115 115 117 117 117 117 118 118 118 118 118 117 120 117 119 117 114 114 117 120 120 121 120 121 121 122 121 120 118 116 113 116 115 118 117 117 120 119 119 119 117 117 114 114 114 112 111 112 112 117 117 -193 116 117 118 0 0 0 0 0
    0 0 0 0 0 0 0 0 0 0 0 0 0 0 0 0 0 0 0 0 0 0 0 0 0 0 0 0 0 0 0 0 0 0 0 0 0 0 0 0 0 0 0 0 0 0 0 0 0 0 0 0 0 0 0 0 0 0 0 0 0 0 0 0 0 0 0 0 0 113 111 111 112 112 112 110 111 109 108 110 109 110 111 110 110 110 110 111 111 112 113 113 114 115 115 117 116 117 115 114 115 115 114 115 112 112 107 111 111 110 110 111 110 112 114 114 115 117 118 117 118 117 117 117 115 118 114 113 113 112 112 112 111 112 107 110 111 112 112 113 113 113 114 114 114 113 112 115 112 112 112 113 113 115 117 114 114 115 116 115 115 115 114 113 115 116 115 115 115 115 114 114 114 114 113 113 113 113 113 115 114 114 117 114 114 113 113 113 112 112 112 109 111 111 111 111 112 114 114 115 115 117 116 116 116 115 115 115 114 113 116 114 113 114 114 115 115 114 115 111 114 114 115 115 114 114 115 115 116 112 113 110 109 108 109 109 112 110 114 114 114 113 113 112 112 109 112 108 105 104 105 105 108 106 107 109 110 110 113 116 116 116 118 117 118 117 118 118 118 118 118 117 120 119 121 120 118 117 119 123 122 123 121 121 121 122 121 120 118 116 112 115 114 116 116 117 120 120 119 120 117 117 114 114 114 112 112 113 115 119 119 119 117 118 118 0 0 0 0 0
    0 0 0 0 0 0 0 0 0 0 0 0 0 0 0 0 0 0 0 0 0 0 0 0 0 0 0 0 0 0 0 0 0 0 0 0 0 0 0 0 0 0 0 0 0 0 0 0 0 0 0 0 0 0 0 0 0 0 0 0 0 0 0 0 0 0 0 0 0 113 111 111 112 112 112 110 111 110 109 110 109 110 111 110 111 110 110 111 112 112 114 113 115 115 115 117 116 117 115 114 114 114 114 114 112 111 107 111 110 109 110 110 109 111 112 -193 114 116 117 117 117 117 117 117 115 118 113 113 112 112 112 112 112 113 107 111 112 113 112 114 113 113 114 114 114 114 113 115 113 113 113 114 115 116 118 115 115 115 116 116 115 116 115 113 115 116 116 116 116 115 114 115 114 115 113 113 113 113 113 115 114 114 117 114 115 114 114 114 113 113 113 109 112 112 112 112 114 115 114 116 116 117 117 117 117 117 118 118 118 117 119 116 116 116 115 116 116 115 115 111 114 115 115 115 115 114 116 115 116 114 115 113 112 110 111 111 114 111 115 115 115 114 114 113 113 110 113 108 106 104 105 106 109 107 109 110 111 111 114 117 117 117 118 117 118 118 118 118 118 118 118 118 121 120 123 123 122 121 122 125 123 124 122 122 122 122 120 120 118 116 112 116 116 117 117 119 121 121 119 120 117 116 113 113 115 113 113 114 117 119 119 119 117 117 118 0 0 0 0 0
    0 0 0 0 0 0 0 0 0 0 0 0 0 0 0 0 0 0 0 0 0 0 0 0 0 0 0 0 0 0 0 0 0 0 0 0 0 0 0 0 0 0 0 0 0 0 0 0 0 0 0 0 0 0 0 0 0 0 0 0 0 0 0 0 0 0 0 0 0 113 111 111 112 112 112 110 112 111 110 111 110 110 110 111 111 111 110 111 112 113 114 113 114 115 114 117 116 116 114 114 114 114 114 114 113 112 109 114 111 109 110 110 109 110 110 -193 -193 114 116 116 117 117 117 117 114 118 113 112 112 112 112 112 112 113 107 112 112 113 113 114 114 113 114 115 115 115 114 116 114 114 114 115 115 117 118 115 115 115 116 115 115 116 115 113 115 116 116 116 116 115 114 114 114 115 113 113 113 112 114 115 114 115 118 114 115 114 114 114 113 113 113 110 113 112 113 113 114 116 115 116 116 117 117 118 118 118 119 119 120 119 119 116 116 116 115 116 116 115 114 111 114 114 115 115 115 114 116 116 117 116 116 116 116 114 114 113 116 113 116 116 115 115 115 114 114 111 114 109 107 105 106 107 109 108 109 110 111 111 114 117 117 117 118 117 118 117 117 118 117 117 118 118 121 121 123 125 124 123 124 127 124 125 122 122 122 121 120 120 119 117 114 118 118 118 119 121 121 122 120 121 118 116 113 113 115 113 114 116 118 120 120 119 118 117 118 0 0 0 0 0
    0 0 0 0 0 0 0 0 0 0 0 0 0 0 0 0 0 0 0 0 0 0 0 0 0 0 0 0 0 0 0 0 0 0 0 0 0 0 0 0 0 0 0 0 0 0 0 0 0 0 0 0 0 0 0 0 0 0 0 0 0 0 0 0 0 0 0 0 0 113 111 111 113 113 113 111 113 112 112 114 112 112 112 111 112 112 111 112 114 115 115 114 116 115 114 -193 115 116 113 114 115 115 114 115 114 114 110 116 111 110 111 111 109 111 111 112 -209 -193 -193 -193 -193 -209 118 118 115 118 113 113 113 112 112 112 112 113 107 114 114 114 114 115 114 114 115 115 115 115 114 116 115 114 115 116 116 117 118 115 115 115 115 115 115 115 114 113 115 116 116 116 116 115 114 114 113 115 113 113 114 113 114 116 115 115 118 115 115 115 115 115 114 114 114 110 114 113 113 113 114 116 115 116 117 117 118 118 118 118 119 120 120 119 120 117 117 116 115 116 116 115 114 111 114 114 115 115 114 113 115 115 116 117 117 117 117 116 116 115 117 114 117 116 116 115 115 115 115 112 115 110 109 106 108 109 109 109 111 110 112 112 115 118 118 118 118 117 118 118 117 118 117 117 118 118 121 120 123 126 124 124 125 126 124 125 123 122 122 122 121 121 120 119 117 120 121 120 121 121 122 122 121 121 118 116 112 112 115 113 115 117 119 120 120 119 119 118 118 0 0 0 0 0
    0 0 0 0 0 0 0 0 0 0 0 0 0 0 0 0 0 0 0 0 0 0 0 0 0 0 0 0 0 0 0 0 0 0 0 0 0 0 0 0 0 0 0 0 0 0 0 0 0 0 0 0 0 0 0 0 0 0 0 0 0 0 0 0 0 0 0 0 0 113 111 112 114 115 114 112 114 114 114 116 114 113 112 112 113 112 112 113 115 116 116 115 117 116 -193 -193 116 116 114 115 116 116 116 -193 -193 -193 -193 -193 -209 -177 -177 111 110 112 -193 202 203 -209 -193 -209 -209 -209 117 117 114 118 112 112 112 112 112 112 111 112 107 115 115 115 115 116 116 115 116 116 116 115 115 117 116 115 116 117 117 118 118 116 115 115 115 115 115 115 114 113 115 116 116 115 115 114 114 114 114 115 114 115 116 115 115 116 115 116 119 115 115 115 115 115 114 114 114 110 114 113 113 112 113 116 115 116 117 117 118 118 119 118 118 119 119 119 119 116 117 116 115 116 116 115 114 111 114 114 115 115 114 113 115 115 116 117 116 117 117 116 116 115 117 114 117 116 116 115 115 115 115 113 116 110 112 108 111 111 112 113 114 113 116 116 117 119 119 119 119 118 119 118 118 118 117 118 118 118 120 120 123 125 124 123 124 125 124 125 124 123 122 122 121 121 120 121 119 121 122 121 122 122 122 122 121 120 118 115 112 113 115 114 117 118 120 120 120 120 119 119 119 0 0 0 0 0
    0 0 0 0 0 0 0 0 0 0 0 0 0 0 0 0 0 0 0 0 0 0 0 0 0 0 0 0 0 0 0 0 0 0 0 0 0 0 0 0 0 0 0 0 0 0 0 0 0 0 0 0 0 0 0 0 0 0 0 0 0 0 0 0 0 0 0 0 0 114 112 112 115 116 116 113 115 116 116 118 116 113 111 112 114 113 113 115 117 118 118 119 -193 -193 -209 -209 118 116 115 116 117 116 116 -193 -193 -209 -209 -209 -209 -209 -209 -209 -209 -193 -209 204 206 -209 -209 -209 -209 -209 117 116 114 118 111 111 111 111 111 111 110 111 108 117 117 -193 -193 -193 -193 117 117 -193 -193 -193 -209 116 -193 115 116 117 117 119 118 116 115 115 115 115 115 115 114 113 114 116 115 115 113 114 114 114 114 115 113 115 116 115 115 115 115 116 119 115 115 115 115 115 114 114 114 110 113 112 111 111 112 115 114 116 117 117 118 118 119 118 118 119 118 118 119 116 116 115 115 115 116 115 114 111 114 115 115 115 114 113 115 115 116 116 115 115 115 114 114 113 116 113 117 115 116 115 115 115 115 113 116 110 113 110 114 113 113 114 115 114 116 114 116 119 119 119 119 118 119 118 118 119 118 118 119 118 120 120 123 125 124 123 124 125 123 125 124 123 123 122 121 122 120 122 121 122 123 122 122 122 122 122 121 120 116 114 113 114 117 116 118 119 120 -193 121 120 119 119 119 0 0 0 0 0
    0 0 0 0 0 0 0 0 0 0 0 0 0 0 0 0 0 0 0 0 0 0 0 0 0 0 0 0 0 0 0 0 0 0 0 0 0 0 0 0 0 0 0 0 0 0 0 0 0 0 0 0 0 0 0 0 0 0 0 0 0 0 0 0 0 0 0 0 0 119 117 117 119 119 118 115 117 118 118 120 118 115 112 113 116 115 116 118 -209 -209 -193 128 131 -209 -209 -209 -193 118 117 117 118 116 116 116 -193 -209 116 -209 112 -177 -177 -209 -209 -209 -209 210 209 209 210 -193 -193 -209 121 -193 118 119 112 112 113 113 112 112 111 112 108 119 -193 -209 373 379 -193 -193 -209 -193 -177 -209 -209 -209 -209 -193 116 118 118 119 118 116 116 115 115 116 115 115 114 114 115 116 115 114 112 -193 -209 -209 -193 -193 110 113 116 115 113 113 114 116 119 115 115 115 115 115 115 114 114 109 113 111 110 110 110 113 112 115 116 117 117 117 118 118 118 119 118 118 118 115 116 115 114 115 115 114 114 111 113 114 114 115 114 113 115 114 115 115 113 113 113 111 111 111 115 112 117 115 116 115 115 115 115 114 116 110 114 110 113 112 112 113 114 112 113 111 115 118 119 119 119 119 119 118 118 119 119 118 120 120 121 121 123 125 124 123 123 124 123 124 124 122 122 121 121 122 121 122 122 123 123 122 122 122 122 122 121 119 116 113 113 115 117 118 119 -193 121 -193 121 121 120 119 119 0 0 0 0 0
    0 0 0 0 0 0 0 0 0 0 0 0 0 0 0 0 0 0 0 0 0 0 0 0 0 0 0 0 0 0 0 0 0 0 0 0 0 0 0 0 0 0 0 0 0 0 0 0 0 0 0 0 0 0 0 0 0 0 0 0 0 0 0 0 0 0 0 0 0 126 122 123 123 125 122 119 120 122 121 125 122 119 117 116 119 118 119 120 128 -193 131 131 132 132 131 -193 128 -193 119 119 -209 117 117 116 117 -209 -209 -209 -209 -193 -209 -209 -209 -209 213 -209 -209 206 207 -193 -209 -209 125 122 121 120 114 114 115 116 114 114 112 114 111 122 133 -209 370 -193 -209 -193 -193 -177 -193 -209 -209 -209 -209 -209 120 121 121 121 119 118 117 117 116 117 116 116 114 115 116 117 116 114 -209 -209 -209 -209 -209 -209 109 113 116 115 112 112 114 116 119 115 115 115 114 115 114 114 113 109 113 110 108 109 108 111 109 114 115 115 116 117 118 118 118 118 118 118 118 115 116 115 113 114 115 114 112 110 112 112 113 114 113 111 113 112 114 114 112 112 112 111 110 111 114 113 118 115 117 116 116 116 116 115 116 111 116 111 114 112 112 113 114 111 112 110 115 118 -209 119 119 119 120 119 119 120 120 119 121 121 121 121 124 128 126 126 126 125 124 125 126 124 123 121 121 122 121 123 122 123 123 123 123 123 122 123 121 121 115 111 112 114 118 -193 -193 -193 -193 -193 121 120 119 118 119 0 0 0 0 0
    0 0 0 0 0 0 0 0 0 0 0 0 0 0 0 0 0 0 0 0 0 0 0 0 0 0 0 0 0 0 0 0 0 0 0 0 0 0 0 0 0 0 0 0 0 0 0 0 0 0 0 0 0 0 0 0 0 0 0 0 0 0 0 0 0 0 0 0 0 129 126 126 126 129 128 127 124 129 126 130 128 125 123 120 122 123 123 125 131 132 133 132 133 132 132 131 131 126 122 -193 -209 -209 -209 -209 -209 -209 -209 -209 -209 -209 -209 -209 -209 -209 -209 -209 -209 -209 -209 -209 -209 127 127 124 123 122 117 117 118 119 116 116 115 116 116 124 134 -209 -209 -209 -209 -209 -209 -193 -209 -209 -209 -209 -209 122 123 124 124 125 121 119 119 118 118 118 118 117 115 117 118 119 118 -193 -209 -209 -209 -209 -209 -209 -209 -193 119 117 115 115 116 117 119 116 116 116 114 115 114 114 113 109 112 110 108 110 109 111 110 114 115 115 116 116 117 117 118 119 118 118 118 116 117 115 113 112 115 114 111 109 110 110 111 111 111 110 110 110 112 113 112 112 112 111 110 111 115 114 119 116 117 116 117 117 117 116 117 112 117 112 114 112 111 112 112 110 110 109 114 118 -209 119 119 120 120 119 119 120 121 120 122 123 123 122 125 128 126 126 126 125 124 126 127 124 124 123 123 123 122 124 123 123 123 123 123 123 122 123 -193 121 -193 111 114 117 120 -193 -193 -193 -193 -193 120 119 118 116 118 0 0 0 0 0
    0 0 0 0 0 0 0 0 0 0 0 0 0 0 0 0 0 0 0 0 0 0 0 0 0 0 0 0 0 0 0 0 0 0 0 0 0 0 0 0 0 0 0 0 0 0 0 0 0 0 0 0 0 0 0 0 0 0 0 0 0 0 0 0 0 0 0 0 0 130 127 127 127 131 131 132 128 132 130 132 131 128 127 124 125 127 127 129 132 132 132 132 132 132 132 131 131 128 125 126 130 -209 -209 -209 -209 -209 -209 -209 -209 -209 131 -193 -209 -209 -209 -209 -209 -209 -209 -209 -209 130 129 126 125 125 120 119 120 121 117 117 118 118 119 126 135 -193 -209 -209 -209 -193 -193 -209 -209 -209 -209 -209 -209 -193 -193 126 126 129 123 120 120 120 119 119 119 118 115 118 119 120 119 -193 -209 -209 -209 -209 -209 -209 -209 -209 -193 121 120 120 120 121 122 118 117 117 117 116 115 116 115 111 115 113 110 111 111 113 110 114 116 116 116 117 118 118 119 119 119 118 118 115 117 114 112 111 114 114 111 110 111 110 111 112 112 110 110 110 112 113 112 111 112 112 111 112 115 115 119 116 117 116 116 117 117 117 117 112 118 115 116 114 113 111 112 -193 111 108 113 118 -209 119 119 119 120 120 120 121 121 121 123 124 124 123 126 129 127 128 126 125 125 127 128 125 125 123 125 125 125 127 124 124 125 124 124 123 123 123 122 122 120 117 119 121 123 124 124 123 124 122 121 121 120 118 121 0 0 0 0 0
    0 0 0 0 0 0 0 0 0 0 0 0 0 0 0 0 0 0 0 0 0 0 0 0 0 0 0 0 0 0 0 0 0 0 0 0 0 0 0 0 0 0 0 0 0 0 0 0 0 0 0 0 0 0 0 0 0 0 0 0 0 0 0 0 0 0 0 0 0 129 128 128 127 131 131 133 130 133 132 132 131 130 129 126 126 129 129 130 132 133 132 132 132 132 132 131 131 129 127 131 134 -209 -209 -209 -209 -209 -209 -209 -209 -209 -209 -209 -209 -209 -209 244 -209 -209 -209 -209 -209 132 131 128 128 127 124 122 123 124 120 121 122 -177 123 129 135 144 -209 -209 -209 -193 -209 -209 299 299 -209 -193 -209 -193 -193 127 126 131 124 122 123 122 121 121 121 120 116 119 120 121 -209 -209 -193 425 -209 -209 -209 -209 -193 -177 -193 125 124 124 124 124 124 120 119 119 119 118 117 117 117 114 118 117 115 115 115 114 111 114 116 116 117 117 119 119 120 121 120 120 119 117 118 115 112 112 114 116 115 115 115 114 115 117 116 114 113 111 113 114 113 113 112 113 113 113 114 115 120 116 117 116 116 117 117 117 117 114 119 -193 -209 -209 -209 -209 -193 -193 -193 112 114 119 -209 119 119 119 120 119 119 121 120 121 123 124 124 123 126 129 129 129 127 127 127 129 130 127 127 126 130 130 129 129 126 125 126 125 125 124 123 123 123 122 123 122 123 123 126 128 129 127 131 -193 123 126 126 122 125 0 0 0 0 0
    0 0 0 0 0 0 0 0 0 0 0 0 0 0 0 0 0 0 0 0 0 0 0 0 0 0 0 0 0 0 0 0 0 0 0 0 0 0 0 0 0 0 0 0 0 0 0 0 0 0 0 0 0 0 0 0 0 0 0 0 0 0 0 0 0 0 0 0 0 129 128 129 127 130 131 132 130 133 131 132 131 130 130 128 127 129 -193 129 132 132 131 131 131 131 131 130 131 129 129 133 134 -193 -193 -193 132 132 132 130 131 131 133 -193 -209 -209 -209 -193 -209 -209 -209 -209 -193 133 132 130 130 129 126 126 126 126 122 123 125 -177 126 132 -193 146 -209 -209 -209 -209 -209 -209 298 299 -209 -209 -209 -209 -193 129 129 133 127 125 126 125 124 123 123 122 118 122 123 123 -209 -209 -209 426 -209 -209 -209 -209 -177 -177 -193 127 125 126 126 125 126 124 122 121 122 119 118 119 119 118 121 122 122 120 120 117 114 115 117 118 118 119 120 121 123 123 123 122 121 120 121 116 114 113 115 117 119 120 121 118 119 121 120 118 118 112 114 115 114 114 113 114 114 114 115 116 120 116 117 117 117 117 118 118 118 116 121 123 -193 -209 -209 -209 -193 56 -193 115 116 120 -209 120 120 120 120 119 119 120 120 121 123 124 123 123 126 129 130 132 130 130 131 131 132 130 131 129 131 131 131 131 128 126 126 125 125 124 124 124 123 124 129 128 130 130 132 133 133 133 135 -193 126 127 -193 123 124 0 0 0 0 0
    0 0 0 0 0 0 0 0 0 0 0 0 0 0 0 0 0 0 0 0 0 0 0 0 0 0 0 0 0 0 0 0 0 0 0 0 0 0 0 0 0 0 0 0 0 0 0 0 0 0 0 0 0 0 0 0 0 0 0 0 0 0 0 0 0 0 0 0 0 129 128 129 127 129 131 132 130 133 132 132 132 132 131 129 128 130 130 128 131 131 130 130 130 130 130 129 131 128 129 132 133 131 130 129 130 130 131 129 130 130 132 133 132 -193 -209 -209 -193 -209 -193 -193 131 133 131 130 130 130 128 128 128 128 124 125 129 -193 129 134 -193 149 -209 -209 -209 -209 -209 -209 299 -177 -209 -209 -209 -209 -193 131 132 134 129 129 129 129 127 125 126 125 122 125 126 127 127 -209 -209 -209 -209 -209 -209 -209 -177 -177 -193 128 126 127 127 127 128 127 124 125 128 123 121 122 123 123 124 126 126 123 124 122 119 119 118 120 119 120 124 124 127 126 127 125 124 123 123 119 118 116 118 119 124 124 125 122 123 124 123 122 123 115 116 116 116 115 114 116 116 116 117 118 121 118 118 118 118 118 119 119 119 118 123 126 128 128 125 124 123 -193 124 122 120 122 132 121 120 121 121 120 120 121 121 121 123 125 124 124 127 130 132 134 133 132 133 133 134 133 133 131 132 131 132 131 129 126 126 125 125 124 124 125 124 126 133 132 134 133 134 135 135 135 137 -193 130 -193 -193 124 125 0 0 0 0 0
    0 0 0 0 0 0 0 0 0 0 0 0 0 0 0 0 0 0 0 0 0 0 0 0 0 0 0 0 0 0 0 0 0 0 0 0 0 0 0 0 0 0 0 0 0 0 0 0 0 0 0 0 0 0 0 0 0 0 0 0 0 0 0 0 0 0 0 0 0 129 128 129 127 129 131 132 132 134 133 133 132 133 133 130 129 129 130 128 131 130 129 129 130 130 130 129 131 128 128 132 132 130 129 128 129 128 129 127 129 128 129 131 130 131 -193 -193 -193 132 131 131 131 134 131 130 131 131 129 129 129 129 124 126 130 128 130 134 -193 146 -209 -209 148 -193 -193 -209 -209 -193 -209 128 126 130 134 132 132 134 130 130 130 130 128 126 127 126 123 126 128 128 127 -193 -193 -209 -193 -209 -209 -209 -193 -177 -193 128 127 128 129 128 129 129 127 129 133 126 125 126 126 128 128 131 131 126 130 129 125 125 123 127 121 125 132 129 132 130 131 130 127 126 125 122 122 121 122 122 129 126 127 125 125 127 126 125 125 119 118 118 118 118 115 118 119 -193 -193 122 125 121 121 120 120 120 121 121 121 120 124 128 131 132 129 129 129 129 132 133 132 131 134 125 123 123 123 122 121 122 122 122 125 126 126 126 128 132 134 135 135 134 135 134 134 134 134 132 132 130 133 131 130 126 127 126 125 125 125 126 125 129 135 134 134 134 134 135 135 135 136 131 131 -193 -193 125 126 0 0 0 0 0
    0 0 0 0 0 0 0 0 0 0 0 0 0 0 0 0 0 0 0 0 0 0 0 0 0 0 0 0 0 0 0 0 0 0 0 0 0 0 0 0 0 0 0 0 0 0 0 0 0 0 0 0 0 0 0 0 0 0 0 0 0 0 0 0 0 0 0 0 0 129 128 129 127 129 131 133 132 134 133 133 132 133 133 131 129 129 130 128 130 130 129 128 130 130 130 129 131 129 129 132 132 131 130 129 129 129 130 128 129 128 129 131 129 130 131 130 132 131 131 131 131 134 131 130 131 131 129 129 129 129 124 126 129 128 129 133 134 -193 137 143 140 135 135 135 132 131 128 130 126 130 134 132 132 135 130 130 130 131 129 126 128 127 124 127 128 128 127 124 129 132 133 129 132 130 127 128 129 128 127 129 130 130 130 130 130 131 134 128 128 129 127 130 130 132 132 128 133 132 130 131 130 134 130 133 135 133 134 133 133 132 130 129 127 125 125 124 125 126 132 129 129 128 127 128 127 126 126 121 121 121 122 123 121 124 124 -193 -193 126 128 126 124 123 122 123 124 124 125 123 127 131 133 134 132 133 133 133 135 136 136 135 136 130 127 126 126 124 123 124 123 124 127 128 128 128 129 133 134 136 136 134 135 135 135 135 135 133 132 130 134 133 132 128 129 128 128 127 127 129 128 132 136 135 135 134 135 135 135 135 136 130 132 130 132 127 127 0 0 0 0 0
    0 0 0 0 0 0 0 0 0 0 0 0 0 0 0 0 0 0 0 0 0 0 0 0 0 0 0 0 0 0 0 0 0 0 0 0 0 0 0 0 0 0 0 0 0 0 0 0 0 0 0 0 0 0 0 0 0 0 0 0 0 0 0 0 0 0 0 0 0 129 128 130 127 128 132 133 133 134 133 133 132 133 133 131 129 129 129 127 130 130 129 128 129 130 130 129 131 129 129 133 133 131 130 131 130 130 131 129 130 129 129 130 129 130 130 130 131 131 130 130 130 134 130 129 130 130 128 129 129 129 124 126 129 128 128 132 132 135 135 139 136 134 134 133 130 131 128 130 126 129 134 131 131 134 130 131 130 131 130 128 130 128 125 128 129 129 127 125 130 132 132 129 132 131 128 129 130 129 128 130 131 131 130 131 131 132 134 130 130 130 128 131 130 132 132 129 133 132 131 133 132 135 133 135 135 134 135 134 134 133 131 131 129 127 129 127 128 130 134 131 130 130 128 129 128 127 126 122 123 124 125 126 126 129 129 130 -193 128 130 129 128 127 126 128 128 130 132 129 132 133 135 135 133 134 134 134 135 136 137 136 136 134 131 130 129 128 125 126 125 126 129 130 129 130 130 133 135 136 136 135 136 135 136 136 135 132 132 130 135 133 133 127 130 131 131 130 131 -193 -193 134 136 135 135 135 135 136 136 136 136 132 134 -193 -209 134 129 0 0 0 0 0
    0 0 0 0 0 0 0 0 0 0 0 0 0 0 0 0 0 0 0 0 0 0 0 0 0 0 0 0 0 0 0 0 0 0 0 0 0 0 0 0 0 0 0 0 0 0 0 0 0 0 0 0 0 0 0 0 0 0 0 0 0 0 0 0 0 0 0 0 0 129 128 130 127 129 133 134 133 134 133 133 132 133 133 131 129 129 130 128 131 130 129 128 130 130 130 129 131 128 130 133 132 131 130 131 130 130 130 129 129 128 128 130 128 129 129 129 130 130 130 130 129 134 129 129 129 130 128 129 128 129 124 128 129 128 127 131 132 136 135 138 136 132 131 130 126 126 126 127 124 126 132 130 129 134 130 130 130 131 130 128 130 129 125 130 130 130 128 126 131 132 131 128 131 130 128 129 130 129 128 130 131 131 129 131 131 132 134 130 130 131 128 131 131 132 132 129 133 132 133 134 134 135 135 136 136 135 135 135 134 134 132 132 130 128 130 129 129 131 134 132 132 132 131 130 129 129 128 123 125 126 126 128 129 131 131 133 -193 130 131 131 130 130 129 131 130 132 134 132 133 134 135 135 134 134 134 134 135 136 136 136 135 135 133 132 131 131 127 129 127 128 130 131 130 130 130 133 135 135 135 134 135 134 135 135 134 129 131 129 135 132 135 131 133 134 136 136 137 136 135 135 137 136 136 136 136 136 136 136 137 132 134 -193 135 135 131 0 0 0 0 0
    0 0 0 0 0 0 0 0 0 0 0 0 0 0 0 0 0 0 0 0 0 0 0 0 0 0 0 0 0 0 0 0 0 0 0 0 0 0 0 0 0 0 0 0 0 0 0 0 0 0 0 0 0 0 0 0 0 0 0 0 0 0 0 0 0 0 0 0 0 130 129 131 128 129 133 134 133 134 133 134 133 133 133 132 130 130 131 129 131 130 129 129 130 130 130 129 131 128 130 133 132 131 130 131 131 130 130 129 129 128 128 129 127 128 127 128 129 130 129 130 129 134 129 129 129 130 128 129 128 129 124 128 129 128 127 132 133 138 136 138 136 129 128 125 123 123 124 126 124 126 132 130 129 134 130 130 130 131 130 128 130 129 125 130 130 130 128 126 132 132 130 127 130 130 128 129 130 128 128 130 131 131 129 130 131 131 134 130 131 131 129 131 131 132 132 129 134 133 133 134 134 136 136 137 136 135 135 135 135 134 133 132 130 129 131 130 130 132 135 132 132 133 132 132 131 131 130 125 132 132 130 131 132 133 132 134 133 131 131 132 131 131 131 133 132 133 135 134 134 135 135 136 134 134 134 134 134 135 135 135 134 135 134 133 132 132 128 130 128 128 129 130 130 130 130 133 135 135 135 134 135 134 134 134 133 127 130 130 136 136 138 137 139 139 140 142 141 138 137 136 137 136 137 136 136 136 136 136 136 134 136 134 136 136 133 0 0 0 0 0
    0 0 0 0 0 0 0 0 0 0 0 0 0 0 0 0 0 0 0 0 0 0 0 0 0 0 0 0 0 0 0 0 0 0 0 0 0 0 0 0 0 0 0 0 0 0 0 0 0 0 0 0 0 0 0 0 0 0 0 0 0 0 0 0 0 0 0 0 0 130 129 131 127 128 132 133 132 133 133 134 133 134 134 133 131 130 132 129 132 130 130 129 130 131 130 129 132 129 132 134 133 132 131 132 131 130 130 129 128 128 128 128 127 127 126 128 128 129 128 130 130 135 129 129 129 130 128 129 128 129 124 129 130 129 126 132 132 137 135 138 135 126 126 123 122 121 123 124 123 126 132 130 130 134 130 131 130 131 130 128 130 130 126 131 131 132 129 127 132 132 130 127 129 130 128 129 130 129 128 131 131 131 129 130 130 130 134 130 130 131 129 131 131 132 132 129 134 133 133 134 134 135 135 136 136 135 135 135 134 134 133 133 130 129 130 130 130 133 135 132 132 133 133 132 132 132 131 126 133 134 132 132 133 135 134 135 134 132 132 133 132 132 132 134 133 134 136 136 136 136 135 135 134 134 135 134 134 134 135 135 134 135 135 134 134 134 132 133 131 130 131 131 130 130 130 133 136 135 135 134 134 134 134 134 134 126 131 132 138 137 139 141 142 143 143 144 143 140 141 139 139 136 137 137 136 137 137 136 135 134 136 134 136 137 136 0 0 0 0 0
    0 0 0 0 0 0 0 0 0 0 0 0 0 0 0 0 0 0 0 0 0 0 0 0 0 0 0 0 0 0 0 0 0 0 0 0 0 0 0 0 0 0 0 0 0 0 0 0 0 0 0 0 0 0 0 0 0 0 0 0 0 0 0 0 0 0 0 0 0 130 129 131 128 129 133 134 133 133 133 134 133 134 134 133 131 130 133 130 133 131 130 130 131 131 131 130 133 130 133 135 133 132 132 133 131 130 130 129 128 128 127 127 126 126 126 127 126 127 127 129 129 135 129 129 129 131 129 130 129 130 125 130 131 130 126 131 131 -209 131 137 131 123 123 121 121 120 122 123 122 125 132 132 131 135 131 131 131 131 131 129 130 130 126 131 131 132 -193 -193 132 131 129 127 128 129 128 129 130 129 129 131 131 131 129 130 131 130 134 129 131 131 129 131 131 132 132 128 134 133 133 133 133 134 134 136 135 135 135 135 134 134 134 133 130 130 130 131 130 133 135 132 132 133 133 133 132 132 130 125 132 134 132 132 133 135 134 135 134 133 132 133 133 133 133 133 133 134 135 135 135 135 136 135 134 134 134 134 134 134 135 134 134 135 135 135 134 135 133 134 133 132 133 132 132 132 131 133 136 135 135 134 134 134 134 134 134 126 132 133 138 138 140 142 143 143 143 145 145 143 144 141 139 136 137 137 136 137 137 136 135 133 137 136 138 138 138 0 0 0 0 0
    0 0 0 0 0 0 0 0 0 0 0 0 0 0 0 0 0 0 0 0 0 0 0 0 0 0 0 0 0 0 0 0 0 0 0 0 0 0 0 0 0 0 0 0 0 0 0 0 0 0 0 0 0 0 0 0 0 0 0 0 0 0 0 0 0 0 0 0 0 131 131 132 129 130 134 134 135 134 133 134 133 134 134 133 131 131 134 131 134 132 131 132 133 132 132 131 134 132 135 136 134 133 134 134 132 130 130 130 129 128 127 127 126 127 127 126 125 124 125 127 127 134 128 128 128 131 130 130 129 130 125 131 132 131 -209 -209 -209 -209 -209 -193 -209 -193 122 120 121 120 122 123 123 127 133 133 132 135 131 131 131 131 130 129 130 130 126 132 131 133 -193 -193 -193 130 128 127 127 129 128 129 130 129 130 131 131 132 130 130 131 130 134 130 131 131 130 132 132 132 132 129 134 133 133 133 133 134 134 135 135 135 135 135 135 134 134 133 130 131 130 131 130 134 135 132 132 133 133 133 132 132 129 125 131 132 131 131 133 134 135 136 135 134 134 133 133 133 134 134 134 134 135 135 135 135 136 135 134 134 134 134 134 134 135 134 134 135 135 134 134 135 134 135 133 133 134 133 132 132 131 134 137 134 135 134 134 134 134 134 134 127 133 134 138 138 141 143 143 143 143 146 146 143 144 140 138 135 136 136 136 135 136 136 134 134 138 137 139 140 140 0 0 0 0 0
    0 0 0 0 0 0 0 0 0 0 0 0 0 0 0 0 0 0 0 0 0 0 0 0 0 0 0 0 0 0 0 0 0 0 0 0 0 0 0 0 0 0 0 0 0 0 0 0 0 0 0 0 0 0 0 0 0 0 0 0 0 0 0 0 0 0 0 0 0 133 132 133 130 132 135 135 136 135 134 135 134 134 134 133 132 131 134 132 134 132 132 133 134 133 133 133 135 133 136 136 134 134 134 134 131 130 130 130 129 129 127 127 126 128 127 127 125 123 124 126 126 134 127 127 127 131 130 130 129 130 125 131 133 -209 -209 -209 -193 -193 -209 -209 -209 -209 -209 -209 -209 119 121 -193 -193 126 133 133 132 135 130 131 130 131 130 130 130 131 126 132 131 -193 -193 -193 -193 129 127 126 127 128 128 128 130 128 129 131 131 132 130 131 132 131 135 130 132 132 131 132 132 133 132 129 135 133 133 133 133 133 134 135 134 134 134 135 134 134 134 133 129 131 129 131 129 134 135 132 133 133 133 133 132 132 129 125 131 132 132 132 133 134 135 136 136 135 134 134 134 134 135 135 135 135 136 136 136 135 136 135 135 135 135 134 134 134 135 134 134 135 134 134 134 135 134 135 133 132 133 132 132 132 131 133 136 134 135 134 134 134 135 135 134 127 134 135 139 138 141 142 143 143 143 146 146 145 145 141 137 134 135 135 135 134 134 134 132 133 139 138 142 143 143 0 0 0 0 0
    0 0 0 0 0 0 0 0 0 0 0 0 0 0 0 0 0 0 0 0 0 0 0 0 0 0 0 0 0 0 0 0 0 0 0 0 0 0 0 0 0 0 0 0 0 0 0 0 0 0 0 0 0 0 0 0 0 0 0 0 0 0 0 0 0 0 0 0 0 135 134 134 132 134 135 136 137 136 135 136 135 136 135 135 135 134 135 134 135 134 134 134 134 134 133 133 135 133 136 136 133 134 133 134 130 129 128 130 129 129 127 126 126 127 127 127 124 122 123 126 125 134 128 127 127 131 130 130 129 131 125 132 133 -209 -209 -209 -193 0 -193 -209 0 0 0 -209 -209 -209 -209 -209 -209 -209 -209 -209 133 135 130 131 130 131 130 130 131 131 125 133 -209 -209 -209 -193 -193 127 126 126 126 126 127 128 130 128 129 130 130 131 130 130 131 131 135 131 132 132 131 132 132 133 132 128 134 132 132 132 132 133 133 135 133 134 134 135 134 134 134 133 130 132 129 132 130 135 135 132 133 133 133 132 132 132 129 125 132 133 133 133 135 135 136 137 137 136 135 134 135 135 136 135 135 135 136 135 135 135 136 135 135 135 135 134 134 134 134 133 133 134 134 134 134 136 135 135 133 133 133 133 132 131 131 133 137 134 135 134 135 135 136 135 135 127 136 138 140 140 142 143 143 143 143 146 147 145 146 142 137 133 135 134 134 134 134 134 131 134 139 140 143 144 144 0 0 0 0 0
    0 0 0 0 0 0 0 0 0 0 0 0 0 0 0 0 0 0 0 0 0 0 0 0 0 0 0 0 0 0 0 0 0 0 0 0 0 0 0 0 0 0 0 0 0 0 0 0 0 0 0 0 0 0 0 0 0 0 0 0 0 0 0 0 0 0 0 0 0 137 136 136 135 136 137 138 141 140 139 140 139 140 139 140 140 -193 139 136 139 135 135 135 135 134 134 134 135 133 135 -193 133 134 134 -193 130 129 128 131 129 -193 -193 125 126 128 129 -193 123 -193 123 126 125 134 127 126 127 131 130 130 130 131 126 133 134 -193 -209 -209 -193 -193 -193 -193 0 0 0 -209 -209 -209 -209 -209 -209 -209 -209 -209 134 135 130 131 131 131 130 130 131 132 125 -193 -209 -209 -209 -209 -193 -193 126 126 125 125 127 127 129 127 128 129 129 130 129 129 129 129 135 130 132 132 132 132 132 132 132 126 133 131 131 130 130 131 132 134 133 134 133 134 134 134 134 133 129 132 128 132 131 136 135 132 133 133 132 132 132 131 128 125 133 135 136 136 136 136 137 138 138 137 136 136 136 135 136 134 135 135 135 135 135 135 136 135 135 134 134 134 133 133 133 131 132 133 133 134 134 136 135 135 133 133 133 133 132 132 132 134 139 135 135 135 136 136 136 136 136 129 137 139 140 140 142 143 144 144 144 146 147 145 147 143 -193 133 134 135 135 133 134 133 132 135 141 143 145 144 145 0 0 0 0 0
    0 0 0 0 0 0 0 0 0 0 0 0 0 0 0 0 0 0 0 0 0 0 0 0 0 0 0 0 0 0 0 0 0 0 0 0 0 0 0 0 0 0 0 0 0 0 0 0 0 0 0 0 0 0 0 0 0 0 0 0 0 0 0 0 0 0 0 0 0 142 139 139 138 139 141 142 146 149 145 147 148 149 150 151 151 157 -209 -209 -209 -209 -209 140 -193 135 135 136 137 134 -193 -193 -193 -209 -209 -209 -209 -209 -209 -209 -209 194 -193 -209 -209 -209 -209 -209 -209 -209 -209 -209 -209 -193 127 125 126 130 130 130 130 131 127 134 -193 -209 -209 -209 -193 -193 -209 -209 0 0 0 0 -209 -193 -209 -209 -209 -209 -209 -193 135 136 131 132 131 131 130 130 130 131 125 133 -209 -209 -209 -177 -209 -209 125 125 124 125 127 127 129 127 128 128 128 130 129 128 128 128 135 130 132 132 132 132 132 133 132 126 134 131 131 129 130 130 132 134 132 134 133 134 133 133 133 132 126 130 125 128 130 136 135 132 133 133 133 132 132 132 130 127 135 137 138 137 137 137 137 138 -193 137 136 135 135 134 136 134 134 134 135 135 134 135 136 134 134 134 134 133 133 133 133 130 133 132 132 133 134 135 135 134 133 133 133 133 132 132 133 135 141 136 136 136 136 137 137 136 137 132 137 139 141 140 142 144 144 144 143 145 146 144 145 141 -209 -209 -209 -209 128 129 132 127 130 136 142 144 146 145 145 0 0 0 0 0
    0 0 0 0 0 0 0 0 0 0 0 0 0 0 0 0 0 0 0 0 0 0 0 0 0 0 0 0 0 0 0 0 0 0 0 0 0 0 0 0 0 0 0 0 0 0 0 0 0 0 0 0 0 0 0 0 0 0 0 0 0 0 0 0 0 0 0 0 0 150 146 145 143 143 145 148 148 151 148 150 151 151 151 152 152 155 152 162 -193 -209 -209 157 -209 -209 147 151 152 -193 149 153 -209 -209 -209 -209 -209 -209 -209 -209 -209 -209 -209 -209 -209 -209 -209 -209 -209 -209 238 -209 -209 -209 -209 -193 126 131 131 -193 -193 -209 -209 -209 -209 -193 -193 -193 -193 -193 -209 -209 -209 -193 0 0 -209 -209 -209 -209 -209 -209 -209 -177 136 136 131 132 131 131 130 129 130 131 124 -209 -209 -209 -209 -177 375 -193 -193 125 124 124 126 127 130 127 128 128 128 130 129 128 128 129 135 131 133 133 133 133 133 134 133 126 134 132 130 129 128 129 131 133 132 133 132 133 132 132 132 131 124 126 122 123 127 135 135 132 133 133 133 132 133 133 130 129 136 137 137 136 137 136 136 137 -193 136 135 135 135 135 136 134 136 136 136 135 134 135 136 133 134 134 133 133 133 133 133 129 134 132 132 133 134 135 134 134 133 133 133 133 132 132 134 135 143 137 137 137 137 138 137 137 137 133 137 139 140 140 142 145 146 145 144 146 146 144 145 142 -209 -209 -209 -209 129 128 132 127 131 137 145 148 147 147 147 0 0 0 0 0
    0 0 0 0 0 0 0 0 0 0 0 0 0 0 0 0 0 0 0 0 0 0 0 0 0 0 0 0 0 0 0 0 0 0 0 0 0 0 0 0 0 0 0 0 0 0 0 0 0 0 0 0 0 0 0 0 0 0 0 0 0 0 0 0 0 0 0 0 0 152 149 149 148 147 148 150 149 152 149 150 150 151 150 151 150 152 148 154 161 162 161 161 158 157 153 155 157 158 153 -209 -209 -209 -209 -209 -209 -209 -209 -209 -209 -209 -209 -209 -209 -209 -209 -209 -209 -209 238 243 -209 -209 -209 -209 -193 -193 -209 -209 -209 -209 -209 -193 0 -193 -193 -193 -209 -209 227 234 243 -209 -209 -209 -209 -193 335 340 341 -209 -209 -209 143 136 131 133 132 131 130 129 130 131 -209 -209 -209 -209 -209 -177 374 -193 -209 -193 123 123 125 127 130 127 129 128 128 130 131 129 129 130 135 132 133 134 133 133 133 133 133 125 132 130 128 127 127 127 129 132 131 133 132 132 131 131 131 130 123 125 -209 121 125 136 135 132 133 132 132 132 132 132 130 128 135 133 135 134 135 134 134 135 135 135 135 135 135 135 136 134 136 137 136 135 134 134 135 133 134 133 133 133 133 133 133 129 134 133 133 135 136 137 136 135 133 134 134 134 133 133 134 136 144 138 138 138 138 139 138 137 138 135 138 140 140 140 143 146 147 145 144 147 147 146 144 140 135 131 132 133 135 134 -193 -209 -193 -209 147 150 148 148 148 0 0 0 0 0
    0 0 0 0 0 0 0 0 0 0 0 0 0 0 0 0 0 0 0 0 0 0 0 0 0 0 0 0 0 0 0 0 0 0 0 0 0 0 0 0 0 0 0 0 0 0 0 0 0 0 0 0 0 0 0 0 0 0 0 0 0 0 0 0 0 0 0 0 0 153 152 151 151 151 151 152 150 152 149 150 150 150 150 150 150 151 149 154 159 161 162 163 163 162 161 160 163 163 -209 -209 -209 -209 -209 -209 -209 -209 -209 -209 -209 -209 -209 -209 -209 -209 -209 -193 -209 233 237 243 -209 -209 -209 -209 -209 -209 -209 -209 -209 -209 -209 -209 0 -209 -193 -209 -209 -209 -177 -177 -209 -209 322 327 327 332 338 341 341 -209 -209 -209 -209 -193 -193 135 134 133 131 129 131 -209 -209 42 -209 -209 38 -209 -209 -209 -209 -209 -209 -209 123 125 128 -209 -193 126 126 130 131 130 129 130 136 133 135 -193 133 133 132 -193 -193 -193 128 126 128 127 127 128 129 132 132 133 132 132 131 131 131 130 -193 -193 -209 117 123 137 135 133 133 133 133 132 132 132 130 128 135 132 134 133 135 133 133 134 133 134 134 134 135 135 136 134 135 136 135 134 133 133 135 132 134 133 132 132 133 133 133 130 135 133 135 138 137 138 135 134 133 133 134 134 133 133 134 136 145 139 138 138 139 139 138 138 138 136 139 139 140 139 141 144 145 143 143 146 147 144 144 137 134 132 -209 -193 -193 133 132 -209 -193 -209 147 150 148 148 148 0 0 0 0 0
    0 0 0 0 0 0 0 0 0 0 0 0 0 0 0 0 0 0 0 0 0 0 0 0 0 0 0 0 0 0 0 0 0 0 0 0 0 0 0 0 0 0 0 0 0 0 0 0 0 0 0 0 0 0 0 0 0 0 0 0 0 0 0 0 0 0 0 0 0 154 154 154 153 153 152 152 151 152 149 150 150 150 150 150 150 151 149 154 159 160 160 162 164 160 160 160 162 -209 -209 152 151 151 156 -209 -209 -209 -209 -209 -209 -209 -209 -209 -209 -209 -209 -193 -193 238 242 246 -209 -209 -209 -209 -209 -209 -193 288 -193 -209 -209 -209 -193 -209 -209 -209 -209 -209 -177 -177 -209 314 321 325 327 331 339 341 -209 -209 -193 -209 -209 -193 -209 -193 141 141 140 -193 -193 -209 -209 -209 -209 -209 35 -209 -209 -209 -209 -209 -209 -209 -209 -209 -209 -209 -209 -209 122 126 128 -209 124 129 137 135 135 -193 -193 134 133 -209 -209 -209 -193 133 135 133 127 130 129 132 131 133 132 132 129 128 129 -209 106 -193 107 114 121 139 136 133 133 133 133 132 132 133 132 131 137 -193 -193 135 137 135 133 134 134 134 134 135 135 135 135 134 135 135 -193 134 133 133 134 132 134 133 132 132 132 133 133 130 135 132 136 -209 -209 -193 135 133 132 133 132 132 132 133 134 136 145 139 138 139 139 139 139 138 138 136 138 139 140 139 141 143 144 141 140 141 142 139 139 133 135 135 150 154 155 156 157 157 158 159 -193 151 148 148 148 0 0 0 0 0
    0 0 0 0 0 0 0 0 0 0 0 0 0 0 0 0 0 0 0 0 0 0 0 0 0 0 0 0 0 0 0 0 0 0 0 0 0 0 0 0 0 0 0 0 0 0 0 0 0 0 0 0 0 0 0 0 0 0 0 0 0 0 0 0 0 0 0 0 0 155 155 154 154 153 152 -193 151 152 149 150 150 150 150 150 150 151 148 154 157 157 157 159 159 156 156 157 157 155 151 151 150 150 154 -209 -209 -209 -209 -209 -209 -209 -209 -209 -209 156 154 156 -209 -193 244 -209 -209 -209 -209 -209 -209 -209 -193 -193 -209 -209 -209 -209 -209 -209 -209 -209 -209 -177 -177 -177 -209 312 -177 325 327 332 340 -193 418 424 -177 -209 -209 -209 -193 148 -193 152 150 -193 -193 -193 -209 -209 -209 -209 -209 -209 -209 -209 -209 -209 48 -209 -209 -209 -209 -193 -209 -209 -209 -209 -209 -209 -209 -209 144 144 -209 -209 134 137 -209 139 -209 -209 -209 139 142 -193 -209 134 129 133 132 133 133 131 126 125 127 -209 -193 -193 -209 -209 130 140 -193 134 134 134 135 134 134 135 134 137 141 150 -193 149 150 -209 133 135 134 134 135 136 136 -193 135 -193 -209 -209 -209 -193 133 133 134 131 133 132 132 132 132 132 132 130 135 132 -209 -209 -209 -209 135 133 132 133 132 131 132 133 135 136 145 139 138 139 139 139 138 138 138 136 138 139 139 139 141 143 145 141 140 140 140 136 135 134 136 -193 -193 154 154 155 156 157 158 157 154 151 148 147 148 0 0 0 0 0
    0 0 0 0 0 0 0 0 0 0 0 0 0 0 0 0 0 0 0 0 0 0 0 0 0 0 0 0 0 0 0 0 0 0 0 0 0 0 0 0 0 0 0 0 0 0 0 0 0 0 0 0 0 0 0 0 0 0 0 0 0 0 0 0 0 0 0 0 0 155 155 154 154 152 152 152 151 152 149 150 150 150 150 150 150 151 148 153 155 155 154 156 155 155 155 156 156 154 151 151 150 151 153 -193 -209 -209 -209 -209 -209 -209 -209 -193 156 157 155 156 155 -193 -193 -209 152 152 150 152 150 148 -209 -209 -209 -193 -209 -209 -209 -209 -209 -209 -209 -209 -209 -193 -193 -209 -209 -209 -193 333 341 -209 -193 -209 -193 153 152 -209 150 150 -193 153 152 -193 -209 -209 -209 -209 -209 -209 -209 -209 29 -209 -209 -209 -209 -209 -209 -209 -209 -209 -209 -209 -209 -209 -209 -209 -209 -209 149 150 -209 -209 -209 -193 -209 -193 -209 -209 -193 -193 -193 154 155 153 -193 -193 136 135 136 134 -209 124 -209 -209 -209 -209 -209 140 142 145 142 138 137 136 138 137 138 140 140 146 150 156 156 155 154 155 -193 -193 136 144 139 139 140 -193 -209 -209 -209 -209 -209 -209 -209 -193 -193 131 133 132 131 132 132 131 131 129 136 -209 -209 -209 -209 -209 139 135 135 137 -193 135 136 136 137 137 146 139 138 139 139 139 138 138 138 135 138 138 139 138 140 143 144 140 140 140 138 135 134 133 136 137 153 155 154 155 156 156 157 157 154 151 147 146 147 0 0 0 0 0
    0 0 0 0 0 0 0 0 0 0 0 0 0 0 0 0 0 0 0 0 0 0 0 0 0 0 0 0 0 0 0 0 0 0 0 0 0 0 0 0 0 0 0 0 0 0 0 0 0 0 0 0 0 0 0 0 0 0 0 0 0 0 0 0 0 0 0 0 0 155 154 153 153 152 152 152 151 152 149 150 150 150 150 150 150 150 147 153 155 155 153 154 154 154 155 155 155 154 152 152 151 151 153 155 -209 -193 -209 -209 -209 -209 -209 -193 157 157 155 156 156 154 154 153 153 153 151 153 151 149 151 152 153 155 154 155 -193 -209 -193 -209 -193 152 152 152 151 151 152 -193 154 -193 -193 150 -193 152 153 153 151 152 151 151 -193 154 -193 152 -209 -209 -193 -209 -209 -209 -209 -209 -209 -209 -209 -209 -209 -209 -209 151 154 155 156 -209 -193 153 153 -193 152 152 152 150 153 -209 -209 144 -209 -193 -209 153 152 152 153 155 156 154 154 -193 152 154 -193 -209 -209 -209 -209 -209 -209 -209 -209 142 145 147 148 148 148 144 148 147 149 149 148 151 153 156 156 154 154 155 154 154 153 152 149 150 153 157 161 164 -209 -209 -209 -209 -209 248 252 -193 132 133 132 133 133 131 132 132 140 -209 -209 -209 -209 -209 -209 -209 142 -193 -193 138 139 140 141 141 147 139 138 139 139 139 138 137 137 134 137 138 137 138 139 142 143 139 139 139 137 135 133 133 137 139 153 155 155 155 156 157 157 157 154 153 148 148 148 0 0 0 0 0
    0 0 0 0 0 0 0 0 0 0 0 0 0 0 0 0 0 0 0 0 0 0 0 0 0 0 0 0 0 0 0 0 0 0 0 0 0 0 0 0 0 0 0 0 0 0 0 0 0 0 0 0 0 0 0 0 0 0 0 0 0 0 0 0 0 0 0 0 0 154 154 153 153 152 152 152 151 152 149 149 150 150 150 149 150 150 147 153 154 154 152 153 154 154 154 155 154 154 152 153 152 152 154 154 152 -209 -209 -209 -209 -209 -209 -209 155 156 154 155 155 154 154 154 153 153 152 153 152 150 151 152 154 154 155 155 -193 -209 153 -209 152 152 152 152 151 151 152 152 153 -193 -193 151 150 152 153 153 151 152 151 151 154 154 -193 152 -209 -193 152 153 -209 -209 -209 -209 -209 -209 -209 -209 -209 -209 153 154 155 155 156 153 152 153 152 151 151 151 151 148 151 147 142 147 151 151 -193 153 153 153 154 155 156 155 155 154 154 156 156 160 -193 -209 -209 -193 -209 -209 146 147 149 150 152 151 154 151 152 152 153 153 152 155 156 157 158 155 156 157 156 156 155 155 154 153 156 159 161 161 163 163 165 -193 -209 -177 -177 -209 -209 134 133 135 135 134 136 138 149 158 155 159 -209 -209 -209 -193 -209 -209 150 148 148 149 150 149 149 139 139 138 139 138 138 137 137 134 137 137 137 137 138 141 141 138 138 139 136 137 136 135 145 153 154 157 156 157 157 157 157 156 155 154 151 151 150 0 0 0 0 0
    0 0 0 0 0 0 0 0 0 0 0 0 0 0 0 0 0 0 0 0 0 0 0 0 0 0 0 0 0 0 0 0 0 0 0 0 0 0 0 0 0 0 0 0 0 0 0 0 0 0 0 0 0 0 0 0 0 0 0 0 0 0 0 0 0 0 0 0 0 154 154 153 153 153 152 152 151 152 149 150 150 150 150 149 150 150 147 153 153 153 151 153 154 154 154 155 155 155 153 154 153 152 153 153 152 153 152 -193 -209 -209 154 154 154 155 154 154 155 154 154 153 153 153 152 153 153 150 151 152 154 153 153 154 152 152 152 151 151 151 151 151 151 150 151 151 153 153 153 151 150 152 153 152 151 152 151 151 154 154 -193 152 -209 -193 152 152 -193 -193 -209 -209 -209 -209 -209 154 -193 156 154 154 155 155 156 153 152 152 151 150 150 150 150 148 151 149 146 148 152 151 153 153 153 153 154 155 156 155 156 155 155 157 157 160 159 160 159 159 160 159 154 152 153 153 154 152 155 153 154 154 155 156 156 159 159 159 159 156 156 157 156 156 155 155 155 154 157 159 160 159 162 161 164 162 -209 -177 -193 -209 -209 -209 -209 -209 -209 -209 -209 -209 -193 160 158 161 -193 -209 -209 -193 -193 154 154 154 153 153 154 153 153 141 140 139 139 138 138 137 136 133 137 137 138 138 139 141 141 139 141 141 139 140 144 144 153 154 155 157 157 157 157 156 157 156 156 155 153 154 153 0 0 0 0 0
    0 0 0 0 0 0 0 0 0 0 0 0 0 0 0 0 0 0 0 0 0 0 0 0 0 0 0 0 0 0 0 0 0 0 0 0 0 0 0 0 0 0 0 0 0 0 0 0 0 0 0 0 0 0 0 0 0 0 0 0 0 0 0 0 0 0 0 0 0 154 154 154 154 153 153 153 152 153 150 150 150 151 150 149 150 150 147 153 153 153 151 153 155 154 155 157 158 158 157 157 155 153 153 153 152 153 153 152 -209 -193 154 154 155 156 154 154 155 154 154 153 153 153 152 153 153 151 151 152 153 151 151 152 152 151 152 151 151 151 151 151 150 150 150 149 153 152 152 151 150 151 152 152 152 -193 152 152 154 154 153 152 -193 153 151 152 151 151 -193 153 -209 154 154 155 157 157 155 155 156 155 156 153 153 152 151 150 150 150 150 149 152 150 148 149 152 152 153 153 153 153 154 155 155 154 155 155 155 155 156 157 157 159 159 158 159 159 156 154 154 154 154 153 154 153 154 155 156 157 157 158 158 159 160 156 157 158 157 157 156 156 156 154 157 158 158 158 160 158 160 157 -209 -209 -209 -209 -209 -193 156 155 157 161 159 156 158 162 160 161 161 -209 -209 -193 159 155 155 156 154 154 155 154 154 148 146 142 140 139 139 138 137 135 138 139 141 142 144 145 143 141 145 143 142 145 151 151 154 155 155 157 156 157 157 156 157 156 156 155 153 -193 -209 0 0 0 0 0
    0 0 0 0 0 0 0 0 0 0 0 0 0 0 0 0 0 0 0 0 0 0 0 0 0 0 0 0 0 0 0 0 0 0 0 0 0 0 0 0 0 0 0 0 0 0 0 0 0 0 0 0 0 0 0 0 0 0 0 0 0 0 0 0 0 0 0 0 0 155 155 154 155 154 154 153 152 153 150 150 150 151 150 149 151 150 148 153 153 153 151 153 155 154 156 -193 -209 158 156 157 157 -193 -193 153 152 153 154 -193 -209 -209 -209 -193 155 156 154 154 155 154 154 153 154 153 152 153 -193 151 -193 -209 -209 150 150 151 151 151 152 151 151 152 151 151 150 150 150 148 152 151 150 150 149 150 151 152 152 153 152 152 154 154 153 153 -193 153 151 152 151 152 152 153 -193 154 154 155 157 157 155 155 155 155 155 153 153 152 151 150 151 151 150 150 152 151 149 150 152 152 153 154 154 154 154 155 155 154 156 155 155 155 156 157 157 158 159 157 158 158 156 154 155 155 155 153 154 153 155 156 157 157 157 157 157 158 159 156 157 157 157 157 156 157 157 155 157 157 157 157 158 157 158 155 158 -193 -209 -193 -193 -193 -193 157 160 -193 -209 -193 159 161 160 162 159 -209 156 156 160 156 155 156 155 155 156 155 154 151 151 149 141 141 141 139 -193 -209 -209 -193 138 -209 -209 -209 -193 141 145 143 144 149 153 153 156 156 156 157 157 157 157 156 157 156 156 155 154 -193 -209 0 0 0 0 0
    0 0 0 0 0 0 0 0 0 0 0 0 0 0 0 0 0 0 0 0 0 0 0 0 0 0 0 0 0 0 0 0 0 0 0 0 0 0 0 0 0 0 0 0 0 0 0 0 0 0 0 0 0 0 0 0 0 0 0 0 0 0 0 0 0 0 0 0 0 155 155 154 154 154 154 154 153 153 150 150 151 151 151 149 151 150 148 152 153 153 150 152 154 153 -193 -193 -209 159 -193 158 -193 -209 -193 -193 152 152 153 152 -209 -209 -209 -209 155 156 -193 -193 156 155 155 154 154 153 153 154 -193 151 -193 -209 -209 148 150 150 150 150 152 151 151 151 151 151 150 150 150 147 151 150 149 149 147 148 151 151 151 -193 153 -193 154 154 154 153 -193 154 151 152 152 152 -193 153 154 154 153 155 157 156 155 154 155 154 154 154 153 152 151 151 152 152 150 150 152 150 150 151 152 152 153 153 154 154 154 155 155 154 156 155 155 155 155 156 156 157 157 156 157 158 156 155 155 156 156 154 155 155 156 156 157 157 157 157 157 158 159 157 157 157 157 157 156 157 157 155 157 157 157 157 158 157 -193 -209 -193 160 -209 -193 -193 -193 -193 -209 -193 -193 -209 -209 -193 160 159 161 158 156 156 157 160 156 156 156 155 155 156 155 154 152 152 -193 146 146 144 141 -209 -209 -209 -209 -209 -193 -209 -209 -209 151 150 148 149 151 154 154 156 156 156 157 157 157 157 156 157 156 156 155 154 -193 -193 0 0 0 0 0
    0 0 0 0 0 0 0 0 0 0 0 0 0 0 0 0 0 0 0 0 0 0 0 0 0 0 0 0 0 0 0 0 0 0 0 0 0 0 0 0 0 0 0 0 0 0 0 0 0 0 0 0 0 0 0 0 0 0 0 0 0 0 0 0 0 0 0 0 0 154 153 152 152 152 153 153 153 154 150 150 151 152 151 149 151 150 148 151 151 151 149 151 153 -209 -209 -209 -209 -209 -209 161 -193 -193 -193 -209 152 152 152 -193 -209 -209 -209 -209 -193 -209 -209 -193 156 156 156 154 155 154 154 155 155 152 -209 -209 -209 148 150 149 149 149 152 150 150 151 150 150 149 149 149 144 150 149 148 148 146 148 151 151 151 -193 -193 -193 -193 155 155 154 -193 154 152 153 -209 -193 -209 154 155 154 153 155 -193 -193 154 154 154 154 154 154 154 152 151 151 152 152 151 150 151 150 150 151 152 152 152 153 154 154 155 155 155 154 156 155 155 155 154 156 155 156 157 155 156 156 156 156 156 156 157 155 156 156 156 156 156 156 156 156 156 157 158 156 157 157 157 157 157 157 157 156 159 158 158 157 159 158 159 -193 158 160 162 161 160 158 158 157 159 -193 -193 -193 156 158 157 160 157 155 155 156 159 156 155 156 154 155 155 155 154 152 152 152 149 149 148 145 140 -209 -209 -209 -209 -209 -209 -209 151 153 153 153 153 154 156 155 157 157 157 157 157 157 156 156 157 155 156 155 155 158 158 0 0 0 0 0
    0 0 0 0 0 0 0 0 0 0 0 0 0 0 0 0 0 0 0 0 0 0 0 0 0 0 0 0 0 0 0 0 0 0 0 0 0 0 0 0 0 0 0 0 0 0 0 0 0 0 0 0 0 0 0 0 0 0 0 0 0 0 0 0 0 0 0 0 0 152 151 149 149 150 153 154 154 155 151 151 151 152 150 149 151 150 149 151 151 151 149 152 154 -209 -193 -209 -209 -209 -209 -193 -209 276 -193 -209 152 152 -193 -209 -193 -209 -209 -209 -209 -209 -209 -193 157 156 156 155 156 155 154 155 156 152 -209 -209 -209 -209 149 -209 147 148 152 150 150 150 150 150 149 148 149 144 150 148 148 148 -193 147 -193 -193 -209 -209 -209 -193 -193 155 155 155 155 -193 152 -193 -209 -209 -209 -209 156 154 153 -193 -193 -193 -193 153 154 153 154 154 153 151 150 150 152 152 150 149 151 150 150 151 152 152 152 153 153 154 155 155 155 154 156 156 156 154 154 154 154 155 155 154 155 155 156 156 156 156 157 155 156 155 156 156 155 156 155 154 154 156 157 156 156 156 156 157 156 158 157 156 159 158 158 157 158 157 158 156 157 158 158 158 158 157 157 156 158 159 157 155 156 157 157 159 156 155 155 156 160 156 155 156 154 155 155 154 154 152 153 152 150 151 151 150 148 -193 140 144 148 -209 -209 145 150 152 153 153 153 155 158 156 158 157 157 157 157 157 156 155 156 155 155 155 154 156 157 0 0 0 0 0
    0 0 0 0 0 0 0 0 0 0 0 0 0 0 0 0 0 0 0 0 0 0 0 0 0 0 0 0 0 0 0 0 0 0 0 0 0 0 0 0 0 0 0 0 0 0 0 0 0 0 0 0 0 0 0 0 0 0 0 0 0 0 0 0 0 0 0 0 0 -193 -193 148 149 152 155 156 159 160 154 153 152 153 149 149 151 151 150 152 152 153 151 153 158 -225 -225 -225 -209 -193 633 -209 -193 279 -193 -209 153 153 154 -209 -193 -193 -209 -209 352 -209 -193 348 -193 -193 156 155 157 155 155 156 157 153 -209 -209 -209 -209 -209 -209 -209 146 -209 149 150 150 150 149 148 148 149 143 149 148 148 -209 -209 -209 -193 -193 757 -209 -209 -209 -209 154 155 155 -193 -193 -193 -209 -209 -209 -209 -209 -193 -193 -209 -193 -193 -193 -193 154 154 153 153 153 153 149 148 149 151 151 150 149 151 150 150 151 152 151 151 152 153 154 154 154 154 154 156 156 156 154 153 154 154 155 155 154 155 155 156 156 156 156 157 156 156 155 156 156 155 156 155 153 153 155 157 155 155 156 156 156 157 158 157 156 159 159 158 156 -193 -193 -193 -193 155 155 154 155 156 156 156 156 158 158 157 157 157 157 157 159 156 154 155 156 159 156 155 155 154 154 155 154 154 152 153 153 151 151 151 152 151 147 149 148 150 153 152 151 152 153 154 153 153 156 159 156 158 157 157 157 157 157 156 155 156 155 155 154 153 155 155 0 0 0 0 0</data></disparity>
</opencv_storage>
