<?xml version="1.0"?>
<opencv_storage>
<gps_time_stamp>38723</gps_time_stamp>
<gps_x>-1.3772711753845215e+001</gps_x>
<gps_y>1.5069514513015747e+000</gps_y>
<gps_z>-4.0472025871276855e+000</gps_z>
<image_time_stamp>26664</image_time_stamp>
<disparity type_id="opencv-matrix">
  <rows>91</rows>
  <cols>320</cols>
  <dt>s</dt>
  <data>
    0 0 0 0 0 0 0 0 0 0 0 0 0 0 0 0 0 0 0 0 0 0 0 0 0 0 0 0 0 0 0 0 0 0 0 0 0 0 0 0 0 0 0 0 0 0 0 0 0 0 0 0 0 0 0 0 0 0 0 0 0 0 0 0 0 0 0 0 0 12 12 13 13 12 12 11 12 13 12 11 12 10 10 10 10 10 0 0 0 0 0 0 0 0 0 0 0 0 0 0 0 0 0 0 0 0 0 9 9 9 0 0 10 0 0 9 0 9 9 9 9 9 10 10 0 0 0 0 0 0 0 0 0 0 10 -193 -193 10 10 12 10 12 11 10 11 11 12 12 10 14 9 18 19 22 13 12 11 11 10 11 10 10 10 13 12 17 21 24 18 -225 -225 -225 18 -225 -225 17 14 14 15 11 12 10 10 11 10 9 9 0 9 0 9 9 0 10 13 21 14 11 19 13 13 13 -193 -193 11 11 13 10 11 11 12 14 12 15 14 12 13 13 13 13 11 12 -193 0 0 11 13 12 13 13 14 13 18 20 13 11 14 14 12 11 11 14 14 13 13 12 12 13 14 14 13 12 16 18 19 18 20 18 19 20 20 19 18 18 19 18 20 20 19 20 21 22 22 22 22 24 24 23 23 23 24 22 23 23 19 18 22 23 23 17 25 26 26 26 26 29 27 27 28 27 26 27 27 28 27 28 28 27 29 30 30 30 31 32 34 0 0 0 0 0
    0 0 0 0 0 0 0 0 0 0 0 0 0 0 0 0 0 0 0 0 0 0 0 0 0 0 0 0 0 0 0 0 0 0 0 0 0 0 0 0 0 0 0 0 0 0 0 0 0 0 0 0 0 0 0 0 0 0 0 0 0 0 0 0 0 0 0 0 0 12 12 12 13 12 12 11 11 12 11 11 12 10 10 10 10 10 9 0 0 0 0 0 0 0 0 0 0 0 0 0 0 0 0 0 0 0 0 9 9 9 0 9 10 9 9 9 9 9 9 9 9 9 10 10 0 0 0 0 0 0 0 0 0 0 9 -193 -193 10 10 11 10 12 11 10 11 11 12 12 11 14 9 16 19 22 12 12 11 10 10 10 9 9 0 10 0 10 14 18 15 14 -225 15 18 17 17 16 14 13 14 11 13 11 10 12 10 10 10 9 10 9 9 9 0 9 13 21 13 11 18 13 13 13 -193 -193 11 11 13 10 11 11 12 14 12 15 14 12 13 13 13 13 11 12 -193 8 0 12 13 12 13 13 14 13 18 20 12 11 15 14 12 11 13 15 14 14 14 12 12 14 14 14 13 13 16 18 19 18 19 18 18 19 19 18 18 18 19 18 20 20 19 20 21 22 22 22 22 24 24 23 23 23 23 22 23 22 19 18 23 23 23 20 26 27 26 26 27 28 27 28 29 27 27 28 28 28 28 29 28 28 30 31 30 30 31 32 34 0 0 0 0 0
    0 0 0 0 0 0 0 0 0 0 0 0 0 0 0 0 0 0 0 0 0 0 0 0 0 0 0 0 0 0 0 0 0 0 0 0 0 0 0 0 0 0 0 0 0 0 0 0 0 0 0 0 0 0 0 0 0 0 0 0 0 0 0 0 0 0 0 0 0 12 11 12 12 11 11 11 11 12 11 11 11 10 10 10 10 9 0 0 0 0 0 0 0 0 0 0 0 0 0 0 0 0 0 0 0 0 0 0 9 9 9 9 10 9 9 10 9 9 9 9 10 9 10 10 0 0 0 0 0 0 0 0 0 0 9 -177 -177 10 10 10 9 12 11 10 11 11 11 11 11 14 9 14 18 21 11 11 10 9 9 9 0 0 0 0 0 0 0 9 11 12 -225 15 17 16 16 15 13 12 13 11 13 12 11 13 11 11 11 10 10 10 10 -193 0 0 9 21 12 10 17 13 13 12 -193 -193 10 11 13 10 11 11 12 14 12 14 13 12 13 13 13 12 11 12 12 9 8 13 13 13 13 13 14 13 19 20 12 11 15 15 12 12 14 15 15 15 14 13 13 15 15 14 13 14 17 18 19 17 19 18 18 19 19 18 18 18 19 18 20 20 19 20 21 22 22 22 22 24 24 23 23 23 23 22 22 22 19 18 23 23 23 21 26 27 26 26 26 27 27 27 29 27 27 27 27 28 28 29 28 27 30 31 31 30 31 31 33 0 0 0 0 0
    0 0 0 0 0 0 0 0 0 0 0 0 0 0 0 0 0 0 0 0 0 0 0 0 0 0 0 0 0 0 0 0 0 0 0 0 0 0 0 0 0 0 0 0 0 0 0 0 0 0 0 0 0 0 0 0 0 0 0 0 0 0 0 0 0 0 0 0 0 12 11 12 12 11 11 11 12 11 11 11 11 10 9 10 10 9 0 9 9 0 9 0 0 0 0 0 0 0 0 0 0 0 0 0 0 0 0 0 9 9 9 9 10 9 9 10 9 9 10 10 10 9 10 10 0 0 0 0 0 0 0 0 0 0 0 -177 -177 10 10 9 9 11 11 10 11 10 11 11 11 14 -193 12 15 15 9 10 0 9 0 9 0 0 0 0 0 0 0 0 10 -225 -225 -225 18 17 16 15 12 11 -193 11 -209 -209 10 13 11 12 11 10 10 10 9 -193 -193 0 -193 21 10 10 16 12 13 12 -193 -193 10 11 13 10 11 10 12 13 12 14 13 11 12 13 12 12 11 11 -193 9 9 13 13 13 13 13 14 13 18 19 11 12 14 14 12 12 15 15 15 15 14 14 14 15 15 14 14 15 17 18 19 17 19 18 18 19 18 18 18 18 20 18 20 20 20 21 22 22 21 21 22 24 23 22 22 22 22 22 22 22 18 18 23 23 23 21 26 26 26 26 26 26 27 27 28 27 27 27 28 28 29 29 29 28 31 31 31 30 31 32 34 0 0 0 0 0
    0 0 0 0 0 0 0 0 0 0 0 0 0 0 0 0 0 0 0 0 0 0 0 0 0 0 0 0 0 0 0 0 0 0 0 0 0 0 0 0 0 0 0 0 0 0 0 0 0 0 0 0 0 0 0 0 0 0 0 0 0 0 0 0 0 0 0 0 0 11 11 12 12 11 11 11 11 11 11 11 11 10 10 10 10 9 9 9 9 9 9 9 0 0 0 9 9 0 0 0 0 0 0 0 0 0 0 0 9 9 9 10 11 9 9 10 9 9 10 10 10 9 10 9 0 0 0 0 0 0 0 0 0 0 0 -177 -177 9 9 0 0 11 10 10 10 10 10 -193 11 14 9 10 12 11 9 10 9 10 9 9 0 0 0 0 0 0 0 11 17 17 -225 15 18 17 16 15 12 9 -193 10 -209 -209 9 11 10 10 10 9 9 9 9 0 0 0 -193 20 9 9 15 12 12 11 -193 -193 10 11 12 10 10 10 11 12 11 13 12 11 12 12 12 12 11 10 12 10 9 14 13 13 13 13 14 13 18 17 11 11 13 14 12 12 15 15 15 15 15 15 14 16 16 15 15 15 17 18 18 17 19 17 18 19 18 18 18 19 20 18 20 20 20 21 22 22 21 21 22 24 23 22 22 22 22 22 22 22 18 19 23 23 23 21 26 25 25 26 25 26 27 27 28 27 27 28 28 28 29 29 29 28 30 31 30 30 31 32 33 0 0 0 0 0
    0 0 0 0 0 0 0 0 0 0 0 0 0 0 0 0 0 0 0 0 0 0 0 0 0 0 0 0 0 0 0 0 0 0 0 0 0 0 0 0 0 0 0 0 0 0 0 0 0 0 0 0 0 0 0 0 0 0 0 0 0 0 0 0 0 0 0 0 0 11 10 11 11 10 11 11 11 11 11 11 12 11 10 11 11 10 9 9 9 9 10 9 9 9 9 9 9 9 0 0 0 0 0 0 0 0 0 0 9 9 9 9 10 9 9 10 9 9 10 10 10 9 10 9 0 0 0 0 0 0 0 0 0 0 -193 -177 -177 9 9 0 0 10 10 10 10 10 10 -193 11 14 9 10 11 11 9 11 10 10 9 10 0 9 0 0 0 0 10 13 19 18 -225 15 18 16 15 14 12 -209 -209 9 0 -209 9 10 10 10 9 9 9 9 9 0 0 0 0 -177 9 9 14 11 11 11 -193 -193 10 11 12 9 10 9 11 11 11 12 11 11 12 13 13 12 11 10 12 11 10 14 13 12 13 13 14 13 17 17 11 12 13 13 12 12 15 16 15 16 15 15 15 16 16 15 15 16 17 18 18 17 19 17 18 19 19 19 19 19 20 18 20 20 20 21 21 22 21 21 22 24 23 22 22 22 23 22 22 22 19 21 24 24 24 23 26 25 25 26 26 26 27 27 28 27 28 28 28 29 29 29 29 28 30 30 30 30 31 31 33 0 0 0 0 0
    0 0 0 0 0 0 0 0 0 0 0 0 0 0 0 0 0 0 0 0 0 0 0 0 0 0 0 0 0 0 0 0 0 0 0 0 0 0 0 0 0 0 0 0 0 0 0 0 0 0 0 0 0 0 0 0 0 0 0 0 0 0 0 0 0 0 0 0 0 10 10 10 10 9 10 11 11 11 11 11 11 11 11 11 10 10 9 9 9 10 10 9 9 9 9 9 9 9 0 0 0 0 0 0 0 0 0 0 0 0 0 9 10 9 9 10 9 9 9 9 9 9 9 9 0 0 0 0 0 0 0 0 0 0 -193 -177 -193 9 9 0 0 10 10 9 10 10 10 -193 12 14 10 10 10 10 9 10 10 10 9 10 0 9 0 0 0 0 8 11 17 17 18 15 16 15 14 13 11 -193 0 0 0 0 0 10 9 9 9 9 9 9 9 0 0 0 0 14 0 0 13 11 11 10 11 11 9 11 11 9 9 9 10 11 10 11 11 11 12 13 13 12 11 11 13 12 11 15 13 13 13 13 14 13 17 16 11 12 13 13 13 12 15 16 15 16 16 16 15 17 16 15 15 16 17 18 17 18 19 18 18 19 19 19 19 19 19 18 20 20 20 21 21 22 21 22 22 24 23 22 23 23 23 23 23 23 20 22 24 24 24 24 25 25 25 26 25 26 26 27 28 28 28 29 28 30 30 29 29 28 30 30 30 30 31 31 32 0 0 0 0 0
    0 0 0 0 0 0 0 0 0 0 0 0 0 0 0 0 0 0 0 0 0 0 0 0 0 0 0 0 0 0 0 0 0 0 0 0 0 0 0 0 0 0 0 0 0 0 0 0 0 0 0 0 0 0 0 0 0 0 0 0 0 0 0 0 0 0 0 0 0 10 9 9 10 9 9 10 10 11 11 11 11 10 10 10 10 10 9 9 9 9 9 9 9 9 0 0 0 0 0 0 0 0 0 0 0 0 0 0 0 9 9 9 9 9 9 10 0 0 8 9 9 9 9 9 0 0 0 0 0 0 0 0 0 0 -193 -177 -193 9 9 0 0 9 10 9 9 9 9 -177 12 14 9 9 9 10 0 10 9 10 9 9 0 9 0 0 0 0 9 11 16 16 18 16 17 16 13 12 -193 -209 -209 0 0 0 0 9 9 9 9 9 9 10 9 9 0 0 0 14 0 0 12 10 11 10 10 10 9 10 10 9 9 0 9 10 9 10 10 11 12 13 13 12 12 11 13 12 12 15 13 13 13 13 14 12 16 15 10 12 12 13 13 12 15 15 15 17 17 16 16 17 17 15 15 16 17 17 17 17 18 17 18 19 18 18 19 19 19 18 20 20 20 21 21 22 21 22 22 24 23 22 23 23 24 23 24 24 21 23 25 25 25 24 25 25 26 26 26 26 27 27 28 28 29 29 29 30 30 30 29 28 30 31 30 30 31 31 31 0 0 0 0 0
    0 0 0 0 0 0 0 0 0 0 0 0 0 0 0 0 0 0 0 0 0 0 0 0 0 0 0 0 0 0 0 0 0 0 0 0 0 0 0 0 0 0 0 0 0 0 0 0 0 0 0 0 0 0 0 0 0 0 0 0 0 0 0 0 0 0 0 0 0 10 8 0 9 9 9 10 10 11 11 11 11 10 10 10 10 10 9 9 9 10 9 9 10 9 0 9 0 0 0 0 0 0 0 0 0 0 0 0 9 9 9 9 9 9 9 10 0 0 0 0 9 9 9 9 0 0 0 0 0 0 0 0 0 0 -193 -177 -193 9 9 0 0 9 9 0 0 9 9 -177 12 14 9 9 9 9 0 9 9 10 9 9 0 9 0 0 0 0 10 11 17 16 17 15 15 15 -193 11 10 -193 0 0 0 0 0 9 9 10 9 10 9 10 10 9 0 0 0 14 8 9 11 10 10 10 10 10 9 10 10 9 0 0 9 9 9 9 9 10 11 12 13 12 11 11 14 13 12 15 13 13 14 13 13 12 15 14 10 11 12 12 12 13 16 14 15 18 17 17 16 18 17 15 16 17 17 17 17 18 19 18 18 20 19 19 19 19 19 18 20 20 19 20 21 22 21 21 22 24 23 22 23 23 23 23 24 24 21 23 25 25 25 24 25 25 25 26 25 26 27 28 28 29 29 29 29 30 30 30 29 29 30 30 30 30 31 30 30 0 0 0 0 0
    0 0 0 0 0 0 0 0 0 0 0 0 0 0 0 0 0 0 0 0 0 0 0 0 0 0 0 0 0 0 0 0 0 0 0 0 0 0 0 0 0 0 0 0 0 0 0 0 0 0 0 0 0 0 0 0 0 0 0 0 0 0 0 0 0 0 0 0 0 9 0 0 0 9 9 10 10 11 11 11 11 10 10 10 9 10 9 9 9 10 10 9 10 10 9 9 0 0 0 0 0 0 0 0 0 0 0 0 0 0 9 0 0 0 0 9 0 0 0 0 9 9 10 10 0 0 0 0 0 0 0 0 0 0 0 -177 0 0 0 0 0 0 9 0 0 9 9 579 12 14 10 9 9 10 0 9 9 9 9 0 0 0 0 0 0 0 10 11 19 18 17 15 14 14 -193 -193 10 -209 -193 0 0 0 0 9 9 9 9 9 9 9 9 9 0 0 0 13 0 9 10 9 10 9 10 10 9 10 9 9 0 0 9 0 0 0 0 10 10 11 12 11 11 11 14 12 12 16 13 13 13 13 13 11 14 13 10 11 12 12 13 13 16 13 16 18 17 17 17 18 17 16 18 17 17 17 17 17 19 18 18 19 19 19 19 19 19 18 20 20 19 20 21 22 21 21 22 24 23 22 23 23 24 24 24 24 23 24 25 25 25 24 25 24 25 25 25 26 26 27 28 29 30 29 29 30 29 30 29 28 29 30 29 29 30 29 28 0 0 0 0 0
    0 0 0 0 0 0 0 0 0 0 0 0 0 0 0 0 0 0 0 0 0 0 0 0 0 0 0 0 0 0 0 0 0 0 0 0 0 0 0 0 0 0 0 0 0 0 0 0 0 0 0 0 0 0 0 0 0 0 0 0 0 0 0 0 0 0 0 0 0 10 0 0 9 9 9 10 10 11 11 11 11 10 10 10 9 9 9 9 9 10 10 9 10 9 9 9 0 0 0 0 0 0 0 0 0 0 0 0 0 0 0 0 0 0 0 9 0 0 0 0 9 10 10 11 0 0 0 0 0 0 0 0 0 0 0 -177 0 0 0 0 0 0 9 0 0 9 0 -177 12 14 10 9 10 10 9 9 9 10 9 0 0 9 0 9 10 12 20 17 22 21 19 -225 -193 -193 -193 -209 -193 -209 -209 0 0 0 0 9 9 9 0 9 0 9 9 0 0 0 0 12 0 10 9 9 10 9 10 10 9 10 0 9 0 0 0 0 0 0 0 9 9 10 11 10 10 10 13 12 12 15 13 13 13 13 13 11 14 13 10 11 12 12 12 13 15 13 16 18 17 17 18 18 17 17 18 17 17 18 18 17 19 18 18 19 19 19 19 20 19 18 20 20 19 20 21 21 20 21 22 24 23 22 23 23 24 24 24 25 23 25 25 25 25 25 24 24 25 25 25 26 26 27 27 29 29 29 28 30 29 30 28 29 28 29 29 29 30 29 27 0 0 0 0 0
    0 0 0 0 0 0 0 0 0 0 0 0 0 0 0 0 0 0 0 0 0 0 0 0 0 0 0 0 0 0 0 0 0 0 0 0 0 0 0 0 0 0 0 0 0 0 0 0 0 0 0 0 0 0 0 0 0 0 0 0 0 0 0 0 0 0 0 0 0 10 8 0 9 10 9 10 9 11 10 11 11 10 9 9 9 10 9 9 9 10 10 9 10 10 9 9 0 0 0 0 0 0 0 0 0 0 0 0 0 0 0 0 0 0 0 9 0 0 0 0 0 10 10 11 0 0 0 0 0 0 0 0 0 0 0 -177 0 0 0 0 0 0 0 0 0 0 0 -177 12 14 10 10 11 11 10 10 10 10 10 9 9 10 9 12 14 17 23 21 23 23 -225 -225 17 -193 -193 13 -193 -209 -209 0 0 0 0 9 9 9 0 9 9 9 9 0 0 0 0 13 9 11 9 9 10 10 10 10 9 10 0 9 9 0 0 0 0 0 0 9 9 10 11 10 10 11 12 11 11 15 13 12 13 13 12 12 14 12 10 11 11 12 12 13 13 12 16 18 17 16 18 18 17 18 18 17 17 18 18 18 19 18 18 20 19 19 19 20 19 18 20 20 19 20 21 21 21 21 22 24 23 23 23 23 24 24 24 25 24 25 25 25 25 24 24 24 24 25 25 26 26 27 27 29 30 29 29 30 29 31 29 30 29 29 29 29 30 29 27 0 0 0 0 0
    0 0 0 0 0 0 0 0 0 0 0 0 0 0 0 0 0 0 0 0 0 0 0 0 0 0 0 0 0 0 0 0 0 0 0 0 0 0 0 0 0 0 0 0 0 0 0 0 0 0 0 0 0 0 0 0 0 0 0 0 0 0 0 0 0 0 0 0 0 10 9 9 9 10 9 10 0 11 10 11 10 9 9 9 9 9 9 9 9 10 10 10 10 10 9 9 0 0 0 0 0 0 0 0 0 0 0 0 0 0 0 0 0 0 0 0 0 0 0 0 0 9 10 11 0 0 0 -177 0 0 0 0 0 0 0 128 0 0 0 0 0 0 0 0 0 0 0 -177 12 15 9 10 12 13 11 11 11 11 11 10 10 10 10 13 15 18 22 21 22 -225 -225 -225 19 20 -193 14 14 -209 -209 0 9 0 9 9 9 9 0 9 9 9 9 0 0 0 0 13 9 12 9 9 10 10 10 10 9 10 0 9 9 0 0 0 0 0 0 10 10 11 11 10 10 13 13 11 11 15 12 12 12 12 12 11 14 12 9 11 11 11 11 13 12 11 16 18 17 16 18 18 17 18 18 17 17 18 18 18 19 18 19 20 20 19 19 20 19 17 20 20 18 19 21 20 21 21 23 24 23 23 23 23 24 24 25 25 24 25 25 25 25 25 25 25 25 24 25 26 26 27 27 28 29 29 29 29 29 31 29 30 30 31 30 30 30 29 26 0 0 0 0 0
    0 0 0 0 0 0 0 0 0 0 0 0 0 0 0 0 0 0 0 0 0 0 0 0 0 0 0 0 0 0 0 0 0 0 0 0 0 0 0 0 0 0 0 0 0 0 0 0 0 0 0 0 0 0 0 0 0 0 0 0 0 0 0 0 0 0 0 0 0 11 9 9 10 11 9 10 9 10 10 11 10 9 9 9 9 9 9 9 9 10 10 9 9 9 9 9 0 0 0 0 0 0 0 0 0 0 0 0 0 0 0 0 0 0 0 0 0 0 0 0 0 9 9 11 0 0 0 -177 0 0 0 0 0 0 0 128 0 0 0 0 0 0 0 0 0 0 0 -177 12 15 10 11 14 15 12 12 11 11 11 10 10 10 9 11 13 18 21 -225 -225 -225 -225 -225 20 -193 -193 -193 15 -193 -193 9 10 9 9 9 9 9 0 9 9 0 0 0 0 0 0 13 9 12 9 9 10 10 10 10 9 10 0 9 9 0 9 0 0 9 9 11 11 11 11 10 10 13 12 11 11 15 12 12 12 12 11 11 14 12 9 11 11 11 12 14 12 11 16 18 16 16 19 18 17 18 18 17 17 18 18 18 19 19 19 20 20 19 20 20 18 17 19 20 18 19 21 19 21 21 23 23 23 23 23 23 24 24 24 25 25 25 26 26 25 25 25 25 25 24 25 26 25 27 27 28 28 28 28 29 28 31 29 31 31 33 32 31 31 30 27 0 0 0 0 0
    0 0 0 0 0 0 0 0 0 0 0 0 0 0 0 0 0 0 0 0 0 0 0 0 0 0 0 0 0 0 0 0 0 0 0 0 0 0 0 0 0 0 0 0 0 0 0 0 0 0 0 0 0 0 0 0 0 0 0 0 0 0 0 0 0 0 0 0 0 11 9 9 10 11 9 10 9 10 9 10 10 0 0 0 0 9 9 9 9 9 10 9 9 9 0 0 0 0 0 0 0 0 9 0 0 0 0 0 0 0 0 0 0 0 0 0 0 0 0 0 0 0 0 10 0 0 0 0 0 0 0 0 0 0 0 -177 0 0 0 0 0 0 0 0 0 0 0 -177 12 14 9 11 15 17 13 14 12 11 12 11 11 10 9 11 12 18 22 -225 -225 -225 -225 -225 22 -193 -193 16 -193 -193 10 10 11 10 10 9 9 9 0 9 9 0 0 0 0 0 0 13 10 13 9 9 10 10 10 10 9 10 0 9 10 0 9 0 9 10 9 11 11 11 11 10 10 13 12 11 11 15 12 12 12 12 11 11 14 12 9 11 11 11 12 14 12 11 16 17 15 16 18 18 16 18 18 17 17 18 18 18 19 19 19 20 19 19 20 20 18 17 19 20 18 20 22 19 21 21 23 23 22 22 22 23 24 24 24 24 25 25 25 25 25 25 25 25 26 25 26 27 26 28 27 28 28 28 29 30 28 31 29 31 31 33 32 31 32 30 28 0 0 0 0 0
    0 0 0 0 0 0 0 0 0 0 0 0 0 0 0 0 0 0 0 0 0 0 0 0 0 0 0 0 0 0 0 0 0 0 0 0 0 0 0 0 0 0 0 0 0 0 0 0 0 0 0 0 0 0 0 0 0 0 0 0 0 0 0 0 0 0 0 0 0 12 10 10 10 11 9 9 9 9 9 10 9 0 0 0 0 0 0 9 9 9 9 9 9 9 0 0 0 0 0 0 0 0 9 0 0 0 0 0 0 0 0 0 0 0 0 0 0 0 0 0 0 0 0 10 0 0 0 0 0 0 0 0 0 0 0 -193 0 0 9 0 0 0 0 0 0 9 9 -177 11 13 9 11 15 18 14 15 13 12 13 12 12 11 10 12 11 18 21 -225 -225 -225 -225 -225 -225 -209 -193 17 17 14 12 12 13 12 12 10 10 9 0 9 0 0 0 0 0 0 0 14 10 14 10 9 11 10 11 10 9 10 0 10 11 8 9 0 9 10 9 11 10 10 10 0 10 14 12 11 11 16 12 12 12 12 10 11 14 11 9 11 11 11 12 14 12 11 16 17 15 15 18 17 16 18 18 17 17 18 18 18 19 19 19 20 19 19 20 20 18 17 20 20 19 20 22 19 21 21 23 22 22 22 22 22 24 24 24 24 25 25 25 25 25 25 25 25 26 25 26 28 27 28 27 27 28 28 29 29 28 31 29 31 31 33 32 31 32 30 28 0 0 0 0 0
    0 0 0 0 0 0 0 0 0 0 0 0 0 0 0 0 0 0 0 0 0 0 0 0 0 0 0 0 0 0 0 0 0 0 0 0 0 0 0 0 0 0 0 0 0 0 0 0 0 0 0 0 0 0 0 0 0 0 0 0 0 0 0 0 0 0 0 0 0 11 10 10 10 11 9 9 9 9 0 10 9 0 0 0 0 0 9 9 9 9 9 9 9 9 0 0 0 0 9 9 9 9 10 9 9 9 0 0 0 0 0 0 0 0 0 0 0 0 0 0 0 9 0 10 0 0 0 0 0 0 0 0 0 0 0 -193 0 0 9 0 0 0 0 0 0 9 9 -193 11 12 9 11 14 17 14 15 13 12 12 12 12 11 10 12 10 15 20 20 -225 -225 -225 -225 -209 -209 -193 17 17 15 13 13 14 13 13 11 10 9 0 9 0 0 0 0 0 0 0 12 10 15 10 10 11 11 11 10 9 11 0 10 11 9 10 9 10 11 9 10 10 9 9 0 0 14 11 10 10 15 12 12 12 12 10 12 14 12 9 12 12 13 13 14 13 12 16 17 15 15 18 16 16 18 18 17 17 18 17 18 19 18 19 19 19 19 20 20 17 17 20 20 19 20 22 18 21 21 22 22 22 22 22 23 24 24 24 24 25 25 25 25 25 25 26 25 25 24 28 29 28 28 27 27 28 28 29 28 27 30 28 31 31 32 31 30 32 30 28 0 0 0 0 0
    0 0 0 0 0 0 0 0 0 0 0 0 0 0 0 0 0 0 0 0 0 0 0 0 0 0 0 0 0 0 0 0 0 0 0 0 0 0 0 0 0 0 0 0 0 0 0 0 0 0 0 0 0 0 0 0 0 0 0 0 0 0 0 0 0 0 0 0 0 11 10 10 10 11 9 9 9 9 0 10 9 0 0 0 0 0 9 9 0 9 9 9 9 0 0 0 0 0 10 9 9 10 10 9 9 9 0 0 0 0 0 0 0 0 0 0 0 0 0 0 0 9 0 10 0 0 0 0 0 0 0 0 0 0 0 0 0 0 9 0 0 9 9 0 0 9 9 -193 11 12 9 11 13 15 13 14 12 12 12 12 12 11 10 12 10 12 16 18 20 25 -193 28 -209 -193 19 16 16 -193 -193 14 14 13 13 11 11 10 0 0 0 0 0 0 0 0 0 11 10 15 10 10 12 11 11 10 10 11 9 10 11 9 10 9 10 11 9 10 10 10 10 0 9 14 11 10 10 15 11 12 12 12 10 12 14 12 9 13 14 14 14 15 13 13 16 17 14 14 16 16 16 17 17 16 17 18 17 19 19 18 18 19 19 18 21 21 17 18 20 20 20 21 22 18 20 21 22 22 22 22 22 23 24 24 24 24 25 26 26 26 26 26 26 26 26 25 30 29 28 29 27 27 28 28 28 27 27 29 28 31 30 31 31 29 31 30 28 0 0 0 0 0
    0 0 0 0 0 0 0 0 0 0 0 0 0 0 0 0 0 0 0 0 0 0 0 0 0 0 0 0 0 0 0 0 0 0 0 0 0 0 0 0 0 0 0 0 0 0 0 0 0 0 0 0 0 0 0 0 0 0 0 0 0 0 0 0 0 0 0 0 0 11 11 11 10 12 10 9 9 9 0 10 9 0 0 0 9 9 9 9 0 9 9 9 0 0 0 0 0 0 10 9 9 10 10 9 9 9 0 0 0 0 0 0 0 0 0 0 0 0 0 0 0 9 9 10 0 9 0 0 0 0 0 0 0 0 0 0 0 0 9 0 0 9 9 9 9 9 9 -193 10 11 9 10 12 13 12 14 12 12 12 12 11 11 10 11 9 11 12 14 15 23 11 -193 -209 -209 -193 -209 -209 -209 -193 13 13 12 13 11 11 10 0 0 0 0 0 0 0 0 0 11 10 15 11 10 12 11 11 11 10 11 9 11 11 10 10 9 10 11 9 10 10 10 10 9 9 14 11 10 10 14 11 12 12 12 10 13 15 12 10 14 14 15 15 15 14 13 16 17 14 14 15 16 16 17 17 16 18 18 17 19 18 18 18 19 18 17 21 21 16 20 21 21 21 21 22 18 21 21 23 22 22 22 23 22 23 23 23 23 25 25 25 25 26 26 26 26 27 26 30 30 28 29 28 27 28 28 29 27 27 29 28 30 30 31 31 29 31 31 29 0 0 0 0 0
    0 0 0 0 0 0 0 0 0 0 0 0 0 0 0 0 0 0 0 0 0 0 0 0 0 0 0 0 0 0 0 0 0 0 0 0 0 0 0 0 0 0 0 0 0 0 0 0 0 0 0 0 0 0 0 0 0 0 0 0 0 0 0 0 0 0 0 0 0 11 11 11 10 11 10 9 9 9 0 10 9 0 0 9 9 9 9 9 0 9 9 9 9 0 0 0 0 8 10 9 9 10 10 9 9 9 0 0 0 0 0 0 0 0 0 0 0 0 0 0 0 9 9 10 0 9 0 0 0 0 0 0 0 0 0 0 0 0 10 0 0 9 9 9 9 10 10 0 10 10 0 0 9 10 10 13 12 12 12 12 11 11 10 10 0 9 0 10 0 -193 0 0 0 0 0 0 0 -209 0 9 11 10 11 10 10 9 0 0 0 0 0 0 0 0 9 11 10 15 11 10 11 11 11 11 10 12 9 11 11 10 11 10 11 12 10 11 12 11 11 10 12 15 11 11 10 14 11 12 12 12 10 14 16 12 10 16 15 15 15 15 14 13 16 17 14 14 14 15 16 16 17 16 18 17 17 20 18 18 19 19 18 17 22 20 15 20 21 21 21 21 21 18 21 21 23 22 22 22 22 21 23 23 23 22 25 25 25 25 26 25 26 27 27 26 31 29 28 29 28 27 28 28 29 27 27 28 28 30 30 31 31 28 31 31 30 0 0 0 0 0
    0 0 0 0 0 0 0 0 0 0 0 0 0 0 0 0 0 0 0 0 0 0 0 0 0 0 0 0 0 0 0 0 0 0 0 0 0 0 0 0 0 0 0 0 0 0 0 0 0 0 0 0 0 0 0 0 0 0 0 0 0 0 0 0 0 0 0 0 0 11 10 10 10 11 10 9 10 9 0 10 8 0 0 0 9 0 9 9 0 9 9 9 9 8 0 0 9 0 10 9 9 10 10 10 10 9 0 0 0 0 0 0 0 0 0 0 0 0 0 0 0 10 10 11 0 10 0 0 9 9 9 9 0 9 0 9 0 0 11 0 9 10 9 9 10 10 10 0 9 9 0 0 0 0 9 11 11 12 12 12 11 11 9 10 0 0 0 0 0 0 0 0 0 0 0 0 0 0 0 0 10 9 10 0 9 0 0 0 0 0 0 0 0 0 9 11 10 15 11 11 11 11 11 11 10 12 9 11 12 10 12 11 12 12 11 12 12 11 11 10 12 14 11 11 11 14 12 12 12 12 11 14 16 12 11 17 15 16 15 15 14 14 17 17 13 14 13 14 14 15 16 16 17 17 18 20 18 18 18 18 18 17 21 20 15 20 21 21 21 21 21 19 22 22 23 22 23 22 22 21 24 23 23 22 25 24 25 25 26 26 27 27 27 27 30 29 28 30 28 27 27 28 28 27 27 28 27 30 30 30 31 28 31 32 31 0 0 0 0 0
    0 0 0 0 0 0 0 0 0 0 0 0 0 0 0 0 0 0 0 0 0 0 0 0 0 0 0 0 0 0 0 0 0 0 0 0 0 0 0 0 0 0 0 0 0 0 0 0 0 0 0 0 0 0 0 0 0 0 0 0 0 0 0 0 0 0 0 0 0 11 10 10 10 10 9 9 9 9 9 10 9 9 9 8 9 0 0 0 0 9 9 0 9 0 0 0 9 9 10 10 10 10 10 10 10 9 0 0 0 0 0 0 0 0 0 0 0 0 0 0 0 10 10 11 9 11 9 0 9 9 9 9 0 9 0 9 0 0 11 9 9 10 10 10 10 10 10 0 0 0 0 0 0 0 0 10 11 12 12 12 11 12 10 10 0 0 0 0 0 0 0 0 0 0 0 0 0 0 0 0 9 0 9 0 0 0 0 0 0 0 0 0 0 0 9 11 10 14 11 11 11 11 11 11 10 12 9 11 12 10 13 11 12 12 11 11 12 10 11 9 11 12 11 11 11 13 11 12 12 12 11 14 16 12 11 17 15 16 15 15 14 14 17 17 13 14 13 13 14 15 15 15 17 18 18 21 18 18 18 19 18 17 21 20 14 21 21 21 21 21 20 19 21 22 22 23 24 23 23 22 23 23 23 22 23 22 23 24 26 26 26 27 27 28 30 29 28 30 28 27 28 28 28 27 27 28 26 29 29 29 30 28 30 32 31 0 0 0 0 0
    0 0 0 0 0 0 0 0 0 0 0 0 0 0 0 0 0 0 0 0 0 0 0 0 0 0 0 0 0 0 0 0 0 0 0 0 0 0 0 0 0 0 0 0 0 0 0 0 0 0 0 0 0 0 0 0 0 0 0 0 0 0 0 0 0 0 0 0 0 11 11 10 9 10 9 9 9 9 0 10 9 9 9 9 0 0 0 0 0 0 0 0 9 9 9 9 10 9 11 10 10 11 10 10 10 9 0 0 0 0 0 0 0 0 0 0 0 0 0 0 0 10 10 12 9 12 9 9 9 9 9 9 0 9 0 9 0 0 11 10 10 10 10 10 10 10 10 0 0 0 0 0 0 0 0 9 11 11 12 12 11 12 11 11 9 0 0 0 0 0 0 0 0 0 0 0 0 0 0 0 9 0 9 0 9 0 0 0 0 0 0 0 9 0 9 12 10 14 11 11 12 11 11 11 10 12 9 11 11 10 13 11 11 11 10 11 11 10 11 9 11 11 11 11 12 13 11 12 12 12 11 14 16 12 11 17 15 15 15 15 14 13 17 17 13 14 13 13 14 15 15 15 18 18 18 21 18 18 19 19 19 17 20 20 15 22 22 21 21 21 21 20 22 22 22 24 24 24 24 23 25 25 24 23 23 21 23 24 27 27 26 27 28 29 30 29 28 30 28 28 28 28 28 27 28 28 26 28 28 28 29 27 28 30 31 0 0 0 0 0
    0 0 0 0 0 0 0 0 0 0 0 0 0 0 0 0 0 0 0 0 0 0 0 0 0 0 0 0 0 0 0 0 0 0 0 0 0 0 0 0 0 0 0 0 0 0 0 0 0 0 0 0 0 0 0 0 0 0 0 0 0 0 0 0 0 0 0 0 0 12 11 11 9 9 9 0 9 9 0 10 9 9 9 9 0 0 0 0 0 9 9 9 9 9 9 10 11 10 10 9 9 10 9 9 9 0 0 0 0 0 0 0 0 0 0 0 0 0 0 0 0 10 11 12 9 13 10 9 10 9 9 9 9 9 0 9 0 0 11 10 10 10 9 9 10 10 9 0 0 0 0 0 0 0 0 0 10 11 11 12 11 12 10 11 0 0 0 0 0 0 0 0 0 0 0 0 0 0 0 0 0 0 9 0 8 0 0 0 0 0 0 0 9 9 9 12 10 14 11 12 12 11 11 11 10 12 9 11 11 11 12 11 12 11 11 11 11 10 11 10 12 11 11 10 12 12 11 11 11 11 11 14 15 12 12 18 16 15 15 15 14 13 17 17 13 14 13 14 14 15 15 16 18 18 19 21 18 18 19 19 18 17 20 19 15 21 21 20 21 21 21 20 22 22 23 25 25 24 25 24 25 25 25 24 22 22 24 25 28 27 26 27 27 29 30 28 28 30 28 27 28 28 28 27 28 28 25 27 28 27 28 26 27 29 31 0 0 0 0 0
    0 0 0 0 0 0 0 0 0 0 0 0 0 0 0 0 0 0 0 0 0 0 0 0 0 0 0 0 0 0 0 0 0 0 0 0 0 0 0 0 0 0 0 0 0 0 0 0 0 0 0 0 0 0 0 0 0 0 0 0 0 0 0 0 0 0 0 0 0 11 11 10 9 9 9 0 9 9 0 10 9 9 9 9 9 0 0 0 0 9 9 9 9 10 10 11 12 11 10 9 10 11 0 0 0 0 0 0 0 0 0 0 0 0 0 0 0 0 0 0 -209 10 11 -193 10 14 10 10 10 10 9 10 9 9 0 0 0 0 11 10 10 10 10 10 10 9 9 0 0 0 0 0 0 0 0 0 0 9 10 10 10 11 9 10 0 0 0 0 0 0 0 0 0 0 0 0 0 0 0 0 0 0 0 0 0 0 0 0 0 0 0 0 9 10 10 13 10 14 11 12 12 11 11 11 10 12 9 11 11 11 13 11 12 11 11 11 11 11 11 10 12 10 10 10 13 11 11 11 11 11 11 14 15 12 12 18 16 16 15 15 14 13 17 18 13 14 14 14 14 15 15 16 18 19 19 21 18 18 19 18 18 17 19 19 15 22 21 20 22 21 21 21 23 22 23 25 25 24 25 23 24 24 24 25 23 23 25 25 28 28 27 28 28 31 30 28 28 31 28 28 28 28 27 27 28 28 25 26 27 26 27 26 27 29 30 0 0 0 0 0
    0 0 0 0 0 0 0 0 0 0 0 0 0 0 0 0 0 0 0 0 0 0 0 0 0 0 0 0 0 0 0 0 0 0 0 0 0 0 0 0 0 0 0 0 0 0 0 0 0 0 0 0 0 0 0 0 0 0 0 0 0 0 0 0 0 0 0 0 0 11 10 10 9 9 9 9 9 9 0 10 9 9 0 9 0 0 0 0 0 9 9 9 9 10 11 12 13 11 10 10 10 11 0 0 0 0 0 0 0 0 0 0 0 0 0 0 0 0 0 0 -209 10 12 -193 10 15 11 10 11 10 10 10 9 10 0 9 9 0 13 11 11 11 10 10 10 10 10 0 0 0 0 0 0 0 0 0 0 0 0 0 0 0 0 0 0 0 0 0 0 0 0 0 0 0 0 0 0 0 0 0 0 0 0 0 0 0 0 0 0 0 0 0 9 9 10 12 10 12 10 12 11 10 10 10 10 11 10 11 10 11 13 12 13 12 12 11 12 11 11 11 12 9 10 9 13 11 11 11 11 11 11 14 15 12 12 18 15 15 14 15 14 13 16 18 13 14 14 14 13 14 14 15 18 19 19 22 18 19 19 19 18 17 19 19 15 22 21 21 23 22 22 23 24 22 23 25 24 22 23 21 22 22 24 24 23 24 26 26 29 29 27 29 29 31 29 27 27 31 28 28 28 28 27 27 28 28 23 25 26 25 26 25 26 28 29 0 0 0 0 0
    0 0 0 0 0 0 0 0 0 0 0 0 0 0 0 0 0 0 0 0 0 0 0 0 0 0 0 0 0 0 0 0 0 0 0 0 0 0 0 0 0 0 0 0 0 0 0 0 0 0 0 0 0 0 0 0 0 0 0 0 0 0 0 0 0 0 0 0 0 11 11 11 9 0 9 0 9 0 0 9 9 0 9 0 0 0 0 0 0 9 9 9 9 10 10 12 13 11 11 11 12 11 0 0 0 0 0 0 0 0 0 0 0 0 0 0 0 0 0 0 0 9 10 -193 9 14 10 10 11 10 10 10 9 10 0 10 9 9 15 12 13 12 11 11 11 11 11 0 0 0 0 0 0 0 0 0 0 0 0 0 0 0 0 0 0 0 0 0 0 0 0 0 0 0 0 0 0 0 0 0 0 0 0 0 0 0 0 0 0 0 0 0 10 9 11 9 8 0 0 10 9 0 9 0 0 9 10 11 10 11 14 12 14 12 12 12 12 11 12 10 12 0 0 0 13 11 10 10 11 11 12 14 16 11 13 17 14 14 13 14 13 12 15 18 13 14 14 14 13 14 14 16 17 20 20 22 18 19 19 19 19 18 19 19 15 22 21 22 23 23 23 24 25 24 23 24 23 22 22 20 21 22 23 24 23 24 26 27 29 30 28 29 29 31 28 27 27 31 28 28 28 28 27 28 28 28 22 22 26 24 -193 25 27 27 29 0 0 0 0 0
    0 0 0 0 0 0 0 0 0 0 0 0 0 0 0 0 0 0 0 0 0 0 0 0 0 0 0 0 0 0 0 0 0 0 0 0 0 0 0 0 0 0 0 0 0 0 0 0 0 0 0 0 0 0 0 0 0 0 0 0 0 0 0 0 0 0 0 0 0 10 10 10 9 0 0 0 9 9 0 10 9 9 9 9 0 0 0 0 0 0 0 0 9 9 9 11 12 11 12 12 12 11 0 0 0 0 0 0 0 0 0 0 0 0 0 0 0 0 0 0 0 8 9 11 9 12 10 10 11 10 10 10 9 10 9 11 9 9 15 12 13 12 12 12 12 13 13 9 9 0 0 0 0 0 0 0 0 0 0 9 9 9 0 9 0 0 9 0 0 0 0 -193 0 0 0 0 0 0 0 -209 0 0 0 0 0 0 9 9 9 9 9 9 10 9 11 0 0 0 0 9 0 0 0 0 0 0 10 11 10 11 14 12 15 13 13 12 12 11 12 10 12 0 0 0 12 11 10 10 11 11 12 14 15 11 12 17 14 14 13 14 13 12 15 18 13 14 14 14 13 14 14 16 15 20 20 22 18 20 20 19 19 18 19 19 15 22 21 22 24 23 24 25 25 23 22 22 21 20 20 19 18 20 21 22 22 24 26 27 29 30 28 29 29 31 27 26 26 31 28 28 28 28 27 28 29 29 20 20 25 -193 -193 26 28 28 30 0 0 0 0 0
    0 0 0 0 0 0 0 0 0 0 0 0 0 0 0 0 0 0 0 0 0 0 0 0 0 0 0 0 0 0 0 0 0 0 0 0 0 0 0 0 0 0 0 0 0 0 0 0 0 0 0 0 0 0 0 0 0 0 0 0 0 0 0 0 0 0 0 0 0 9 10 9 0 0 0 0 9 9 0 10 10 9 9 9 0 0 0 0 0 0 0 0 0 9 9 10 11 10 13 12 12 11 9 9 0 0 0 0 0 0 0 0 0 0 0 0 0 0 0 0 0 0 0 10 9 12 10 10 11 10 10 10 9 10 0 10 9 9 15 12 13 13 12 13 12 13 13 10 10 0 0 0 0 0 0 0 0 0 0 9 9 9 0 10 0 9 10 10 9 0 -193 -193 -193 -209 0 0 0 0 -193 -193 -209 -193 0 0 0 9 9 10 9 9 8 9 10 -193 10 0 0 0 0 0 0 0 0 0 0 0 10 11 10 11 13 12 14 13 13 12 11 11 11 10 11 0 0 0 12 11 10 10 11 11 12 14 15 10 12 16 13 14 13 14 13 12 15 18 13 14 14 14 13 14 14 16 14 19 19 22 18 20 20 20 19 19 19 19 16 22 21 22 24 24 25 26 25 24 22 22 21 20 20 18 17 20 19 22 24 25 27 28 30 31 29 29 29 30 26 26 26 30 28 28 28 28 27 28 28 28 20 20 25 26 -193 27 29 29 31 0 0 0 0 0
    0 0 0 0 0 0 0 0 0 0 0 0 0 0 0 0 0 0 0 0 0 0 0 0 0 0 0 0 0 0 0 0 0 0 0 0 0 0 0 0 0 0 0 0 0 0 0 0 0 0 0 0 0 0 0 0 0 0 0 0 0 0 0 0 0 0 0 0 0 9 9 9 0 0 0 0 0 0 0 10 10 9 9 9 9 9 0 0 0 0 0 0 0 0 0 10 10 10 14 12 13 12 10 9 9 9 9 0 0 0 0 0 0 0 0 0 0 0 0 0 0 0 0 10 9 12 11 11 11 10 10 10 9 10 0 10 9 0 15 12 13 13 12 13 12 14 14 10 11 9 9 9 9 9 0 0 0 0 8 9 9 9 0 9 -209 -193 -193 -193 10 -193 -193 -193 -209 -193 -193 0 -209 -209 -209 -193 -193 -209 -209 -193 -193 9 9 10 0 9 -193 0 -193 -193 -193 -193 0 0 0 0 0 0 0 0 0 0 10 12 10 11 12 11 13 12 12 11 10 11 11 10 10 0 0 0 12 11 10 10 11 11 12 14 14 10 11 16 13 14 13 14 13 13 15 18 13 15 14 15 14 15 15 16 13 19 19 21 18 20 20 20 20 19 20 20 17 23 22 22 24 24 25 24 23 22 21 21 20 20 20 18 18 20 18 20 25 27 29 29 31 33 30 29 28 29 26 26 26 30 28 28 28 28 27 28 28 28 22 23 -193 -193 27 28 29 29 31 0 0 0 0 0
    0 0 0 0 0 0 0 0 0 0 0 0 0 0 0 0 0 0 0 0 0 0 0 0 0 0 0 0 0 0 0 0 0 0 0 0 0 0 0 0 0 0 0 0 0 0 0 0 0 0 0 0 0 0 0 0 0 0 0 0 0 0 0 0 0 0 0 0 0 9 9 9 0 0 0 0 0 0 0 9 9 9 9 9 9 9 0 0 0 0 9 0 0 0 0 9 10 10 14 12 13 12 10 10 10 10 9 0 0 0 0 0 0 0 0 0 0 0 0 0 0 0 9 10 9 12 11 11 11 10 10 9 9 10 9 10 0 0 13 11 13 12 12 12 12 14 14 11 12 10 10 10 10 10 9 0 9 0 0 0 0 0 0 -209 -209 -193 -193 -193 -193 -193 -193 -193 -193 -193 -193 -209 -209 -209 -193 -193 -193 -193 -209 -209 -193 9 -193 10 -193 -193 -193 0 -209 -193 -193 -193 0 0 0 0 0 0 -209 0 0 0 10 13 10 11 12 10 14 13 13 11 10 11 11 10 10 0 0 0 13 11 11 11 11 11 12 15 14 10 12 15 13 15 13 14 13 13 15 18 14 15 15 16 14 15 16 16 14 18 19 20 18 20 20 20 19 19 20 20 17 22 22 23 25 26 27 24 24 23 22 21 21 20 20 17 18 20 18 20 26 28 30 30 31 34 30 29 28 29 26 26 26 30 28 28 28 28 28 29 29 28 25 26 29 30 28 29 30 30 32 0 0 0 0 0
    0 0 0 0 0 0 0 0 0 0 0 0 0 0 0 0 0 0 0 0 0 0 0 0 0 0 0 0 0 0 0 0 0 0 0 0 0 0 0 0 0 0 0 0 0 0 0 0 0 0 0 0 0 0 0 0 0 0 0 0 0 0 0 0 0 0 0 0 0 0 9 9 0 0 0 0 0 0 0 9 10 9 9 9 9 9 9 9 0 9 9 9 9 9 0 9 10 10 14 12 12 11 10 10 9 10 9 0 0 0 0 0 0 0 0 0 0 0 0 0 0 9 10 10 9 12 10 10 10 10 9 9 9 10 0 10 0 0 13 11 13 12 12 13 12 14 14 11 12 10 10 10 10 10 9 0 0 0 0 0 0 0 0 -193 -193 -193 -193 -193 -193 -193 -193 -193 -193 -193 -209 -209 -209 -209 -193 -193 -193 -193 -209 -209 -209 -193 -193 -193 -209 -193 -209 -193 -209 -193 -193 -209 0 0 0 0 0 0 -193 0 0 0 10 13 10 11 12 10 14 14 14 12 10 11 12 11 10 0 0 0 13 11 11 11 12 11 12 14 14 10 12 15 13 15 13 14 13 14 16 18 14 16 15 16 15 16 16 16 13 18 18 19 18 20 20 19 19 19 20 20 16 21 20 22 24 25 25 23 23 23 22 21 20 20 19 17 18 20 16 18 25 27 27 27 30 33 28 28 28 28 26 26 27 30 28 29 29 29 29 31 30 29 26 29 31 31 29 30 31 31 32 0 0 0 0 0
    0 0 0 0 0 0 0 0 0 0 0 0 0 0 0 0 0 0 0 0 0 0 0 0 0 0 0 0 0 0 0 0 0 0 0 0 0 0 0 0 0 0 0 0 0 0 0 0 0 0 0 0 0 0 0 0 0 0 0 0 0 0 0 0 0 0 0 0 0 0 9 9 0 0 0 0 0 0 0 9 10 9 9 9 10 10 9 9 0 9 9 9 9 0 0 9 10 9 14 11 12 10 10 10 9 10 9 0 0 0 0 0 0 0 0 0 0 0 0 0 0 9 11 11 9 11 10 10 10 9 9 0 0 10 0 10 0 0 14 11 13 13 12 13 13 15 15 12 13 10 11 10 10 10 9 8 9 -177 -177 -177 -177 0 0 -193 -193 143 142 144 142 141 -193 -193 -193 -193 -193 -209 -209 -209 -193 -193 -193 -193 -209 -209 -193 -193 -209 -193 -209 -193 -193 -193 -209 -193 -193 -209 0 0 0 0 0 0 -193 0 9 9 10 13 11 12 12 11 14 14 14 12 10 11 11 10 9 0 0 0 13 11 11 11 13 12 13 15 14 10 13 15 13 15 14 14 14 14 16 18 14 16 15 16 15 16 16 16 14 18 17 19 19 20 19 20 19 19 20 20 16 22 21 25 24 25 23 22 22 22 21 20 20 19 19 18 18 20 16 19 25 27 27 26 29 33 28 28 27 29 26 26 27 31 29 29 30 30 30 32 31 30 28 31 32 32 29 30 32 32 33 0 0 0 0 0
    0 0 0 0 0 0 0 0 0 0 0 0 0 0 0 0 0 0 0 0 0 0 0 0 0 0 0 0 0 0 0 0 0 0 0 0 0 0 0 0 0 0 0 0 0 0 0 0 0 0 0 0 0 0 0 0 0 0 0 0 0 0 0 0 0 0 0 0 0 0 9 9 9 0 0 0 0 0 0 9 9 9 9 9 10 10 10 9 9 9 10 10 10 0 0 0 9 9 14 11 12 10 10 10 10 10 9 0 0 0 0 0 0 0 0 0 0 0 0 0 0 10 11 11 9 11 10 10 10 9 9 0 0 10 9 10 9 0 13 11 13 13 12 13 13 15 15 12 13 11 11 11 10 11 10 9 -193 -177 -177 -177 -177 -177 0 -193 -193 142 142 144 142 141 140 -193 -193 -193 -193 -209 -209 -193 -193 -193 269 -193 -193 -209 -193 -193 -209 -193 -209 -209 -193 -193 -209 -193 -193 -209 0 0 0 0 0 0 -209 0 9 9 10 13 11 11 12 10 14 14 14 12 10 10 9 0 0 0 0 0 14 11 12 12 13 12 13 15 14 11 13 15 13 15 14 14 14 14 16 18 14 16 15 17 16 16 17 17 14 18 18 19 19 20 19 20 19 19 19 19 16 22 20 24 22 24 23 22 21 22 21 20 19 19 19 18 18 19 15 17 25 26 25 24 27 31 26 26 26 30 26 26 28 31 29 30 31 31 31 34 33 31 29 33 32 33 30 30 32 33 33 0 0 0 0 0
    0 0 0 0 0 0 0 0 0 0 0 0 0 0 0 0 0 0 0 0 0 0 0 0 0 0 0 0 0 0 0 0 0 0 0 0 0 0 0 0 0 0 0 0 0 0 0 0 0 0 0 0 0 0 0 0 0 0 0 0 0 0 0 0 0 0 0 0 0 0 9 9 9 0 0 0 0 0 0 9 9 9 10 9 10 10 10 9 9 9 10 9 9 9 0 0 0 0 13 11 11 10 10 10 10 10 9 0 0 0 0 0 0 0 0 0 0 0 0 0 0 10 12 11 10 11 10 10 10 10 9 0 0 9 0 9 0 0 12 11 13 13 12 13 13 15 15 13 14 11 11 11 11 11 10 9 9 -177 -177 -177 -177 -177 -193 -193 -193 142 142 144 142 141 140 -193 -193 -193 -193 -209 -209 -209 -193 274 269 -193 -193 -209 -193 -209 -209 -193 -209 -209 -193 -193 -209 -209 -193 -209 0 0 0 0 0 -209 -209 0 9 9 11 13 11 11 12 10 12 13 13 11 10 10 9 0 0 0 0 0 13 11 12 12 14 12 14 15 14 10 13 15 13 15 14 14 14 14 16 17 14 17 15 17 17 17 18 17 15 18 18 19 19 20 19 19 19 18 19 18 15 22 22 24 22 23 22 21 21 22 20 19 19 19 19 18 19 19 14 16 23 24 23 21 24 27 23 24 24 28 25 25 29 30 29 30 31 31 31 34 33 31 30 34 31 33 30 30 32 33 33 0 0 0 0 0
    0 0 0 0 0 0 0 0 0 0 0 0 0 0 0 0 0 0 0 0 0 0 0 0 0 0 0 0 0 0 0 0 0 0 0 0 0 0 0 0 0 0 0 0 0 0 0 0 0 0 0 0 0 0 0 0 0 0 0 0 0 0 0 0 0 0 0 0 0 0 9 9 9 0 0 0 0 0 8 11 9 9 10 9 9 9 10 9 0 9 10 9 10 9 0 0 0 0 13 10 10 10 9 10 9 10 9 0 0 0 0 0 0 0 0 0 0 0 0 0 0 10 12 11 10 11 11 10 10 10 9 0 0 0 0 0 0 0 10 10 12 12 11 12 12 14 14 12 14 12 12 12 11 11 10 9 9 -177 -177 -177 -177 8 -193 -193 139 -193 142 144 142 141 -193 -193 -193 -193 -193 -209 -209 -193 -209 -193 -193 -193 -193 -209 -209 -209 -209 -209 -209 -209 -209 -209 -209 -209 -193 -209 0 0 0 0 -193 -209 -209 -193 -193 9 11 13 12 12 12 10 13 12 12 11 10 10 9 0 0 0 0 0 14 12 12 12 14 12 14 15 13 10 12 15 13 15 14 14 14 14 16 17 14 17 15 17 17 17 18 17 15 18 18 18 18 19 18 18 18 17 19 16 16 22 22 23 22 23 21 21 20 22 20 19 19 19 19 19 19 20 14 16 23 24 23 20 23 25 22 23 24 26 25 25 28 29 28 29 30 30 30 34 32 30 31 35 31 34 30 31 31 33 32 0 0 0 0 0
    0 0 0 0 0 0 0 0 0 0 0 0 0 0 0 0 0 0 0 0 0 0 0 0 0 0 0 0 0 0 0 0 0 0 0 0 0 0 0 0 0 0 0 0 0 0 0 0 0 0 0 0 0 0 0 0 0 0 0 0 0 0 0 0 0 0 0 0 0 0 9 10 10 9 9 0 0 0 0 12 0 0 10 0 9 9 9 9 0 9 10 9 11 10 10 0 8 8 13 10 10 9 9 9 9 9 8 0 0 0 0 0 0 0 0 0 0 0 0 0 0 10 12 11 10 11 10 10 9 9 0 0 0 0 0 0 0 0 0 0 10 11 11 11 11 13 13 13 14 12 12 12 12 12 10 9 -177 -177 -177 -177 -177 0 0 -193 139 141 142 143 141 141 -193 -193 -209 -193 -209 -209 -193 0 -209 -193 -209 -193 -209 -209 -209 -193 -209 -209 -209 -209 -209 -209 -209 -209 -209 -209 0 0 0 0 0 9 10 9 10 10 11 13 12 13 13 11 13 12 12 12 11 10 10 0 0 0 0 0 15 12 12 12 14 12 14 15 13 11 13 14 12 14 13 14 13 14 15 17 14 17 15 17 17 17 18 17 15 17 18 17 17 18 17 18 17 16 18 14 18 22 22 23 21 22 21 19 20 22 20 19 19 19 19 19 20 20 14 18 23 24 23 20 23 26 23 24 24 24 24 24 28 28 27 28 29 29 29 34 32 30 31 36 31 34 30 30 30 32 31 0 0 0 0 0
    0 0 0 0 0 0 0 0 0 0 0 0 0 0 0 0 0 0 0 0 0 0 0 0 0 0 0 0 0 0 0 0 0 0 0 0 0 0 0 0 0 0 0 0 0 0 0 0 0 0 0 0 0 0 0 0 0 0 0 0 0 0 0 0 0 0 0 0 0 0 10 10 10 9 9 0 0 0 0 12 0 0 9 0 8 0 9 9 0 9 10 9 12 12 11 9 10 9 13 10 9 9 9 9 9 9 0 0 0 0 0 0 0 0 0 0 0 0 0 0 0 10 12 10 10 10 10 9 9 9 0 0 0 0 0 0 0 0 0 0 9 9 10 10 10 12 12 12 15 12 13 14 14 13 12 11 10 9 10 -177 9 0 0 -193 -193 -193 -193 142 140 -193 -209 -193 -209 -193 -209 0 8 0 0 -193 -193 -193 -209 -193 -193 11 10 12 -209 -193 -193 -209 -209 -209 -209 0 10 0 -193 9 9 9 10 10 11 10 11 13 13 14 14 12 14 13 13 13 12 11 11 0 0 0 0 0 15 11 12 12 13 12 14 14 13 10 13 14 12 14 13 13 13 14 15 16 14 17 15 17 17 17 18 17 16 17 18 17 17 16 16 16 16 15 18 13 17 22 22 23 22 22 20 18 19 22 19 18 18 19 19 20 21 20 15 20 23 24 23 20 23 25 23 -193 -193 24 23 24 27 27 26 27 27 28 29 34 32 29 31 36 31 34 30 30 29 32 30 0 0 0 0 0
    0 0 0 0 0 0 0 0 0 0 0 0 0 0 0 0 0 0 0 0 0 0 0 0 0 0 0 0 0 0 0 0 0 0 0 0 0 0 0 0 0 0 0 0 0 0 0 0 0 0 0 0 0 0 0 0 0 0 0 0 0 0 0 0 0 0 0 0 0 0 10 11 11 9 10 0 0 0 0 14 0 0 9 0 0 0 9 9 0 9 10 9 12 12 12 10 11 10 12 9 0 0 0 0 0 0 0 0 0 0 0 0 0 0 0 0 0 0 0 0 0 10 13 10 10 10 10 9 0 0 0 0 0 0 0 0 0 0 0 0 0 9 9 9 9 10 11 12 16 12 15 17 17 14 13 12 10 9 9 10 9 0 0 0 0 0 0 0 0 0 0 0 0 0 0 0 0 0 0 9 0 10 10 11 11 12 12 14 11 12 13 11 -193 -193 -193 0 11 9 9 10 -193 9 10 10 11 10 11 12 12 14 14 13 14 14 14 13 13 12 11 9 0 0 0 0 16 11 12 11 13 12 14 14 13 10 13 13 12 13 13 13 13 13 14 15 14 17 15 17 17 18 18 18 16 17 19 17 17 16 16 16 15 15 17 12 15 20 22 23 22 22 19 18 19 22 20 19 18 19 20 21 21 21 15 21 23 24 24 21 23 25 24 -193 -209 23 22 23 26 26 26 26 27 27 28 34 31 29 31 36 31 33 31 29 29 32 30 0 0 0 0 0
    0 0 0 0 0 0 0 0 0 0 0 0 0 0 0 0 0 0 0 0 0 0 0 0 0 0 0 0 0 0 0 0 0 0 0 0 0 0 0 0 0 0 0 0 0 0 0 0 0 0 0 0 0 0 0 0 0 0 0 0 0 0 0 0 0 0 0 0 0 0 10 11 11 9 10 9 0 0 0 14 0 0 9 0 0 9 9 9 0 9 10 10 11 13 13 11 11 10 10 0 0 0 0 0 0 0 0 0 0 0 0 0 0 0 0 0 0 0 0 0 0 10 12 10 10 10 10 9 0 0 0 0 0 0 0 0 0 0 0 0 0 0 0 0 0 9 9 12 16 11 18 24 22 15 15 12 9 9 9 10 9 9 0 0 0 0 0 0 0 0 0 0 0 0 0 0 0 0 0 10 9 10 11 11 10 12 13 13 12 15 16 15 -193 18 -209 0 14 10 10 10 -193 10 10 11 11 9 11 11 12 13 13 13 13 13 13 12 12 12 11 9 0 0 0 0 16 12 11 11 13 12 14 13 13 10 13 13 12 12 12 12 12 13 13 15 13 16 15 17 17 18 18 19 17 17 19 17 16 16 16 16 14 15 17 11 15 20 21 23 22 21 17 17 19 22 19 18 18 19 20 22 22 21 15 22 24 25 25 22 23 24 24 -193 -209 23 22 23 26 26 25 26 26 26 28 33 31 28 -193 36 31 -193 32 -193 -193 32 31 0 0 0 0 0
    0 0 0 0 0 0 0 0 0 0 0 0 0 0 0 0 0 0 0 0 0 0 0 0 0 0 0 0 0 0 0 0 0 0 0 0 0 0 0 0 0 0 0 0 0 0 0 0 0 0 0 0 0 0 0 0 0 0 0 0 0 0 0 0 0 0 0 0 0 0 10 12 11 0 11 9 0 0 0 14 0 0 9 0 0 9 9 9 0 9 10 10 11 12 12 11 11 11 10 0 0 0 0 0 0 0 0 0 0 0 0 0 0 0 0 0 0 0 0 0 0 9 12 10 10 10 10 9 9 9 0 0 0 0 0 0 0 0 0 0 0 0 0 0 0 0 0 12 16 10 16 25 23 17 17 12 9 9 9 9 9 9 0 0 0 9 9 0 0 0 -193 -209 -209 0 0 0 -193 0 9 10 9 10 11 10 10 11 12 11 11 15 16 -193 20 24 0 0 -177 11 11 10 -193 -193 -193 11 12 9 11 11 12 13 13 13 13 13 12 12 12 11 10 0 0 0 0 0 15 11 11 11 13 12 14 13 13 10 12 13 12 12 12 12 12 12 12 14 13 16 15 17 17 19 18 19 17 17 19 17 16 16 16 16 14 14 16 10 15 20 21 22 22 20 16 16 18 22 19 18 18 19 21 23 22 22 16 23 24 26 26 22 23 24 24 -209 -209 23 22 23 26 26 25 25 26 26 27 32 30 27 -209 -193 31 -193 32 -193 -193 32 31 0 0 0 0 0
    0 0 0 0 0 0 0 0 0 0 0 0 0 0 0 0 0 0 0 0 0 0 0 0 0 0 0 0 0 0 0 0 0 0 0 0 0 0 0 0 0 0 0 0 0 0 0 0 0 0 0 0 0 0 0 0 0 0 0 0 0 0 0 0 0 0 0 0 0 9 11 12 12 9 11 10 0 0 0 14 0 0 0 0 0 0 9 9 0 9 9 10 11 13 13 11 11 11 10 9 0 0 0 0 0 0 0 0 0 0 0 0 0 0 0 0 0 0 0 0 0 0 10 9 10 9 10 9 9 9 0 0 0 0 0 0 0 0 0 0 0 0 0 0 0 0 0 12 15 10 11 21 19 14 15 12 9 9 9 9 9 9 0 0 0 0 9 0 0 0 0 -193 -193 -193 -209 -209 -193 10 11 12 10 10 11 10 9 10 11 10 -193 11 12 -209 17 21 0 0 -177 11 11 11 -193 -193 -193 11 12 9 10 10 11 13 12 13 13 13 12 11 11 11 9 0 0 0 0 0 14 11 10 11 12 11 14 13 12 10 12 12 11 11 11 11 11 12 12 13 13 15 15 17 17 18 19 20 17 16 20 17 16 15 16 16 14 14 17 10 20 22 23 22 22 19 15 15 18 23 19 19 18 19 22 23 -193 -193 15 24 25 27 26 22 23 24 24 -209 -193 23 22 23 25 25 25 25 25 25 27 30 29 26 -209 -193 30 33 32 -193 -193 32 31 0 0 0 0 0
    0 0 0 0 0 0 0 0 0 0 0 0 0 0 0 0 0 0 0 0 0 0 0 0 0 0 0 0 0 0 0 0 0 0 0 0 0 0 0 0 0 0 0 0 0 0 0 0 0 0 0 0 0 0 0 0 0 0 0 0 0 0 0 0 0 0 0 0 0 9 11 12 12 9 12 11 0 0 0 15 0 0 0 0 0 0 0 9 0 9 9 10 11 13 13 11 10 10 0 0 0 0 0 0 0 0 0 0 0 0 0 0 0 0 0 0 0 0 0 0 0 0 9 0 10 9 10 9 9 9 0 0 0 0 0 0 0 0 0 0 0 0 0 0 0 0 0 11 14 10 0 12 11 9 10 10 8 9 8 9 0 8 0 0 0 0 0 0 -225 -225 0 -193 -177 -193 -209 -193 -193 11 13 13 11 11 11 10 9 10 10 9 9 10 10 -209 14 18 0 0 -177 12 12 11 10 -193 10 11 12 9 10 10 11 13 12 13 13 13 12 11 12 12 10 0 0 0 0 0 12 10 10 10 11 11 14 12 12 10 11 11 10 10 10 11 11 11 11 13 13 14 14 16 15 17 18 19 16 16 20 16 16 15 16 15 14 15 17 10 23 23 23 21 21 18 14 14 17 22 19 18 18 20 22 -193 -177 -193 15 25 25 27 26 23 23 24 24 -193 91 23 22 23 25 25 25 25 25 23 26 29 28 25 -209 -209 30 32 32 -193 29 32 32 0 0 0 0 0
    0 0 0 0 0 0 0 0 0 0 0 0 0 0 0 0 0 0 0 0 0 0 0 0 0 0 0 0 0 0 0 0 0 0 0 0 0 0 0 0 0 0 0 0 0 0 0 0 0 0 0 0 0 0 0 0 0 0 0 0 0 0 0 0 0 0 0 0 0 10 12 13 13 9 12 11 0 0 0 15 0 0 0 0 0 0 0 9 0 9 9 10 11 13 14 13 10 10 0 0 0 0 0 0 0 0 0 0 0 0 0 0 0 0 0 0 0 0 0 0 0 0 0 0 9 9 9 9 9 9 0 0 0 0 0 0 0 0 0 0 0 0 0 0 0 0 0 11 14 9 0 9 9 0 9 9 0 9 0 9 0 0 0 0 0 0 0 -177 0 -225 0 -225 -193 93 -193 -193 14 12 14 13 11 11 11 10 9 9 9 9 0 9 9 -209 12 15 0 0 -177 12 12 11 10 -193 -193 11 12 9 10 10 11 13 12 13 13 13 13 12 13 13 11 9 0 0 0 0 10 9 9 9 10 10 14 11 11 10 12 11 10 10 10 10 11 11 12 12 13 14 14 15 14 17 18 18 15 15 20 16 16 15 16 15 14 15 17 11 24 23 22 20 20 18 14 13 16 -193 18 18 18 20 21 -193 -193 -193 15 25 25 26 26 24 25 25 26 -193 92 24 23 23 25 25 25 25 25 23 26 29 27 25 -209 -209 -193 31 33 30 29 32 32 0 0 0 0 0
    0 0 0 0 0 0 0 0 0 0 0 0 0 0 0 0 0 0 0 0 0 0 0 0 0 0 0 0 0 0 0 0 0 0 0 0 0 0 0 0 0 0 0 0 0 0 0 0 0 0 0 0 0 0 0 0 0 0 0 0 0 0 0 0 0 0 0 0 0 10 12 13 13 9 12 10 0 0 0 14 0 0 0 0 0 0 0 9 0 9 10 11 11 13 14 13 11 11 9 9 0 0 0 0 0 0 0 0 0 0 0 0 0 0 0 0 0 0 0 0 0 0 0 0 9 0 9 9 8 0 0 0 0 0 0 0 0 0 0 0 0 0 0 0 0 0 0 11 13 9 0 9 9 9 9 9 0 9 0 0 0 0 0 0 0 0 0 -177 8 -225 8 -225 -193 93 -193 -193 14 13 14 12 11 11 11 10 -193 9 -193 0 0 0 0 0 10 11 0 0 -193 12 12 11 11 11 10 11 12 9 10 10 11 12 11 12 12 13 13 12 13 13 11 10 0 0 0 0 9 9 0 9 10 10 13 11 11 10 13 11 10 10 10 11 11 11 13 12 13 14 15 15 15 17 18 17 15 15 20 16 16 15 16 15 14 16 18 12 25 23 25 22 22 21 16 15 18 -193 19 18 18 19 21 -193 -193 22 15 25 25 26 26 25 25 26 26 -193 92 25 24 24 26 26 26 26 26 23 27 29 27 25 -209 -193 -193 31 33 -193 30 33 33 0 0 0 0 0
    0 0 0 0 0 0 0 0 0 0 0 0 0 0 0 0 0 0 0 0 0 0 0 0 0 0 0 0 0 0 0 0 0 0 0 0 0 0 0 0 0 0 0 0 0 0 0 0 0 0 0 0 0 0 0 0 0 0 0 0 0 0 0 0 0 0 0 0 0 11 12 13 13 9 11 10 0 0 0 14 0 0 0 0 0 0 0 9 0 9 10 12 11 13 14 14 11 11 9 9 0 0 0 0 0 0 0 0 0 0 0 0 0 0 0 0 0 0 0 0 0 0 0 0 9 0 0 0 0 0 0 0 0 0 0 0 0 0 0 0 0 -193 0 0 0 0 0 11 13 9 0 9 9 9 10 9 0 9 0 0 0 0 0 0 0 0 0 9 9 10 9 -193 -209 -193 -193 -193 13 12 13 11 10 10 11 10 -193 -193 -193 0 0 0 0 0 9 0 0 0 -193 12 12 11 11 11 11 12 13 9 10 10 11 12 11 12 12 13 12 12 13 13 11 9 0 0 0 0 0 0 0 0 9 10 13 11 11 10 14 12 11 11 11 11 11 11 15 13 13 14 15 15 15 18 19 16 15 16 20 16 16 16 16 15 14 17 18 12 25 25 29 25 25 23 19 19 20 23 19 18 18 19 20 -193 -193 21 15 25 25 26 25 24 24 25 24 -193 -193 26 25 25 27 27 26 27 27 25 27 28 27 26 -209 -193 -193 30 33 30 30 33 33 0 0 0 0 0
    0 0 0 0 0 0 0 0 0 0 0 0 0 0 0 0 0 0 0 0 0 0 0 0 0 0 0 0 0 0 0 0 0 0 0 0 0 0 0 0 0 0 0 0 0 0 0 0 0 0 0 0 0 0 0 0 0 0 0 0 0 0 0 0 0 0 0 0 0 11 12 13 13 9 12 11 0 0 0 13 0 0 0 0 0 0 9 9 0 10 11 12 12 13 14 14 12 12 9 9 0 0 0 0 0 0 0 0 0 0 0 0 0 0 0 0 0 0 0 0 0 0 0 0 0 0 0 0 0 0 0 0 0 0 0 0 0 0 0 0 0 -193 0 0 0 0 0 11 12 9 0 9 0 9 10 9 0 0 0 0 0 0 0 0 0 9 9 9 10 11 11 -209 -209 -209 -209 21 12 12 13 11 10 10 11 -193 -193 -193 -193 0 0 0 0 0 0 0 0 0 -193 12 12 11 11 11 11 12 13 9 10 10 11 12 10 11 12 12 12 11 13 13 11 9 0 0 0 0 0 0 0 0 9 10 13 11 11 10 15 12 12 11 11 12 12 12 16 13 14 14 15 15 15 17 19 16 15 16 20 16 16 16 16 15 15 17 18 13 25 30 35 29 29 26 22 22 -193 23 19 19 18 19 19 22 22 20 14 24 24 25 25 24 24 24 23 -193 -193 27 26 26 28 28 27 28 28 25 27 28 28 26 -209 -193 -193 30 33 31 31 33 34 0 0 0 0 0
    0 0 0 0 0 0 0 0 0 0 0 0 0 0 0 0 0 0 0 0 0 0 0 0 0 0 0 0 0 0 0 0 0 0 0 0 0 0 0 0 0 0 0 0 0 0 0 0 0 0 0 0 0 0 0 0 0 0 0 0 0 0 0 0 0 0 0 0 0 11 13 13 13 9 12 11 0 0 0 12 0 0 0 0 0 9 9 10 -193 10 12 12 12 13 14 14 12 12 9 0 0 0 0 0 0 0 0 0 0 0 0 0 0 0 0 0 0 0 0 0 0 0 0 0 0 0 0 0 0 0 0 0 0 0 9 0 0 0 0 0 0 -193 -193 0 0 0 0 11 12 9 0 10 9 9 11 9 0 9 9 0 0 9 9 0 9 9 9 10 10 13 21 -209 28 -193 -209 22 12 12 13 11 10 10 10 -193 -193 -193 -193 0 0 0 0 0 0 0 0 0 -193 12 12 11 11 12 11 12 13 9 10 10 11 12 10 12 12 13 12 12 14 13 10 10 0 0 0 0 0 0 0 0 9 10 12 11 10 11 16 13 14 12 12 13 13 13 18 13 14 14 16 16 15 17 19 14 15 17 21 17 16 17 17 15 16 18 19 14 26 34 36 33 33 30 -193 -193 -193 -193 19 19 18 18 18 21 21 18 14 22 23 24 23 23 23 23 23 -193 -193 28 27 27 28 28 28 29 28 25 27 28 27 27 -209 -193 -193 30 33 31 31 33 33 0 0 0 0 0
    0 0 0 0 0 0 0 0 0 0 0 0 0 0 0 0 0 0 0 0 0 0 0 0 0 0 0 0 0 0 0 0 0 0 0 0 0 0 0 0 0 0 0 0 0 0 0 0 0 0 0 0 0 0 0 0 0 0 0 0 0 0 0 0 0 0 0 0 0 11 13 13 13 9 11 11 0 0 0 12 0 0 0 0 0 0 -193 -193 -193 10 12 12 12 13 13 13 11 11 0 0 0 0 0 0 0 0 0 0 0 0 0 0 0 0 0 0 0 0 0 0 0 0 0 0 0 0 0 0 0 0 0 0 0 9 9 0 0 9 0 0 0 -193 -193 0 0 0 0 11 12 9 0 10 9 10 11 10 9 9 9 9 0 9 9 0 9 9 9 10 10 13 20 21 -193 -193 9 -193 11 11 13 10 9 10 10 -193 -193 -193 -193 0 0 0 0 0 0 0 0 0 -193 12 12 11 11 12 11 12 13 9 11 10 11 12 10 12 13 13 13 12 16 13 10 10 0 0 0 0 0 0 0 0 0 10 12 11 10 11 17 13 15 13 13 13 14 14 18 14 15 14 15 15 15 17 19 13 15 17 21 17 17 18 18 16 19 21 21 17 28 35 37 36 37 34 -193 -193 -193 23 19 18 18 18 17 19 19 16 14 22 23 23 21 22 22 23 23 -193 -193 28 28 28 29 28 28 29 29 25 27 27 26 27 -193 28 -193 29 31 31 31 32 33 0 0 0 0 0
    0 0 0 0 0 0 0 0 0 0 0 0 0 0 0 0 0 0 0 0 0 0 0 0 0 0 0 0 0 0 0 0 0 0 0 0 0 0 0 0 0 0 0 0 0 0 0 0 0 0 0 0 0 0 0 0 0 0 0 0 0 0 0 0 0 0 0 0 0 11 13 13 13 9 11 11 0 0 0 13 0 0 0 0 0 0 9 9 -209 10 12 12 12 13 13 13 10 10 0 0 0 0 0 0 0 0 0 9 0 0 0 0 0 0 0 0 0 0 0 0 0 0 0 0 0 0 0 0 0 0 0 0 0 9 9 0 0 9 0 0 0 -193 0 0 0 0 0 11 12 9 0 10 9 10 11 10 9 9 9 9 0 9 9 0 0 9 9 9 9 10 11 0 0 0 0 -193 9 10 11 10 9 9 9 9 0 0 0 0 0 0 0 0 0 0 0 0 -193 11 12 11 11 12 11 12 13 9 11 10 11 12 10 12 12 13 13 13 17 14 12 13 0 0 0 0 0 0 0 0 0 11 12 11 10 11 18 13 16 13 13 14 15 15 19 14 15 14 16 16 15 17 19 12 14 18 21 17 18 18 19 18 -193 -193 -193 25 30 36 36 36 38 36 27 25 -193 23 19 18 17 17 16 18 18 15 15 21 23 22 21 23 23 23 23 24 -193 28 28 29 28 28 28 29 28 25 26 26 26 27 26 28 -193 28 30 31 30 32 32 0 0 0 0 0
    0 0 0 0 0 0 0 0 0 0 0 0 0 0 0 0 0 0 0 0 0 0 0 0 0 0 0 0 0 0 0 0 0 0 0 0 0 0 0 0 0 0 0 0 0 0 0 0 0 0 0 0 0 0 0 0 0 0 0 0 0 0 0 0 0 0 0 0 0 11 13 13 13 9 11 12 0 0 9 12 0 0 0 0 0 0 9 9 -209 10 11 11 12 12 12 12 10 10 0 0 9 0 0 0 0 0 0 9 0 0 0 0 0 0 0 0 0 0 0 0 0 0 0 0 0 0 0 0 0 0 0 0 0 9 9 0 0 10 0 0 9 9 0 0 0 0 0 10 12 9 0 11 10 10 11 10 9 9 9 9 0 0 9 0 0 9 9 9 9 9 9 0 0 0 0 -193 0 10 10 9 9 9 9 0 0 0 0 0 0 0 0 0 0 0 0 0 -209 11 12 11 10 12 11 12 12 9 10 9 11 12 10 12 12 13 13 14 18 15 15 18 0 0 0 9 0 0 0 9 9 12 13 11 10 11 18 13 16 14 14 14 15 15 19 14 16 13 16 16 15 17 19 12 15 19 20 17 18 18 19 -193 -177 -193 -193 27 32 37 37 37 38 38 29 26 26 23 -193 17 17 17 15 17 17 14 15 21 22 22 20 22 23 23 23 23 -193 28 28 29 28 28 27 28 28 25 26 26 25 27 26 27 27 28 30 30 30 31 32 0 0 0 0 0
    0 0 0 0 0 0 0 0 0 0 0 0 0 0 0 0 0 0 0 0 0 0 0 0 0 0 0 0 0 0 0 0 0 0 0 0 0 0 0 0 0 0 0 0 0 0 0 0 0 0 0 0 0 0 0 0 0 0 0 0 0 0 0 0 0 0 0 0 0 -193 13 13 13 9 11 11 8 0 10 12 0 0 0 0 0 0 9 -209 -209 10 11 -193 12 12 12 12 10 10 0 0 9 0 9 9 0 0 0 9 0 0 0 0 0 0 0 0 0 0 0 0 0 0 0 0 0 0 0 0 0 0 0 0 0 9 9 0 0 10 0 0 9 9 0 0 0 9 0 10 12 10 10 12 12 12 13 11 9 9 9 0 0 0 0 0 0 9 9 9 9 9 9 0 0 0 0 9 0 10 10 9 9 9 0 0 0 0 0 0 0 0 0 0 0 0 0 0 -193 10 12 11 10 11 10 11 12 9 10 9 11 11 10 11 12 12 13 14 18 16 16 19 9 9 0 10 9 9 9 9 9 12 13 12 10 12 18 13 16 14 14 14 15 15 19 14 16 13 17 17 16 18 20 12 16 19 20 17 18 18 19 -193 -177 -193 -193 28 33 36 37 37 38 39 29 26 26 -193 -193 -193 17 16 15 16 16 13 15 21 22 21 18 21 22 23 22 23 -193 27 28 29 27 27 27 27 27 25 25 25 -193 26 26 27 28 29 29 31 31 31 32 0 0 0 0 0
    0 0 0 0 0 0 0 0 0 0 0 0 0 0 0 0 0 0 0 0 0 0 0 0 0 0 0 0 0 0 0 0 0 0 0 0 0 0 0 0 0 0 0 0 0 0 0 0 0 0 0 0 0 0 0 0 0 0 0 0 0 0 0 0 0 0 0 0 0 -193 12 13 13 -193 11 11 0 0 11 13 9 9 9 0 0 9 10 -193 -209 11 12 -193 13 13 12 13 11 11 9 0 9 9 9 9 0 0 0 9 0 0 0 0 0 0 0 0 0 0 0 0 0 0 0 0 0 0 0 0 0 0 0 0 0 9 9 0 0 11 0 9 10 9 0 0 9 9 0 10 12 10 11 13 13 12 13 11 9 9 9 0 0 0 0 0 0 9 0 9 0 9 9 0 -193 0 0 0 0 10 10 0 9 9 0 0 0 0 0 0 0 0 0 0 0 0 0 0 13 10 11 10 10 11 10 11 11 10 10 9 10 11 10 11 11 11 12 13 17 14 14 19 8 0 0 11 10 9 10 10 10 13 13 12 10 11 18 13 16 13 13 14 14 14 18 14 15 13 18 17 17 19 20 12 17 20 20 17 18 18 19 18 -193 -193 27 28 34 36 37 37 38 40 31 28 27 23 -193 -193 17 16 15 16 16 12 15 20 21 21 18 21 21 23 22 23 -193 26 26 28 26 26 26 26 26 24 24 25 -193 26 27 28 28 29 29 31 30 31 32 0 0 0 0 0
    0 0 0 0 0 0 0 0 0 0 0 0 0 0 0 0 0 0 0 0 0 0 0 0 0 0 0 0 0 0 0 0 0 0 0 0 0 0 0 0 0 0 0 0 0 0 0 0 0 0 0 0 0 0 0 0 0 0 0 0 0 0 0 0 0 0 0 0 0 -193 12 13 13 -193 11 12 9 0 12 14 11 11 11 9 9 10 11 10 10 12 12 12 14 14 13 14 12 12 9 0 9 9 9 9 0 0 0 0 0 0 0 0 0 0 0 0 0 0 0 0 0 0 0 0 0 0 0 0 0 0 0 0 0 10 9 0 0 11 9 9 10 10 0 9 10 10 0 10 12 10 12 13 13 12 13 11 9 9 9 0 0 0 0 0 0 0 0 0 0 0 0 0 0 0 9 9 0 10 9 0 9 9 0 0 0 0 0 0 0 0 0 0 0 0 0 0 11 10 11 10 10 10 10 11 11 10 10 9 10 10 10 10 11 11 12 12 -193 12 11 17 0 0 0 12 10 10 10 11 10 13 13 12 10 11 18 13 16 13 13 14 14 14 18 14 15 13 18 17 17 19 20 13 18 21 20 18 18 19 19 18 24 26 -193 29 34 36 37 38 39 41 31 27 27 22 18 17 16 15 15 16 16 12 15 20 21 21 18 21 22 23 22 23 -209 25 25 27 25 25 25 25 25 25 24 25 -209 27 28 29 29 30 29 31 31 31 32 0 0 0 0 0
    0 0 0 0 0 0 0 0 0 0 0 0 0 0 0 0 0 0 0 0 0 0 0 0 0 0 0 0 0 0 0 0 0 0 0 0 0 0 0 0 0 0 0 0 0 0 0 0 0 0 0 0 0 0 0 0 0 0 0 0 0 0 0 0 0 0 0 0 0 -193 12 14 13 -193 12 12 0 0 12 13 -193 12 12 10 -209 11 12 -193 11 13 13 12 15 15 14 14 13 12 9 0 9 0 0 0 0 0 0 0 0 0 0 0 0 0 0 0 0 0 0 0 0 0 0 0 0 0 0 0 0 0 0 0 0 10 9 0 0 11 9 10 11 10 9 9 10 11 0 11 12 10 12 13 12 12 12 11 9 0 0 0 0 0 0 0 0 0 0 0 0 0 0 0 0 0 10 9 9 10 9 9 9 9 0 0 0 0 0 0 0 0 0 0 0 9 0 0 10 9 11 10 10 10 9 10 10 9 10 0 9 9 10 11 11 12 13 13 16 14 14 19 10 10 9 13 11 11 11 11 11 14 13 12 10 11 18 13 16 13 13 14 14 14 18 14 15 14 18 17 18 19 20 14 19 21 20 18 18 19 19 18 24 26 -193 29 35 36 37 38 40 43 29 26 26 21 18 17 16 15 15 16 16 12 16 21 22 21 18 22 23 24 23 24 24 24 24 27 25 24 24 25 25 25 25 25 -209 27 29 29 30 30 30 32 32 31 33 0 0 0 0 0
    0 0 0 0 0 0 0 0 0 0 0 0 0 0 0 0 0 0 0 0 0 0 0 0 0 0 0 0 0 0 0 0 0 0 0 0 0 0 0 0 0 0 0 0 0 0 0 0 0 0 0 0 0 0 0 0 0 0 0 0 0 0 0 0 0 0 0 0 0 -193 13 14 14 -193 12 12 0 0 12 12 -193 13 13 -193 -209 -193 -193 -193 -193 13 12 12 15 15 14 14 12 12 9 9 0 0 0 0 0 0 0 0 0 0 0 0 0 0 0 0 0 0 0 0 0 0 0 0 0 0 0 0 0 0 0 0 0 10 9 0 0 12 10 11 11 11 9 10 11 12 9 11 11 10 12 13 12 11 11 10 9 0 0 0 0 0 0 0 0 0 0 0 0 0 0 0 0 0 10 9 9 10 9 9 9 9 0 0 0 0 0 0 0 0 0 0 0 10 0 0 9 9 11 10 10 9 9 10 10 9 10 0 0 9 10 11 11 12 14 15 18 17 21 22 11 10 9 15 12 11 12 12 11 14 13 12 10 11 18 13 16 14 14 15 15 15 18 14 16 14 18 18 18 19 21 14 19 22 19 18 19 19 19 18 24 25 -193 29 35 36 35 37 40 44 24 23 24 20 17 16 16 15 15 16 16 12 17 21 22 21 19 22 23 24 24 24 23 23 23 26 -193 24 24 24 23 25 24 26 -209 27 29 30 30 31 30 32 32 31 33 0 0 0 0 0
    0 0 0 0 0 0 0 0 0 0 0 0 0 0 0 0 0 0 0 0 0 0 0 0 0 0 0 0 0 0 0 0 0 0 0 0 0 0 0 0 0 0 0 0 0 0 0 0 0 0 0 0 0 0 0 0 0 0 0 0 0 0 0 0 0 0 0 0 0 -193 13 15 14 9 12 12 0 0 13 13 -193 15 15 -193 -209 -209 -209 -193 -209 14 12 12 15 15 14 14 12 12 10 9 9 0 0 0 0 0 0 0 0 0 0 0 0 0 0 0 0 0 0 0 0 0 0 0 0 0 0 0 0 0 0 0 0 10 9 0 0 12 10 12 12 12 10 11 12 13 9 11 10 10 12 12 11 11 10 9 0 0 0 0 0 0 0 0 0 0 0 0 0 0 0 0 0 0 9 9 9 10 10 9 10 9 0 0 0 0 0 0 0 0 0 0 9 10 0 0 0 0 10 9 9 0 0 9 9 9 10 0 0 0 10 11 11 12 14 17 18 18 22 21 11 11 9 16 12 12 12 12 12 15 13 12 10 11 18 14 16 14 14 15 15 15 19 14 16 14 18 18 19 20 21 14 20 22 19 17 18 18 18 18 23 24 -177 28 34 34 34 37 39 45 22 21 23 19 17 16 16 14 16 16 16 12 17 20 21 21 18 23 23 25 25 25 23 22 23 -193 -193 23 23 23 22 25 25 26 -209 27 30 30 30 31 31 32 33 32 34 0 0 0 0 0
    0 0 0 0 0 0 0 0 0 0 0 0 0 0 0 0 0 0 0 0 0 0 0 0 0 0 0 0 0 0 0 0 0 0 0 0 0 0 0 0 0 0 0 0 0 0 0 0 0 0 0 0 0 0 0 0 0 0 0 0 0 0 0 0 0 0 0 0 0 11 13 15 15 9 12 12 0 0 13 13 -193 17 17 -193 -193 -209 -209 -193 -209 16 12 13 15 15 14 14 13 13 11 10 10 0 0 0 0 0 0 0 0 0 0 0 0 0 0 0 0 0 0 0 0 0 0 0 0 0 0 0 0 0 0 0 0 10 10 0 0 13 11 13 13 12 11 12 13 13 10 12 9 10 12 12 11 10 9 0 0 0 0 0 0 0 0 0 0 0 0 0 0 0 0 0 0 0 0 9 9 10 9 9 10 9 9 0 0 0 0 0 0 0 0 0 9 11 0 0 0 0 9 9 9 0 0 0 0 9 9 0 0 0 10 11 11 12 15 18 19 19 23 20 11 11 9 16 12 12 12 13 12 16 13 12 10 11 18 14 16 15 14 16 16 16 19 14 16 15 19 18 19 20 20 15 20 22 19 16 18 17 17 16 21 22 -177 27 32 32 32 36 38 45 21 20 22 18 17 16 16 14 16 17 16 12 17 20 21 21 18 23 23 25 25 27 23 22 23 -193 -193 -193 23 23 22 25 25 27 -193 27 31 31 31 32 32 33 33 32 34 0 0 0 0 0
    0 0 0 0 0 0 0 0 0 0 0 0 0 0 0 0 0 0 0 0 0 0 0 0 0 0 0 0 0 0 0 0 0 0 0 0 0 0 0 0 0 0 0 0 0 0 0 0 0 0 0 0 0 0 0 0 0 0 0 0 0 0 0 0 0 0 0 0 0 11 13 15 15 9 11 11 0 0 11 11 309 14 14 -193 -193 -209 -209 -193 -209 16 12 13 15 16 15 15 14 14 12 12 11 10 9 9 9 9 0 0 0 0 0 0 0 0 0 0 0 0 0 0 0 0 0 0 0 0 0 0 0 0 0 0 0 11 10 9 9 14 11 14 13 13 11 12 13 14 10 12 9 9 12 13 11 10 9 0 0 0 0 0 0 0 0 0 0 0 0 0 0 0 0 0 0 0 10 10 10 11 10 9 9 9 0 0 0 0 0 0 0 0 0 0 10 11 0 0 0 0 0 0 0 0 0 0 0 9 10 0 0 0 10 11 11 13 16 20 21 21 24 21 12 11 9 16 12 12 12 13 12 16 13 12 10 11 17 14 15 15 14 16 16 16 19 15 16 15 19 18 19 20 20 15 20 22 19 16 17 16 15 15 19 20 -193 25 27 28 29 34 38 -193 19 18 22 -177 16 16 16 14 17 17 17 12 17 20 21 21 18 22 23 25 25 -193 23 23 -193 388 387 -193 -193 24 22 25 25 27 26 27 32 33 31 33 33 33 34 33 35 0 0 0 0 0
    0 0 0 0 0 0 0 0 0 0 0 0 0 0 0 0 0 0 0 0 0 0 0 0 0 0 0 0 0 0 0 0 0 0 0 0 0 0 0 0 0 0 0 0 0 0 0 0 0 0 0 0 0 0 0 0 0 0 0 0 0 0 0 0 0 0 0 0 0 11 14 15 15 9 10 10 0 0 10 11 309 -193 13 -193 -193 -209 -209 -193 11 17 14 14 17 17 16 16 14 15 13 13 12 10 10 10 10 10 9 0 0 0 0 0 0 0 0 0 0 0 0 0 0 0 0 0 10 0 0 9 0 9 9 0 0 11 10 9 9 14 12 15 14 13 11 12 13 14 10 12 0 0 11 13 10 10 9 0 0 0 0 0 0 0 0 0 0 0 0 0 0 0 0 0 0 9 11 11 11 11 10 9 9 9 0 0 0 0 0 0 0 0 0 0 9 10 0 0 0 0 0 0 0 0 0 0 0 9 10 9 9 0 10 11 11 13 16 20 22 23 25 22 11 10 0 16 12 11 12 13 13 16 13 12 10 11 16 14 15 15 14 16 17 16 20 15 16 15 19 18 19 20 20 15 20 22 19 16 17 16 16 15 18 19 13 22 23 23 24 28 33 18 17 17 -177 17 16 16 16 14 17 17 17 12 18 21 22 22 21 24 28 33 35 39 -193 -193 383 387 -193 -193 -193 25 22 25 26 27 26 28 33 34 32 33 34 34 35 34 36 0 0 0 0 0
    0 0 0 0 0 0 0 0 0 0 0 0 0 0 0 0 0 0 0 0 0 0 0 0 0 0 0 0 0 0 0 0 0 0 0 0 0 0 0 0 0 0 0 0 0 0 0 0 0 0 0 0 0 0 0 0 0 0 0 0 0 0 0 0 0 0 0 0 0 11 14 15 15 9 10 10 0 0 11 11 -193 14 14 12 -193 -193 -193 -193 13 19 15 15 17 17 16 16 15 16 13 13 13 11 11 11 11 11 10 0 0 0 0 0 0 0 0 0 0 0 0 0 0 0 0 0 11 0 0 9 9 10 9 9 9 11 11 9 9 15 12 15 14 13 11 12 13 14 10 11 0 0 9 11 9 9 9 0 0 0 0 0 0 0 0 0 0 0 0 0 0 0 0 0 0 9 11 11 11 11 10 -193 9 -193 0 0 0 0 0 0 0 0 0 0 0 9 0 0 0 0 0 0 0 0 0 0 0 9 10 9 9 9 10 11 11 13 16 19 21 23 25 21 10 9 0 14 11 11 12 12 13 17 14 13 11 13 16 15 15 17 14 17 17 17 20 16 16 16 19 18 19 20 20 15 20 22 19 15 17 16 15 15 17 17 11 18 19 19 18 23 -209 15 16 16 21 16 16 15 16 14 17 17 17 12 20 21 23 23 23 26 33 40 41 41 -193 -193 -193 -193 -193 -193 26 26 23 26 26 28 27 28 34 35 32 33 34 34 35 34 36 0 0 0 0 0
    0 0 0 0 0 0 0 0 0 0 0 0 0 0 0 0 0 0 0 0 0 0 0 0 0 0 0 0 0 0 0 0 0 0 0 0 0 0 0 0 0 0 0 0 0 0 0 0 0 0 0 0 0 0 0 0 0 0 0 0 0 0 0 0 0 0 0 0 0 11 14 15 15 9 10 10 0 0 11 11 -193 13 14 12 -193 -193 -193 -177 13 19 14 15 17 16 16 16 14 16 13 14 14 12 12 12 11 12 11 9 0 0 0 0 0 0 0 0 0 0 0 0 0 0 0 0 11 0 9 9 9 11 10 9 9 11 11 10 10 15 12 15 13 13 11 12 13 13 9 10 0 0 0 9 0 9 9 0 0 0 0 0 0 0 0 0 0 0 0 0 0 0 0 0 0 9 10 11 11 11 10 0 9 -193 0 0 0 0 0 0 0 0 0 0 0 0 0 0 0 0 0 0 0 0 0 0 0 9 10 9 9 9 10 11 11 13 16 20 20 22 23 19 10 10 0 13 10 10 12 12 12 18 14 14 12 14 16 16 16 18 15 17 17 18 21 16 16 17 19 19 20 20 20 15 21 22 19 15 17 16 15 15 17 16 11 17 17 18 15 21 -209 15 16 16 20 16 15 15 15 13 17 18 17 12 22 22 24 25 26 28 37 45 44 44 38 35 -193 35 32 -193 26 26 24 26 26 27 27 28 35 36 33 34 35 35 36 36 37 0 0 0 0 0
    0 0 0 0 0 0 0 0 0 0 0 0 0 0 0 0 0 0 0 0 0 0 0 0 0 0 0 0 0 0 0 0 0 0 0 0 0 0 0 0 0 0 0 0 0 0 0 0 0 0 0 0 0 0 0 0 0 0 0 0 0 0 0 0 0 0 0 0 0 11 14 15 15 9 10 10 0 0 11 10 -193 12 12 10 -193 -209 -193 -177 12 19 14 14 16 16 16 16 14 16 13 14 15 13 12 12 12 13 12 9 0 0 0 0 0 0 0 0 0 0 0 0 0 0 11 0 12 0 0 9 9 10 9 0 9 11 11 10 10 15 12 15 13 13 11 12 12 13 9 10 0 0 0 0 0 9 9 0 0 0 0 0 0 0 0 0 0 0 0 0 0 0 0 0 9 9 10 10 10 11 10 9 9 0 0 0 0 0 0 0 0 0 0 0 0 0 0 0 0 0 0 0 0 0 0 9 0 10 10 10 10 9 10 12 11 13 17 21 20 22 23 19 11 11 9 13 10 10 12 12 12 18 14 15 13 15 16 16 17 18 15 18 17 19 21 17 16 17 19 19 20 20 20 16 21 22 19 15 17 16 15 15 17 16 11 17 17 18 15 20 -209 15 17 17 20 16 15 15 16 13 17 18 17 13 23 23 24 26 29 33 39 48 46 46 40 38 38 38 34 28 27 27 24 25 26 26 27 29 36 37 34 36 37 38 38 38 39 0 0 0 0 0
    0 0 0 0 0 0 0 0 0 0 0 0 0 0 0 0 0 0 0 0 0 0 0 0 0 0 0 0 0 0 0 0 0 0 0 0 0 0 0 0 0 0 0 0 0 0 0 0 0 0 0 0 0 0 0 0 0 0 0 0 0 0 0 0 0 0 0 0 0 11 14 15 15 9 9 9 0 0 11 10 10 11 12 -193 -193 -193 -193 -193 11 19 15 14 17 16 16 16 14 16 14 14 15 13 13 13 13 14 13 10 9 0 0 0 0 0 0 0 0 0 0 0 9 9 12 10 12 0 0 0 0 9 9 0 0 10 11 9 9 14 12 14 13 12 11 11 12 12 9 9 0 0 0 0 0 9 0 0 0 0 0 0 0 0 0 0 0 0 0 0 0 0 0 9 10 9 10 11 10 11 11 9 9 0 0 0 0 0 0 0 0 0 0 0 0 0 0 0 0 0 0 0 9 0 0 9 0 9 10 10 10 9 10 11 10 11 15 20 18 20 22 15 10 11 9 11 10 10 12 11 12 18 14 16 14 15 16 17 17 19 16 19 17 20 22 18 17 18 20 19 20 21 20 16 22 23 19 15 17 16 15 15 17 16 11 16 17 19 15 21 -209 17 18 20 20 16 16 15 16 13 17 18 16 13 24 23 25 27 31 36 40 47 45 45 40 39 38 38 34 28 27 28 24 25 25 26 27 30 38 38 36 38 39 40 40 40 42 0 0 0 0 0
    0 0 0 0 0 0 0 0 0 0 0 0 0 0 0 0 0 0 0 0 0 0 0 0 0 0 0 0 0 0 0 0 0 0 0 0 0 0 0 0 0 0 0 0 0 0 0 0 0 0 0 0 0 0 0 0 0 0 0 0 0 0 0 0 0 0 0 0 0 11 14 15 15 9 9 9 0 0 12 11 11 12 -193 -209 -209 -193 -193 -177 12 20 15 15 18 17 17 17 15 17 14 15 16 14 14 14 13 14 13 11 10 0 0 0 0 0 0 0 0 0 0 0 9 11 13 10 12 0 0 0 0 0 0 0 0 9 10 9 9 13 11 13 12 11 10 10 11 11 9 0 0 0 0 0 0 0 0 0 0 0 0 0 0 0 0 0 0 0 0 0 0 0 0 9 10 9 10 11 11 11 11 9 9 -193 0 0 0 0 0 0 0 0 0 0 0 0 0 9 0 0 0 0 9 0 9 10 0 9 9 10 10 0 9 10 9 9 11 13 12 13 17 9 9 9 9 10 9 9 11 11 12 19 15 17 14 16 16 17 17 19 16 19 16 20 22 18 16 19 20 20 21 21 21 17 22 23 19 15 17 15 15 15 16 16 11 16 17 19 15 21 -209 18 20 21 21 16 15 15 15 13 16 17 16 13 25 25 28 31 36 39 41 48 46 46 40 39 39 38 35 30 28 28 25 26 27 26 28 31 39 40 38 -193 -193 42 42 42 44 0 0 0 0 0
    0 0 0 0 0 0 0 0 0 0 0 0 0 0 0 0 0 0 0 0 0 0 0 0 0 0 0 0 0 0 0 0 0 0 0 0 0 0 0 0 0 0 0 0 0 0 0 0 0 0 0 0 0 0 0 0 0 0 0 0 0 0 0 0 0 0 0 0 0 11 13 15 15 9 9 9 0 0 12 11 -209 -209 -209 -209 -209 -209 -209 -177 10 19 15 15 19 18 17 18 15 18 15 15 16 14 14 14 14 16 14 14 11 9 9 0 0 0 0 0 0 0 0 0 9 10 12 11 12 0 0 0 0 0 0 0 0 9 10 0 9 12 10 12 11 10 9 9 10 10 0 0 0 0 0 0 0 0 0 0 0 0 0 0 0 0 0 0 0 0 0 0 0 0 0 9 10 9 10 10 10 11 11 0 0 0 0 0 0 0 0 0 0 0 0 0 0 0 0 9 0 9 0 0 9 9 9 10 0 9 9 10 10 0 9 9 0 0 9 9 9 11 14 0 0 0 9 0 9 9 11 11 12 19 15 17 15 16 16 17 17 19 15 19 15 18 21 18 16 19 20 20 21 22 21 18 23 23 19 16 17 15 14 15 16 15 11 16 17 20 -193 23 33 20 22 24 23 18 15 15 -193 -193 -193 -193 16 13 25 26 33 37 39 41 43 48 46 46 41 40 40 38 36 31 29 29 26 27 28 27 29 32 40 43 -193 46 41 44 44 44 45 0 0 0 0 0
    0 0 0 0 0 0 0 0 0 0 0 0 0 0 0 0 0 0 0 0 0 0 0 0 0 0 0 0 0 0 0 0 0 0 0 0 0 0 0 0 0 0 0 0 0 0 0 0 0 0 0 0 0 0 0 0 0 0 0 0 0 0 0 0 0 0 0 0 0 11 13 15 15 9 10 10 0 0 12 11 -209 -193 -193 -193 -209 -209 -209 -193 10 19 17 16 20 19 18 19 16 18 15 15 16 14 14 14 14 17 15 16 13 11 11 0 0 0 0 0 0 0 0 0 0 9 11 11 12 0 0 0 0 0 0 0 0 0 10 0 0 10 9 10 9 9 0 0 9 9 0 0 0 0 0 0 0 0 0 0 0 0 9 0 0 0 0 0 0 0 0 0 0 0 0 0 9 0 9 10 10 11 10 0 0 0 0 0 0 0 0 0 0 0 0 0 0 0 0 11 9 10 9 9 10 9 10 10 0 9 0 10 9 0 0 0 0 0 0 0 9 10 12 0 0 0 10 9 9 9 12 11 12 20 15 18 15 17 16 17 17 19 15 19 14 18 21 17 15 18 20 20 21 22 21 -193 -193 24 20 16 17 15 14 16 16 15 11 17 19 22 -209 27 33 23 24 27 26 -193 -193 -193 -193 -177 -177 -177 -193 -193 24 26 36 40 41 43 44 48 46 46 43 41 40 39 37 32 30 30 26 28 29 28 30 35 41 48 46 53 43 47 46 46 47 0 0 0 0 0
    0 0 0 0 0 0 0 0 0 0 0 0 0 0 0 0 0 0 0 0 0 0 0 0 0 0 0 0 0 0 0 0 0 0 0 0 0 0 0 0 0 0 0 0 0 0 0 0 0 0 0 0 0 0 0 0 0 0 0 0 0 0 0 0 0 0 0 0 0 11 13 14 14 9 10 10 9 9 12 11 10 10 -193 -193 -209 -209 -209 -193 11 19 18 17 20 19 19 19 16 18 14 15 16 14 15 15 15 18 17 19 17 14 18 0 0 0 0 0 0 0 0 0 0 9 11 11 13 0 0 0 0 0 0 0 0 0 9 0 0 0 0 0 0 0 0 0 0 0 0 0 0 0 0 0 0 0 0 0 0 0 9 0 0 0 0 0 0 0 0 0 0 0 0 0 9 0 0 9 9 10 10 0 0 0 0 0 0 0 0 0 0 0 0 0 0 0 0 12 10 11 9 10 10 10 10 11 0 9 0 10 10 9 9 9 9 9 9 10 10 12 13 11 10 10 11 10 10 10 12 11 12 20 16 18 16 17 16 17 17 19 15 19 13 19 22 17 15 19 20 20 21 22 21 -193 -193 23 20 16 17 15 14 16 16 15 12 19 21 24 26 28 33 27 27 30 -193 -177 -193 -193 -177 -177 -177 -177 -193 -177 25 30 39 42 42 44 44 49 47 47 43 42 41 40 38 35 30 31 26 29 32 29 33 38 44 52 52 55 46 49 48 47 48 0 0 0 0 0
    0 0 0 0 0 0 0 0 0 0 0 0 0 0 0 0 0 0 0 0 0 0 0 0 0 0 0 0 0 0 0 0 0 0 0 0 0 0 0 0 0 0 0 0 0 0 0 0 0 0 0 0 0 0 0 0 0 0 0 0 0 0 0 0 0 0 0 0 0 11 13 14 14 9 10 10 9 9 12 11 11 11 12 11 -193 -193 -193 -193 12 19 18 17 20 19 19 19 17 18 14 15 15 13 15 16 16 19 18 22 21 22 24 0 0 0 0 0 0 0 0 0 0 9 10 10 13 0 0 0 0 0 0 0 0 0 9 0 0 0 0 0 0 0 0 0 0 0 0 0 0 0 0 0 0 0 0 0 0 0 9 9 0 0 0 0 9 0 0 0 0 0 0 0 0 0 0 0 0 9 9 0 0 0 0 0 0 0 0 0 0 0 0 0 0 0 0 12 11 11 10 10 11 10 11 12 9 10 9 11 11 11 11 11 11 11 11 12 12 13 13 12 11 12 13 10 10 10 12 11 12 20 15 19 16 17 16 17 18 19 15 19 13 19 22 17 15 18 20 20 21 22 21 -193 -209 23 20 17 17 15 14 16 17 15 13 21 22 25 27 29 35 30 30 34 30 -177 -193 -193 -177 -177 -177 -177 -209 -177 29 37 41 43 43 44 45 48 46 47 44 42 41 40 38 36 32 33 28 34 38 37 39 43 46 52 51 54 47 50 49 49 49 0 0 0 0 0
    0 0 0 0 0 0 0 0 0 0 0 0 0 0 0 0 0 0 0 0 0 0 0 0 0 0 0 0 0 0 0 0 0 0 0 0 0 0 0 0 0 0 0 0 0 0 0 0 0 0 0 0 0 0 0 0 0 0 0 0 0 0 0 0 0 0 0 0 0 11 13 14 13 9 10 10 9 9 11 11 9 10 12 11 11 -193 12 12 12 17 18 18 20 19 19 19 17 19 15 15 15 14 17 18 18 21 21 24 24 25 26 -193 0 0 0 0 0 0 0 0 0 9 9 10 12 0 0 0 0 0 0 0 0 0 0 0 0 0 0 0 0 0 0 0 0 0 0 0 0 0 0 0 0 0 0 0 0 0 9 9 9 0 0 0 10 9 0 0 0 0 0 0 0 0 0 0 0 9 9 0 0 0 0 0 0 0 0 0 0 0 0 0 0 0 0 13 11 12 11 11 11 11 12 13 10 12 -193 13 16 15 14 15 14 12 12 13 12 13 13 13 12 12 13 11 11 11 12 11 13 20 15 19 16 17 16 17 18 19 16 20 13 20 22 17 -193 18 20 20 21 22 21 -193 -193 23 20 17 18 16 15 17 18 15 15 23 24 27 29 32 37 34 35 36 33 -177 -209 -193 -193 -193 -193 -209 -209 -209 36 41 43 44 44 44 46 48 46 47 44 42 41 40 39 38 35 36 32 39 41 41 41 44 45 50 50 53 48 50 49 50 50 0 0 0 0 0
    0 0 0 0 0 0 0 0 0 0 0 0 0 0 0 0 0 0 0 0 0 0 0 0 0 0 0 0 0 0 0 0 0 0 0 0 0 0 0 0 0 0 0 0 0 0 0 0 0 0 0 0 0 0 0 0 0 0 0 0 0 0 0 0 0 0 0 0 0 11 13 14 13 9 10 10 9 0 10 10 0 10 12 11 11 11 11 12 12 16 19 17 20 19 19 19 17 19 16 16 17 15 19 21 21 23 24 26 28 27 27 -193 0 0 0 0 0 0 0 0 0 0 0 10 12 0 0 0 0 0 0 0 0 0 0 0 0 0 0 0 0 0 0 0 0 0 0 0 0 0 0 0 0 0 0 0 0 0 10 9 9 9 0 9 10 10 9 0 0 0 0 0 0 0 0 0 0 0 -193 -193 -193 -193 -193 0 0 0 0 0 0 0 0 0 0 0 0 14 12 13 11 11 11 11 13 13 10 14 -193 15 20 21 19 20 19 16 14 14 13 14 13 14 12 13 13 11 11 12 12 11 13 20 15 19 16 17 16 17 18 19 16 20 12 20 22 17 -193 18 19 19 20 22 20 18 -193 22 19 17 18 16 15 17 18 14 17 23 25 28 30 34 38 36 37 37 35 -193 -193 33 -193 -193 37 37 -209 41 40 42 44 45 45 45 46 47 46 46 44 42 41 41 39 40 37 39 38 41 43 43 42 45 45 50 49 53 49 50 49 50 50 0 0 0 0 0
    0 0 0 0 0 0 0 0 0 0 0 0 0 0 0 0 0 0 0 0 0 0 0 0 0 0 0 0 0 0 0 0 0 0 0 0 0 0 0 0 0 0 0 0 0 0 0 0 0 0 0 0 0 0 0 0 0 0 0 0 0 0 0 0 0 0 0 0 0 11 13 13 12 9 10 10 9 0 9 10 0 10 13 11 11 12 12 13 12 16 20 17 20 19 19 19 18 19 16 17 18 16 21 22 22 25 27 29 29 28 27 -209 0 0 0 0 0 0 0 0 0 0 0 9 11 0 0 0 0 0 0 0 0 0 0 0 0 0 0 0 0 0 0 0 0 0 0 0 0 0 0 0 0 0 0 0 -177 0 10 10 9 9 0 9 10 10 9 0 0 0 0 0 0 0 0 0 0 -193 -193 -193 -193 394 -177 9 0 0 0 0 0 0 0 0 0 0 0 14 12 13 11 11 11 11 12 13 10 14 -193 17 23 24 22 23 22 20 17 15 14 14 13 14 12 13 13 11 12 12 12 12 13 20 16 19 17 17 17 18 19 19 16 20 12 19 -193 16 -177 17 18 18 19 21 20 18 -193 21 19 17 18 17 16 18 19 14 21 25 27 28 32 35 38 37 38 38 37 38 37 38 40 38 40 40 40 43 42 43 45 45 45 44 46 47 45 45 43 42 40 40 40 41 40 41 42 43 45 45 44 48 45 52 50 53 50 51 50 50 50 0 0 0 0 0
    0 0 0 0 0 0 0 0 0 0 0 0 0 0 0 0 0 0 0 0 0 0 0 0 0 0 0 0 0 0 0 0 0 0 0 0 0 0 0 0 0 0 0 0 0 0 0 0 0 0 0 0 0 0 0 0 0 0 0 0 0 0 0 0 0 0 0 0 0 11 13 13 12 9 9 9 9 0 9 10 0 10 13 12 11 12 12 13 13 15 20 17 20 19 19 19 18 19 18 17 19 19 22 24 24 27 29 31 32 30 29 -209 -209 -193 0 0 0 0 0 0 0 0 0 0 10 0 0 0 0 0 0 0 0 0 0 0 0 0 0 0 0 0 0 0 0 0 0 0 0 0 0 0 0 10 0 0 -177 9 10 10 10 9 0 10 11 10 9 0 0 0 0 0 0 0 0 0 0 -193 -193 -193 -193 394 -177 9 0 0 0 0 0 0 0 0 0 0 0 14 11 12 11 11 10 11 12 12 9 16 -209 20 24 26 25 25 23 22 20 16 15 15 13 14 12 13 13 11 12 12 12 11 13 20 16 19 16 17 17 18 19 18 16 19 11 17 20 15 -193 16 16 17 18 21 19 18 24 20 18 18 19 18 17 19 20 15 24 26 29 29 33 36 38 38 39 39 38 40 39 40 42 40 42 41 42 45 43 44 46 46 46 45 47 47 45 46 44 43 42 43 42 44 43 44 44 45 46 47 46 50 46 52 49 52 50 50 50 50 49 0 0 0 0 0
    0 0 0 0 0 0 0 0 0 0 0 0 0 0 0 0 0 0 0 0 0 0 0 0 0 0 0 0 0 0 0 0 0 0 0 0 0 0 0 0 0 0 0 0 0 0 0 0 0 0 0 0 0 0 0 0 0 0 0 0 0 0 0 0 0 0 0 0 0 11 12 13 12 9 9 9 0 0 0 9 0 9 13 12 11 12 12 13 13 15 20 17 20 19 19 19 18 20 19 19 21 22 25 27 26 29 31 32 34 31 30 26 21 12 0 0 0 0 0 0 9 9 0 0 9 0 0 0 0 0 0 0 0 0 0 0 0 0 0 0 0 0 0 0 0 0 0 0 0 0 0 9 9 13 9 -177 -177 9 11 10 10 10 9 10 11 11 10 0 0 0 0 0 0 0 0 0 0 -193 -193 394 394 394 -177 9 0 0 0 0 0 0 0 0 0 0 0 12 11 11 10 10 10 10 11 11 9 18 -209 22 26 27 26 26 25 24 21 17 16 16 14 15 13 13 13 11 12 12 11 11 13 19 15 19 16 17 17 19 19 18 16 19 12 17 19 15 -193 16 17 17 18 21 19 18 23 19 18 18 20 19 18 20 21 16 25 28 31 30 35 37 39 39 40 39 38 40 40 41 43 41 43 42 43 46 44 45 46 46 46 45 47 47 45 46 45 43 43 46 45 48 45 47 47 47 48 48 47 51 46 52 49 51 50 50 50 49 48 0 0 0 0 0
    0 0 0 0 0 0 0 0 0 0 0 0 0 0 0 0 0 0 0 0 0 0 0 0 0 0 0 0 0 0 0 0 0 0 0 0 0 0 0 0 0 0 0 0 0 0 0 0 0 0 0 0 0 0 0 0 0 0 0 0 0 0 0 0 0 0 0 0 0 11 12 12 11 9 9 9 0 0 0 9 9 10 14 13 12 13 13 14 13 15 21 17 19 19 19 20 19 21 21 21 24 25 27 30 29 30 32 33 34 30 28 25 18 15 11 10 9 9 0 9 12 12 0 9 10 0 0 0 0 0 0 0 0 0 0 0 0 0 0 0 0 0 0 0 0 0 0 0 9 9 10 11 11 15 11 -177 -177 -177 11 11 11 11 9 11 13 13 12 0 0 0 0 0 0 0 0 0 -193 -193 -193 394 394 394 395 -193 9 9 0 9 10 9 9 0 0 0 0 -193 10 11 10 10 9 10 12 12 11 21 -193 25 27 29 28 27 26 25 23 18 17 16 14 14 13 13 13 11 12 12 10 11 13 17 15 19 15 16 17 19 19 18 17 19 12 17 18 16 13 17 17 17 18 21 19 19 23 18 17 18 20 19 19 21 22 18 26 30 34 30 36 38 39 39 40 39 39 40 41 42 43 42 43 43 44 46 45 46 46 46 46 45 47 47 45 46 44 43 43 47 46 49 46 48 48 48 49 49 47 51 46 52 48 51 50 50 50 49 48 0 0 0 0 0
    0 0 0 0 0 0 0 0 0 0 0 0 0 0 0 0 0 0 0 0 0 0 0 0 0 0 0 0 0 0 0 0 0 0 0 0 0 0 0 0 0 0 0 0 0 0 0 0 0 0 0 0 0 0 0 0 0 0 0 0 0 0 0 0 0 0 0 0 0 11 12 12 11 9 9 9 0 0 0 10 10 11 14 13 13 14 14 15 14 15 21 17 20 20 20 21 21 22 22 23 26 27 29 31 29 30 32 33 32 29 27 21 14 14 11 10 10 11 10 12 16 17 11 10 13 10 10 9 9 0 0 0 0 0 0 0 0 0 0 0 0 0 0 0 0 0 9 9 9 10 10 12 13 16 13 11 11 -177 12 12 12 12 10 12 16 16 15 11 23 -209 -209 -209 -193 -193 -193 -193 -193 -193 -193 -193 -193 394 395 -193 11 12 11 12 18 18 16 -193 -193 0 0 -193 -193 -193 9 9 9 11 12 13 14 23 25 26 29 30 30 29 28 27 23 19 17 17 14 14 13 13 13 11 11 11 10 10 13 16 14 18 15 16 17 19 19 17 17 19 12 17 -193 16 13 18 18 18 19 22 20 20 23 18 17 18 20 20 20 22 22 -193 27 31 35 30 38 39 40 40 40 40 39 41 41 -193 43 42 44 43 44 46 45 47 46 45 46 45 47 46 45 46 44 42 44 48 47 49 46 48 48 49 49 49 48 50 46 52 48 50 49 49 49 49 48 0 0 0 0 0
    0 0 0 0 0 0 0 0 0 0 0 0 0 0 0 0 0 0 0 0 0 0 0 0 0 0 0 0 0 0 0 0 0 0 0 0 0 0 0 0 0 0 0 0 0 0 0 0 0 0 0 0 0 0 0 0 0 0 0 0 0 0 0 0 0 0 0 0 0 11 12 12 11 9 10 9 0 0 0 11 11 11 15 14 14 15 15 16 14 15 21 18 20 20 21 22 22 23 24 24 27 29 29 31 29 31 33 33 34 32 28 26 22 21 12 12 10 13 12 14 19 21 14 13 18 14 15 12 13 0 0 0 9 0 0 0 0 0 0 0 0 0 0 0 9 9 10 11 10 12 11 13 16 17 17 13 13 13 14 14 14 13 12 13 19 19 20 17 27 27 30 30 30 29 -193 -177 -177 -177 -193 395 -193 -193 -193 -193 13 16 15 20 25 25 -193 -177 -209 -209 -193 -193 -193 -193 9 9 9 11 14 14 16 25 27 28 30 32 32 31 30 29 25 20 18 16 14 14 13 13 13 11 11 11 9 9 14 15 14 18 14 16 17 19 18 16 18 18 13 17 -193 17 14 19 19 19 20 22 20 20 23 17 16 19 21 21 21 22 23 -177 28 33 36 31 39 40 42 40 41 40 40 41 41 -193 43 -193 43 43 44 45 44 46 45 45 46 44 46 46 45 45 43 42 45 49 48 50 47 49 49 49 49 49 48 50 46 51 48 50 49 49 49 48 48 0 0 0 0 0
    0 0 0 0 0 0 0 0 0 0 0 0 0 0 0 0 0 0 0 0 0 0 0 0 0 0 0 0 0 0 0 0 0 0 0 0 0 0 0 0 0 0 0 0 0 0 0 0 0 0 0 0 0 0 0 0 0 0 0 0 0 0 0 0 0 0 0 0 0 11 12 12 11 9 10 9 0 0 0 12 11 11 15 14 14 15 16 17 14 15 22 18 21 21 21 -193 -193 24 25 25 28 30 31 31 29 32 34 34 35 32 30 28 28 28 -193 18 15 19 16 19 23 23 19 17 21 20 20 20 22 12 0 0 15 -193 -193 0 9 0 10 12 -209 -209 -193 -193 12 11 11 13 11 13 12 13 19 20 22 18 18 18 18 19 19 17 15 16 22 23 24 23 29 31 31 32 32 31 -193 -177 -177 -177 -193 396 -193 -193 -193 -193 16 20 21 24 26 27 -193 -193 -209 -209 0 0 -193 -193 0 0 9 11 14 15 18 25 28 28 30 33 33 32 32 31 26 20 19 17 14 14 13 13 13 12 11 10 9 9 14 14 14 18 14 15 17 19 18 16 18 18 13 16 -193 18 15 21 20 20 21 23 21 21 23 17 16 19 21 21 22 23 23 -177 28 33 36 31 40 40 42 40 41 40 40 41 41 -193 -193 -193 43 43 44 45 44 45 45 44 45 44 46 45 44 44 43 42 45 49 48 49 48 50 50 49 49 49 48 50 46 51 47 49 48 49 48 48 48 0 0 0 0 0
    0 0 0 0 0 0 0 0 0 0 0 0 0 0 0 0 0 0 0 0 0 0 0 0 0 0 0 0 0 0 0 0 0 0 0 0 0 0 0 0 0 0 0 0 0 0 0 0 0 0 0 0 0 0 0 0 0 0 0 0 0 0 0 0 0 0 0 0 0 11 11 12 11 9 10 9 0 0 0 13 12 12 15 14 14 15 16 18 14 15 22 17 21 21 22 -193 -193 26 27 27 30 31 31 31 30 33 34 33 34 31 30 29 30 28 26 23 21 23 22 23 25 25 23 21 24 24 -193 25 26 26 9 10 24 19 -193 -209 -209 -209 12 19 -209 -193 -177 -193 14 12 12 14 12 13 13 14 22 23 25 24 23 23 23 23 24 21 21 22 24 26 26 26 30 33 32 33 34 32 30 -193 -193 -193 -193 -193 -193 -193 12 15 19 22 25 26 28 28 -193 -193 -209 -209 0 0 0 0 0 0 9 10 14 15 18 25 30 30 31 34 35 33 33 33 29 21 20 19 15 14 14 13 13 12 12 11 10 10 15 14 14 18 14 15 17 20 17 15 18 18 13 16 -193 18 16 21 22 21 22 23 21 21 23 16 16 19 21 21 22 -193 24 -177 28 32 35 31 39 40 41 40 41 41 40 41 41 -193 -193 -193 -193 42 43 44 43 45 44 44 44 44 46 44 44 44 43 42 45 48 48 49 48 50 50 50 50 50 49 50 47 51 48 49 49 49 49 48 49 0 0 0 0 0
    0 0 0 0 0 0 0 0 0 0 0 0 0 0 0 0 0 0 0 0 0 0 0 0 0 0 0 0 0 0 0 0 0 0 0 0 0 0 0 0 0 0 0 0 0 0 0 0 0 0 0 0 0 0 0 0 0 0 0 0 0 0 0 0 0 0 0 0 0 11 11 12 11 9 12 0 0 0 0 16 13 12 16 15 14 16 18 19 15 16 22 18 22 22 22 -193 -193 27 28 28 30 31 32 32 30 35 35 34 35 32 31 30 32 30 27 26 25 25 25 25 27 27 26 25 27 -193 -193 27 28 30 -193 -193 26 -209 -209 -209 -209 -209 17 -193 -193 -193 -177 -193 15 12 12 14 12 13 12 15 25 26 28 28 26 26 26 26 26 25 25 25 26 28 28 28 32 34 33 33 34 33 31 30 30 -193 -209 -193 -193 11 15 20 23 25 27 28 29 28 27 -193 -193 -193 0 0 0 0 0 0 9 11 17 20 22 26 31 31 32 34 35 33 33 34 30 23 21 21 17 15 15 14 14 12 12 11 10 10 15 13 14 17 13 15 17 20 17 15 19 18 -193 -193 -193 19 17 22 23 22 23 23 22 22 -193 16 16 19 -193 20 -193 -193 -193 -177 28 32 34 31 39 39 40 40 40 40 40 -209 -193 544 -193 -177 -193 42 43 44 43 44 43 44 44 44 46 44 44 44 43 42 46 49 48 49 49 51 51 51 51 51 50 51 48 51 48 49 49 49 49 48 49 0 0 0 0 0
    0 0 0 0 0 0 0 0 0 0 0 0 0 0 0 0 0 0 0 0 0 0 0 0 0 0 0 0 0 0 0 0 0 0 0 0 0 0 0 0 0 0 0 0 0 0 0 0 0 0 0 0 0 0 0 0 0 0 0 0 0 0 0 0 0 0 0 0 0 11 11 12 11 10 17 -209 0 0 0 -177 14 13 16 15 15 17 18 19 16 17 22 19 22 -193 23 26 26 28 30 29 31 32 33 33 31 35 35 34 35 33 32 31 34 31 29 27 27 27 28 28 30 30 31 30 32 31 29 29 30 32 27 27 27 29 33 40 41 -209 -209 -193 -193 -193 -177 -193 15 12 11 12 10 11 11 15 26 27 30 31 28 27 27 28 28 27 27 26 27 30 30 30 33 35 34 34 35 34 33 32 32 29 27 -193 22 21 21 24 25 27 29 29 30 28 27 -193 20 13 0 9 -209 0 9 0 9 13 23 25 26 27 32 32 33 35 36 34 34 36 32 24 23 22 19 16 16 14 14 12 12 11 10 10 15 13 13 17 13 15 17 19 17 15 19 18 14 17 -193 20 18 23 23 22 24 -193 -193 22 -193 16 16 19 -193 -193 -177 292 -193 -209 29 32 34 31 38 38 40 40 40 40 40 -209 -193 -177 -193 -177 -193 42 43 43 43 44 43 44 44 44 46 44 44 45 43 43 47 49 49 49 50 51 51 51 51 51 51 51 49 51 48 49 48 49 49 48 50 0 0 0 0 0
    0 0 0 0 0 0 0 0 0 0 0 0 0 0 0 0 0 0 0 0 0 0 0 0 0 0 0 0 0 0 0 0 0 0 0 0 0 0 0 0 0 0 0 0 0 0 0 0 0 0 0 0 0 0 0 0 0 0 0 0 0 0 0 0 0 0 0 0 0 12 12 13 12 11 21 -193 8 9 -177 20 15 13 17 16 16 17 19 20 16 18 22 19 -193 -193 24 28 28 30 32 31 33 34 35 35 32 36 36 35 36 34 33 33 35 32 30 27 26 28 29 30 32 32 33 33 35 34 31 31 31 32 28 28 27 28 34 -193 42 45 -193 36 -193 -193 -193 -209 16 11 11 11 10 10 -193 15 27 28 33 34 30 29 29 30 30 29 28 28 29 32 32 33 35 36 35 35 36 35 34 34 33 30 28 26 26 26 25 27 27 29 32 31 31 29 27 25 20 14 9 10 -209 -209 9 9 11 16 25 27 28 29 34 35 35 36 37 35 35 36 34 27 24 23 21 17 17 14 14 12 12 11 11 11 16 13 13 16 13 15 16 19 17 15 19 18 14 18 18 20 18 23 23 22 23 23 -193 22 22 16 16 19 -193 -193 -177 -193 -193 -209 29 32 33 31 38 38 39 39 40 40 40 -193 -193 -193 42 -193 42 42 43 43 43 44 43 43 43 44 46 44 45 45 44 43 48 49 49 48 49 51 51 51 50 50 50 50 49 51 49 48 48 49 48 48 50 0 0 0 0 0
    0 0 0 0 0 0 0 0 0 0 0 0 0 0 0 0 0 0 0 0 0 0 0 0 0 0 0 0 0 0 0 0 0 0 0 0 0 0 0 0 0 0 0 0 0 0 0 0 0 0 0 0 0 0 0 0 0 0 0 0 0 0 0 0 0 0 0 0 0 13 13 14 14 12 23 22 24 13 -193 23 18 15 19 17 17 18 20 21 18 19 22 20 -209 -209 25 31 29 32 33 33 34 35 36 36 33 38 38 37 37 36 34 34 35 32 29 26 25 28 28 30 31 31 32 34 35 34 31 32 31 32 30 30 27 29 36 -193 -193 44 38 38 -193 -193 -209 -209 -209 10 10 10 -193 9 -193 -193 -193 30 34 35 32 31 30 31 31 30 29 29 29 33 34 35 36 37 36 36 37 36 35 35 35 32 30 29 29 28 27 30 30 32 34 33 32 30 28 25 21 -193 -193 11 -209 -209 -209 11 15 21 28 30 31 31 34 35 36 36 37 35 36 37 35 31 26 24 22 18 18 15 15 13 13 12 11 11 17 14 14 16 14 15 16 19 17 15 19 18 15 18 18 20 19 23 23 23 23 23 22 22 22 16 16 19 -193 19 -193 -193 -177 -209 29 31 32 31 38 38 39 39 40 40 40 40 41 42 42 41 42 42 43 43 43 44 43 43 43 44 46 43 45 44 44 44 48 48 49 47 49 50 51 50 50 50 50 50 50 51 49 48 48 49 48 48 50 0 0 0 0 0
    0 0 0 0 0 0 0 0 0 0 0 0 0 0 0 0 0 0 0 0 0 0 0 0 0 0 0 0 0 0 0 0 0 0 0 0 0 0 0 0 0 0 0 0 0 0 0 0 0 0 0 0 0 0 0 0 0 0 0 0 0 0 0 0 0 0 0 0 0 13 13 15 15 14 24 -193 -193 19 -193 24 19 16 20 18 18 19 21 22 19 21 23 21 -209 -193 26 33 30 33 34 34 35 35 35 36 34 38 38 37 37 36 35 36 36 32 29 26 26 28 28 30 32 32 33 35 36 35 32 33 32 33 31 32 29 29 37 -193 -193 41 39 39 -193 37 -209 -209 -209 -193 10 -193 -209 -193 -193 -193 -193 32 34 36 34 32 32 32 31 31 30 30 29 33 35 36 36 38 36 37 38 37 36 36 36 34 33 33 34 32 33 35 35 35 36 34 33 30 28 -193 21 -193 -193 12 -209 -193 -209 -193 21 27 33 34 35 35 37 37 37 37 38 37 37 38 36 34 29 26 24 20 19 16 15 13 14 13 12 12 17 14 14 17 14 16 17 19 17 15 19 18 15 18 18 21 19 23 23 23 24 23 22 22 21 16 16 19 -193 19 21 -193 -177 -209 28 31 31 31 37 37 38 39 40 40 40 40 41 42 42 41 42 42 43 43 43 44 43 43 43 44 46 43 45 44 44 44 48 48 49 47 49 50 51 50 50 50 51 50 51 51 49 49 49 49 48 48 50 0 0 0 0 0
    0 0 0 0 0 0 0 0 0 0 0 0 0 0 0 0 0 0 0 0 0 0 0 0 0 0 0 0 0 0 0 0 0 0 0 0 0 0 0 0 0 0 0 0 0 0 0 0 0 0 0 0 0 0 0 0 0 0 0 0 0 0 0 0 0 0 0 0 0 16 13 15 15 17 26 27 28 -209 -193 25 22 20 21 20 20 21 23 23 21 22 24 22 27 -193 27 34 31 34 35 35 35 36 35 36 35 38 37 37 37 36 35 36 36 32 29 26 26 29 29 32 32 33 35 36 36 35 33 34 32 34 32 32 29 29 37 -193 40 41 40 40 -209 -193 -193 -177 -177 -209 -193 -193 -193 -193 -177 -193 -193 33 35 36 34 33 32 33 32 32 30 31 30 34 36 37 37 38 37 38 38 37 36 36 36 35 35 36 36 35 36 38 38 37 37 35 34 31 28 -193 20 19 -193 13 -209 785 -209 -193 -209 34 36 37 37 37 38 38 38 38 38 37 37 38 36 34 30 29 26 22 21 18 16 14 15 14 13 13 17 14 15 17 14 16 17 19 17 15 19 19 15 18 18 21 19 23 23 23 23 22 21 21 21 16 16 19 18 18 21 -193 -177 -209 28 30 31 31 36 37 37 38 39 40 40 40 40 41 41 41 41 41 43 43 44 44 43 43 43 44 46 44 45 44 44 44 48 47 48 46 48 49 50 49 49 49 50 50 51 52 50 49 50 50 49 49 51 0 0 0 0 0
    0 0 0 0 0 0 0 0 0 0 0 0 0 0 0 0 0 0 0 0 0 0 0 0 0 0 0 0 0 0 0 0 0 0 0 0 0 0 0 0 0 0 0 0 0 0 0 0 0 0 0 0 0 0 0 0 0 0 0 0 0 0 0 0 0 0 0 0 0 22 22 22 -209 -209 34 32 31 32 31 29 27 25 26 24 25 25 26 25 24 24 26 24 29 -193 30 35 32 35 35 36 36 36 36 36 36 38 37 37 36 34 33 33 32 28 27 25 25 29 30 32 32 33 35 36 36 35 32 34 32 34 32 31 29 32 36 38 39 40 40 40 -209 -209 -177 -177 -177 -177 -209 -193 -193 -193 -177 -193 -193 34 35 36 35 33 33 34 33 33 31 32 32 35 36 37 37 39 37 38 39 38 37 37 37 36 35 36 37 36 38 39 39 37 38 36 35 32 -193 -193 21 -193 -193 14 -193 785 -209 -209 -209 -193 37 38 37 38 38 38 38 38 38 37 37 38 36 35 32 31 28 24 23 21 18 15 16 15 14 13 18 15 15 17 15 16 17 19 17 15 19 19 16 19 19 21 20 23 23 23 23 22 21 21 20 16 16 19 18 17 21 -193 -193 -193 28 30 30 31 35 36 36 38 39 39 39 39 39 41 41 41 41 41 42 43 44 44 43 43 43 44 46 44 45 44 44 45 47 47 47 45 47 47 48 47 48 48 49 49 52 51 52 51 51 51 50 50 51 0 0 0 0 0
    0 0 0 0 0 0 0 0 0 0 0 0 0 0 0 0 0 0 0 0 0 0 0 0 0 0 0 0 0 0 0 0 0 0 0 0 0 0 0 0 0 0 0 0 0 0 0 0 0 0 0 0 0 0 0 0 0 0 0 0 0 0 0 0 0 0 0 0 0 -193 28 30 37 40 37 33 33 33 34 32 31 31 34 34 38 39 40 38 38 34 31 30 34 -193 33 37 34 35 35 36 36 36 36 36 36 37 37 36 34 33 31 30 29 26 25 22 24 29 30 32 32 32 35 35 35 34 31 33 31 33 31 30 29 31 34 37 37 39 39 40 -209 -209 -177 -177 -177 -193 -193 0 -177 0 -193 19 35 34 35 36 35 34 34 34 34 34 33 35 35 37 38 38 38 39 38 39 39 38 37 37 37 36 36 37 38 36 38 38 39 37 37 35 35 31 -193 24 22 -193 -193 15 -209 783 -209 -209 -193 -193 39 39 39 39 39 39 39 39 39 38 38 38 37 36 33 33 30 26 26 25 19 15 17 16 15 14 18 15 16 17 16 17 17 19 18 16 20 20 17 20 20 22 20 23 23 24 24 22 21 21 20 17 17 19 18 17 21 -193 -193 -177 28 30 30 31 36 36 36 37 38 38 39 38 39 40 40 41 41 41 43 43 44 44 44 44 43 44 46 44 45 44 44 46 48 47 47 45 47 47 47 47 47 47 49 48 52 51 52 52 52 52 52 52 52 0 0 0 0 0
    0 0 0 0 0 0 0 0 0 0 0 0 0 0 0 0 0 0 0 0 0 0 0 0 0 0 0 0 0 0 0 0 0 0 0 0 0 0 0 0 0 0 0 0 0 0 0 0 0 0 0 0 0 0 0 0 0 0 0 0 0 0 0 0 0 0 0 0 0 -209 -209 28 37 40 36 31 32 31 34 33 33 37 37 38 40 42 42 41 40 39 36 35 37 -193 36 37 35 36 36 37 36 37 36 36 36 37 37 37 35 35 33 32 30 27 26 22 24 29 29 32 31 32 34 34 34 33 30 32 30 32 31 30 29 31 33 36 36 38 38 40 -209 -209 -177 -177 -177 -209 -193 0 -177 0 -193 -209 36 35 35 36 35 34 34 35 34 35 34 36 36 38 40 40 40 40 38 39 40 39 38 38 38 37 38 39 39 37 38 38 38 36 37 35 34 32 28 24 23 -193 -193 -193 -209 782 -193 -209 -193 41 40 39 39 39 39 38 39 39 38 38 37 38 37 36 35 34 32 27 29 27 20 16 18 17 15 14 18 15 16 17 16 17 18 19 19 17 20 20 18 20 21 22 21 24 24 24 24 23 21 21 20 17 17 19 18 17 20 23 23 -177 29 30 -193 32 36 36 36 37 38 37 38 38 38 40 40 41 41 41 43 43 45 45 44 44 44 45 46 44 46 45 45 46 48 47 47 45 47 46 47 46 46 46 48 48 52 51 53 52 53 53 52 53 -193 0 0 0 0 0
    0 0 0 0 0 0 0 0 0 0 0 0 0 0 0 0 0 0 0 0 0 0 0 0 0 0 0 0 0 0 0 0 0 0 0 0 0 0 0 0 0 0 0 0 0 0 0 0 0 0 0 0 0 0 0 0 0 0 0 0 0 0 0 0 0 0 0 0 0 -209 -193 25 35 38 33 30 31 31 34 33 33 -209 -209 40 42 44 44 43 42 41 37 37 38 -193 39 39 37 37 37 37 37 37 36 36 36 36 36 36 35 35 32 32 29 27 26 19 24 30 29 32 31 31 33 33 32 32 29 31 29 31 31 31 30 31 33 35 36 38 39 41 -193 -209 -193 -177 -193 -209 -177 -193 -193 -209 -209 -209 39 37 37 37 37 36 36 37 36 38 37 39 39 40 41 41 41 41 40 39 41 40 39 39 39 39 40 41 41 39 40 40 39 37 38 36 35 33 29 25 -193 -209 -193 18 -209 782 -193 -209 41 41 40 40 40 39 39 38 39 39 39 38 38 39 38 37 36 35 33 29 32 30 21 17 21 19 17 15 18 16 16 17 17 18 18 19 19 18 20 20 19 21 21 23 22 25 24 25 25 23 22 22 20 17 17 19 18 18 21 23 23 -209 29 31 31 33 37 36 36 37 37 36 37 36 37 39 39 40 41 41 43 43 45 45 44 44 44 45 46 44 46 44 45 47 48 47 47 45 47 46 46 46 46 46 47 47 52 50 52 52 52 53 52 53 52 0 0 0 0 0
    0 0 0 0 0 0 0 0 0 0 0 0 0 0 0 0 0 0 0 0 0 0 0 0 0 0 0 0 0 0 0 0 0 0 0 0 0 0 0 0 0 0 0 0 0 0 0 0 0 0 0 0 0 0 0 0 0 0 0 0 0 0 0 0 0 0 0 0 0 -209 -209 -193 38 -193 -209 34 36 36 37 36 35 -209 -209 40 42 43 42 42 -209 -193 38 38 39 -193 41 39 38 37 37 38 37 37 36 36 36 35 36 36 35 35 32 33 29 28 -193 20 24 30 28 32 30 31 32 32 32 31 29 31 29 32 32 32 31 33 33 36 37 39 42 44 47 48 -209 -209 -209 -177 -177 -209 -209 -209 -209 -209 42 40 39 39 39 38 38 38 38 40 40 42 42 43 44 42 42 42 41 40 41 40 40 39 39 39 41 42 43 41 43 42 40 38 38 37 36 35 31 26 26 -193 -209 19 -209 785 -209 -209 42 43 42 41 41 40 39 39 39 40 39 39 39 39 39 38 37 37 35 34 36 35 24 22 25 -193 21 18 20 17 18 18 18 19 19 20 20 20 21 21 21 23 23 24 24 26 27 29 28 25 23 23 22 18 18 20 19 19 21 23 24 -193 30 32 32 34 37 36 36 36 36 37 37 35 36 38 39 40 41 41 42 43 45 45 44 44 44 45 46 45 46 44 45 46 48 46 46 45 47 46 46 46 46 46 47 47 51 50 52 51 52 52 52 53 51 0 0 0 0 0
    0 0 0 0 0 0 0 0 0 0 0 0 0 0 0 0 0 0 0 0 0 0 0 0 0 0 0 0 0 0 0 0 0 0 0 0 0 0 0 0 0 0 0 0 0 0 0 0 0 0 0 0 0 0 0 0 0 0 0 0 0 0 0 0 0 0 0 0 0 -209 18 39 40 43 -209 37 40 37 38 36 33 -209 35 38 40 -193 41 -193 -193 40 39 39 39 41 41 40 39 37 37 38 36 37 35 35 35 33 35 34 33 33 31 32 30 28 27 25 26 32 29 33 30 31 31 31 31 31 30 33 30 35 34 33 33 34 35 37 38 41 46 47 51 51 55 -209 -209 -177 -177 -177 -209 -193 52 47 44 44 42 40 40 41 40 40 41 43 43 46 46 47 47 44 44 43 42 40 41 41 40 40 40 40 41 43 43 42 43 41 39 38 38 37 36 36 32 27 27 27 -209 21 -209 -209 -209 -193 42 43 41 41 40 39 39 39 39 40 39 39 39 40 39 39 38 38 37 38 38 38 28 29 35 37 37 -193 -209 21 21 21 21 22 22 22 22 22 22 23 24 26 27 37 32 33 33 36 34 30 27 26 24 20 19 20 19 20 21 22 23 -193 29 31 32 36 37 36 36 36 36 37 36 34 35 37 38 39 40 40 41 42 44 44 44 44 44 45 46 45 46 44 45 47 48 47 46 45 47 46 46 46 46 46 47 47 51 49 52 52 52 52 52 53 -193 0 0 0 0 0</data></disparity>
</opencv_storage>
