<?xml version="1.0"?>
<opencv_storage>
<gps_time_stamp>30443</gps_time_stamp>
<gps_x>-8.2608766555786133e+000</gps_x>
<gps_y>9.5034700632095337e-001</gps_y>
<gps_z>-2.0883414745330811e+000</gps_z>
<image_time_stamp>18367</image_time_stamp>
<disparity type_id="opencv-matrix">
  <rows>89</rows>
  <cols>320</cols>
  <dt>s</dt>
  <data>
    0 0 0 0 0 0 0 0 0 0 0 0 0 0 0 0 0 0 0 0 0 0 0 0 0 0 0 0 0 0 0 0 0 0 0 0 0 0 0 0 0 0 0 0 0 0 0 0 0 0 0 0 0 0 0 0 0 0 0 0 0 0 0 0 0 0 0 0 0 0 10 10 10 10 10 10 10 10 10 9 9 9 0 0 9 9 9 9 9 10 9 10 15 0 0 0 0 0 0 0 0 0 0 0 0 0 0 0 0 0 0 0 0 0 0 8 0 0 -193 -193 0 0 0 0 0 0 0 0 0 0 0 0 0 0 0 0 0 0 0 0 0 0 9 10 10 10 10 9 10 10 9 9 9 9 9 0 0 0 0 0 0 -193 -193 -209 -209 -193 0 0 11 11 11 11 10 9 10 10 10 9 9 10 11 -209 11 17 13 13 13 14 12 12 11 13 9 11 11 11 10 12 13 13 14 13 13 15 14 12 12 13 12 10 10 9 9 10 9 9 0 9 9 9 10 14 10 12 14 14 14 14 14 15 -225 -225 -225 13 13 14 14 13 13 13 13 16 21 17 19 19 18 19 19 19 18 16 18 17 17 19 18 18 20 19 20 22 22 22 22 22 23 23 24 24 26 27 32 34 34 34 36 35 34 34 35 34 35 34 35 35 36 37 37 38 38 39 39 39 38 39 39 39 38 39 38 40 39 40 40 40 39 40 39 40 40 40 41 42 43 0 0 0 0 0
    0 0 0 0 0 0 0 0 0 0 0 0 0 0 0 0 0 0 0 0 0 0 0 0 0 0 0 0 0 0 0 0 0 0 0 0 0 0 0 0 0 0 0 0 0 0 0 0 0 0 0 0 0 0 0 0 0 0 0 0 0 0 0 0 0 0 0 0 0 0 10 9 9 10 10 10 10 10 10 9 9 10 9 0 0 9 9 10 10 10 10 10 16 10 9 9 0 0 0 10 0 0 0 0 0 0 0 0 0 0 0 0 0 0 0 0 0 0 -193 -193 0 0 0 0 0 0 0 0 0 0 0 0 0 0 0 0 0 0 0 0 0 0 0 9 10 10 10 9 10 10 9 10 9 9 0 0 0 0 0 0 0 0 -193 -209 -209 0 0 0 -193 11 10 10 9 9 10 9 10 9 9 9 11 -193 10 15 12 12 12 13 12 11 11 12 9 11 11 11 11 12 13 13 14 13 13 14 13 12 12 13 11 9 10 0 0 10 9 9 0 9 9 10 10 14 10 11 12 12 12 12 12 13 -225 -225 14 13 13 14 14 14 14 14 14 18 20 18 19 20 18 19 19 19 18 17 18 18 17 19 18 19 20 20 21 22 22 22 22 23 23 23 25 25 27 28 33 33 34 34 36 35 34 35 35 34 36 35 35 35 37 37 37 37 38 38 39 40 39 39 39 39 38 39 38 39 39 39 39 39 39 40 38 40 39 40 40 42 44 0 0 0 0 0
    0 0 0 0 0 0 0 0 0 0 0 0 0 0 0 0 0 0 0 0 0 0 0 0 0 0 0 0 0 0 0 0 0 0 0 0 0 0 0 0 0 0 0 0 0 0 0 0 0 0 0 0 0 0 0 0 0 0 0 0 0 0 0 0 0 0 0 0 0 0 10 10 10 10 10 10 11 11 10 10 10 10 9 0 0 0 0 9 9 10 10 10 16 11 11 10 10 10 10 12 0 0 0 0 0 0 0 0 0 0 0 0 0 0 0 0 0 0 -193 -193 0 0 0 0 0 0 0 0 0 0 0 0 0 0 0 0 0 0 0 0 0 0 9 9 10 10 9 9 9 9 9 9 9 0 0 0 0 0 0 0 0 -209 -209 -209 -209 -193 0 0 -193 -193 9 10 9 8 9 9 10 9 0 9 11 10 9 14 11 12 -193 12 -193 10 11 11 9 11 10 11 11 12 13 13 14 13 13 14 13 11 11 14 11 9 10 9 9 10 10 9 0 9 10 10 10 14 10 10 12 12 12 12 12 12 -225 12 13 13 13 14 14 13 14 14 16 17 20 18 19 20 18 19 19 18 18 17 19 18 18 19 18 19 21 20 21 22 22 22 23 23 23 24 25 25 26 28 34 33 34 34 36 35 35 35 35 34 36 35 35 35 36 36 36 37 37 38 39 39 39 39 39 39 38 39 38 39 39 39 39 39 39 40 38 40 39 40 40 42 44 0 0 0 0 0
    0 0 0 0 0 0 0 0 0 0 0 0 0 0 0 0 0 0 0 0 0 0 0 0 0 0 0 0 0 0 0 0 0 0 0 0 0 0 0 0 0 0 0 0 0 0 0 0 0 0 0 0 0 0 0 0 0 0 0 0 0 0 0 0 0 0 0 0 0 0 9 9 9 9 10 10 11 11 11 11 11 10 10 9 9 9 9 9 9 10 10 10 16 12 12 12 11 11 12 13 10 0 0 0 0 0 0 0 0 0 0 0 0 0 0 0 0 0 -193 -193 0 0 0 0 0 0 0 0 0 0 0 0 0 0 0 0 0 0 0 9 9 0 9 8 10 10 9 9 9 9 9 9 9 0 0 0 0 0 0 0 0 -209 -209 -209 -209 -193 0 0 -193 -209 8 9 0 0 9 0 9 9 0 9 12 -193 9 12 10 11 -193 -193 -193 9 10 10 9 11 10 11 12 13 13 14 14 13 13 15 13 11 11 14 11 10 10 9 9 10 10 10 0 9 9 9 10 14 10 10 12 12 11 12 11 11 0 11 13 12 13 13 13 13 14 16 16 17 20 17 19 20 18 19 19 18 18 17 19 18 18 19 19 20 21 20 21 22 22 22 23 23 22 24 24 24 25 26 35 33 35 35 36 35 35 35 35 34 36 34 35 34 36 36 36 36 37 37 39 39 38 39 39 39 38 39 38 39 39 39 39 39 39 40 38 40 39 40 40 42 43 0 0 0 0 0
    0 0 0 0 0 0 0 0 0 0 0 0 0 0 0 0 0 0 0 0 0 0 0 0 0 0 0 0 0 0 0 0 0 0 0 0 0 0 0 0 0 0 0 0 0 0 0 0 0 0 0 0 0 0 0 0 0 0 0 0 0 0 0 0 0 0 0 0 0 0 9 9 9 10 10 10 11 10 10 11 11 10 9 9 9 9 9 10 9 9 10 10 15 12 12 12 12 12 12 14 10 0 0 0 0 0 0 0 0 0 0 0 0 0 0 0 0 0 0 0 0 0 0 0 0 0 0 0 0 9 0 0 0 0 0 0 0 0 0 10 10 0 9 9 11 11 9 10 9 10 9 9 9 8 0 9 0 9 0 0 0 0 -209 -193 -225 0 0 0 -193 -209 0 9 0 0 0 0 9 9 0 9 12 -209 9 10 9 10 9 -193 -193 0 9 10 9 10 10 12 12 13 14 14 14 13 14 15 13 11 11 15 12 10 11 10 9 10 10 10 0 9 8 0 9 14 10 11 12 12 12 13 12 12 0 11 15 14 13 14 13 14 15 17 16 16 19 18 19 20 18 19 18 18 19 18 19 18 18 20 19 21 20 20 21 22 22 22 21 22 20 22 22 22 22 25 35 34 35 35 36 35 35 35 35 34 36 34 35 35 36 36 36 37 37 37 39 39 38 39 39 39 38 39 38 39 39 40 40 40 40 40 39 40 39 40 41 42 43 0 0 0 0 0
    0 0 0 0 0 0 0 0 0 0 0 0 0 0 0 0 0 0 0 0 0 0 0 0 0 0 0 0 0 0 0 0 0 0 0 0 0 0 0 0 0 0 0 0 0 0 0 0 0 0 0 0 0 0 0 0 0 0 0 0 0 0 0 0 0 0 0 0 0 0 9 9 9 10 10 10 10 9 9 10 9 9 0 0 0 0 9 9 0 9 10 10 14 12 12 12 12 12 12 13 10 0 0 0 0 0 0 0 0 0 0 0 0 0 0 0 0 0 0 0 0 0 0 0 0 0 0 0 0 9 0 0 0 0 0 0 0 0 0 10 11 0 9 9 10 11 9 10 10 10 9 10 10 9 0 10 9 11 11 9 0 9 0 0 -225 0 0 0 0 -209 0 9 0 0 0 0 9 8 0 9 13 0 9 0 0 9 0 -193 0 0 0 0 9 10 10 11 13 13 14 14 14 13 13 15 12 10 10 14 12 10 11 10 9 10 10 10 0 0 0 0 0 13 11 11 13 13 14 14 13 13 9 13 16 14 13 13 13 14 16 17 15 16 19 18 19 20 18 18 18 18 19 18 19 18 18 20 20 21 21 21 22 23 23 22 22 23 21 22 22 22 22 26 35 35 36 35 36 35 35 35 36 35 36 34 35 35 37 36 37 37 37 38 39 39 38 39 39 39 38 39 38 40 40 40 40 40 40 41 39 41 40 41 41 42 43 0 0 0 0 0
    0 0 0 0 0 0 0 0 0 0 0 0 0 0 0 0 0 0 0 0 0 0 0 0 0 0 0 0 0 0 0 0 0 0 0 0 0 0 0 0 0 0 0 0 0 0 0 0 0 0 0 0 0 0 0 0 0 0 0 0 0 0 0 0 0 0 0 0 0 0 9 9 9 10 10 10 10 9 9 9 9 9 9 0 9 0 9 9 9 9 9 10 13 11 11 12 12 11 11 12 0 0 0 0 0 0 0 0 0 0 0 0 0 0 0 0 0 0 0 0 0 0 0 0 0 9 0 0 0 9 0 0 0 0 0 0 0 0 -193 10 12 9 0 0 9 11 9 10 9 9 9 10 10 9 9 10 9 11 11 10 10 11 0 0 0 11 11 9 9 9 9 9 9 0 0 0 0 0 0 9 16 9 9 0 0 0 0 0 0 0 0 0 9 9 9 11 12 13 13 13 13 12 13 14 11 9 0 14 11 10 11 10 10 11 11 10 0 9 9 0 9 14 11 12 14 15 15 15 14 13 10 14 15 14 13 14 14 15 16 16 15 16 19 18 19 19 18 18 19 18 19 18 19 18 18 20 20 21 21 21 22 23 22 22 22 23 21 22 22 22 21 27 36 35 37 35 36 35 35 35 36 35 36 34 35 36 36 36 37 37 37 37 39 39 38 39 39 39 38 39 38 40 40 40 40 40 40 41 39 41 40 41 41 42 43 0 0 0 0 0
    0 0 0 0 0 0 0 0 0 0 0 0 0 0 0 0 0 0 0 0 0 0 0 0 0 0 0 0 0 0 0 0 0 0 0 0 0 0 0 0 0 0 0 0 0 0 0 0 0 0 0 0 0 0 0 0 0 0 0 0 0 0 0 0 0 0 0 0 0 9 9 10 9 9 10 9 10 9 9 9 9 9 9 9 9 0 9 9 9 9 9 10 11 10 10 10 10 10 10 10 0 0 0 0 0 0 0 0 0 0 0 0 0 0 0 9 0 0 0 0 0 0 0 0 0 9 0 0 0 0 0 0 0 0 0 0 0 0 -193 11 12 0 0 0 9 10 9 9 9 9 9 9 10 9 9 10 9 11 10 -225 -225 11 9 0 11 12 12 11 10 10 9 9 9 0 0 0 9 0 0 11 19 11 11 0 0 0 0 0 0 0 0 0 0 9 9 10 12 13 13 12 13 12 13 13 11 0 0 14 12 11 11 11 10 12 12 11 9 9 9 9 9 15 12 12 15 15 15 15 14 14 11 15 16 14 14 14 16 16 16 16 16 17 18 19 19 19 18 19 19 19 19 18 19 18 18 19 20 20 21 21 22 23 22 22 23 23 21 22 22 22 21 27 36 36 37 35 36 35 35 35 36 35 37 34 35 36 36 36 37 37 37 37 38 38 38 38 38 38 37 38 37 39 39 39 39 39 39 40 39 40 40 40 41 42 43 0 0 0 0 0
    0 0 0 0 0 0 0 0 0 0 0 0 0 0 0 0 0 0 0 0 0 0 0 0 0 0 0 0 0 0 0 0 0 0 0 0 0 0 0 0 0 0 0 0 0 0 0 0 0 0 0 0 0 0 0 0 0 0 0 0 0 0 0 0 0 0 0 0 0 10 10 10 9 10 10 9 10 9 9 9 9 9 9 9 9 0 9 9 0 9 0 9 9 9 9 9 9 8 0 0 0 0 0 0 0 0 0 0 0 0 0 0 0 0 0 9 0 0 0 0 0 0 0 0 0 9 9 0 0 0 0 0 0 0 0 0 0 0 -193 11 13 0 0 0 0 10 9 9 9 9 9 9 10 10 9 11 10 11 10 -225 -225 -225 9 0 10 12 12 11 10 10 9 9 9 0 0 -193 -193 0 0 -209 20 13 12 0 0 0 0 0 0 0 0 0 0 0 9 10 13 13 13 11 12 11 12 13 11 0 0 14 12 12 12 11 10 13 12 11 9 9 10 9 10 16 12 13 16 15 15 15 15 14 11 14 15 14 14 15 15 16 16 17 16 17 18 18 19 19 18 18 19 18 18 18 18 17 18 18 20 20 20 21 22 23 22 22 23 22 21 23 23 22 23 28 35 35 36 36 36 35 35 35 36 34 36 34 34 35 36 36 37 37 37 37 38 38 38 38 38 37 36 37 37 38 37 38 38 38 38 39 38 39 40 40 41 42 42 0 0 0 0 0
    0 0 0 0 0 0 0 0 0 0 0 0 0 0 0 0 0 0 0 0 0 0 0 0 0 0 0 0 0 0 0 0 0 0 0 0 0 0 0 0 0 0 0 0 0 0 0 0 0 0 0 0 0 0 0 0 0 0 0 0 0 0 0 0 0 0 0 0 0 10 10 10 9 10 10 9 10 9 9 9 9 9 9 9 0 0 9 0 0 0 0 0 0 0 0 0 0 0 0 0 0 0 0 0 0 0 0 0 0 0 0 0 0 0 0 9 0 0 0 0 0 0 -193 9 0 10 10 0 0 0 0 0 0 0 0 0 0 0 -193 11 13 0 0 0 0 0 0 9 9 9 9 0 9 9 9 11 10 10 10 -225 -225 -225 9 9 11 13 12 12 11 10 9 9 9 0 0 -209 -209 -193 -209 -193 21 14 14 0 0 0 0 0 0 0 0 0 0 0 0 10 13 13 13 11 12 11 12 13 11 0 0 14 12 12 12 11 11 13 12 11 9 9 9 9 10 16 12 14 15 15 15 15 14 14 11 14 14 14 15 15 15 16 16 17 17 16 17 17 18 17 17 17 17 17 17 17 18 16 17 18 19 20 20 20 22 22 22 22 22 22 22 23 24 24 24 27 33 34 36 36 35 35 35 35 36 35 36 33 34 36 36 36 36 37 37 37 38 38 38 38 38 37 36 37 37 38 38 37 38 38 39 40 39 40 40 40 41 42 42 0 0 0 0 0
    0 0 0 0 0 0 0 0 0 0 0 0 0 0 0 0 0 0 0 0 0 0 0 0 0 0 0 0 0 0 0 0 0 0 0 0 0 0 0 0 0 0 0 0 0 0 0 0 0 0 0 0 0 0 0 0 0 0 0 0 0 0 0 0 0 0 0 0 0 10 10 10 9 9 10 9 9 9 9 9 9 9 9 8 9 0 9 0 0 0 0 0 0 0 0 0 0 0 0 0 0 0 0 0 0 0 0 0 0 0 0 0 0 0 0 9 0 0 0 0 0 0 -193 9 9 11 10 0 0 9 0 0 0 0 0 0 0 0 -193 11 13 0 0 0 0 0 0 0 0 0 0 0 9 9 9 10 9 10 10 10 -225 -225 9 9 12 13 13 13 11 10 9 9 9 0 0 -209 -209 -209 -209 11 21 14 16 9 0 9 0 0 0 0 0 0 0 9 0 9 13 14 13 11 12 12 12 14 12 0 0 15 13 13 12 12 11 13 12 11 9 9 9 9 9 15 12 14 15 14 15 15 15 14 12 14 16 17 16 16 16 16 17 17 17 16 18 18 19 18 17 17 17 17 17 17 17 15 17 18 19 19 20 20 21 22 22 22 22 22 22 23 24 24 22 26 29 31 34 35 34 34 36 35 35 35 36 33 33 36 36 35 36 37 36 37 38 38 38 38 38 37 36 37 36 38 38 37 38 38 39 40 38 39 39 40 41 42 42 0 0 0 0 0
    0 0 0 0 0 0 0 0 0 0 0 0 0 0 0 0 0 0 0 0 0 0 0 0 0 0 0 0 0 0 0 0 0 0 0 0 0 0 0 0 0 0 0 0 0 0 0 0 0 0 0 0 0 0 0 0 0 0 0 0 0 0 0 0 0 0 0 0 0 10 10 10 9 9 10 9 9 9 9 9 9 9 9 9 9 0 9 0 0 0 0 0 0 0 0 0 0 0 0 0 0 0 0 0 0 0 0 0 0 0 0 0 0 0 0 10 0 0 0 0 0 0 10 10 9 11 10 0 0 9 0 0 0 0 0 0 9 9 0 11 12 0 0 0 0 0 0 9 0 0 0 0 9 9 10 11 10 10 10 9 9 9 0 0 10 12 12 12 11 10 9 9 9 9 0 -209 0 8 0 12 21 14 17 10 9 10 9 9 9 0 0 0 9 10 9 9 13 14 13 11 12 12 12 13 12 0 0 15 13 12 12 12 11 13 11 11 9 9 9 9 9 14 11 13 13 14 14 15 14 14 12 16 17 18 17 16 15 17 17 17 16 17 17 18 20 17 17 17 17 18 17 16 17 14 17 18 19 19 20 20 21 22 22 22 22 22 22 23 24 23 21 25 27 28 31 36 34 34 36 35 35 35 35 33 33 36 35 35 36 37 37 38 39 39 38 39 39 38 37 38 37 38 38 37 38 38 39 40 38 39 39 40 41 42 42 0 0 0 0 0
    0 0 0 0 0 0 0 0 0 0 0 0 0 0 0 0 0 0 0 0 0 0 0 0 0 0 0 0 0 0 0 0 0 0 0 0 0 0 0 0 0 0 0 0 0 0 0 0 0 0 0 0 0 0 0 0 0 0 0 0 0 0 0 0 0 0 0 0 0 11 11 10 9 10 10 9 9 0 0 0 0 0 0 0 0 0 0 0 0 0 0 0 0 0 0 0 0 0 0 0 0 0 0 0 0 0 0 0 0 0 0 0 0 0 9 10 0 0 0 0 0 0 10 9 9 10 10 0 0 9 0 0 0 0 0 0 9 9 0 10 11 0 0 0 0 0 0 9 9 9 9 9 10 10 10 11 10 10 9 9 0 0 0 0 0 11 11 13 11 11 10 10 9 9 9 9 9 9 0 11 21 13 17 11 10 11 10 10 9 0 9 0 9 10 9 9 13 13 12 10 11 11 11 12 11 0 0 14 13 12 12 11 11 12 11 11 9 0 0 9 9 11 10 11 12 13 14 14 13 14 13 16 17 19 16 16 17 17 17 16 17 18 17 18 20 17 17 18 18 18 16 16 17 14 16 17 19 18 19 20 21 22 22 22 23 22 23 24 25 25 25 27 28 28 31 36 33 33 35 34 34 35 35 33 32 35 35 35 36 37 37 38 39 39 39 39 39 39 38 39 37 39 38 38 39 39 39 40 38 39 40 41 41 42 42 0 0 0 0 0
    0 0 0 0 0 0 0 0 0 0 0 0 0 0 0 0 0 0 0 0 0 0 0 0 0 0 0 0 0 0 0 0 0 0 0 0 0 0 0 0 0 0 0 0 0 0 0 0 0 0 0 0 0 0 0 0 0 0 0 0 0 0 0 0 0 0 0 0 0 11 11 11 9 10 10 9 9 0 0 0 0 0 0 0 0 0 0 0 0 0 0 0 0 0 0 0 0 0 0 0 0 0 0 0 0 0 0 0 0 0 9 8 0 0 10 11 9 0 0 0 0 9 -193 9 9 9 9 0 0 9 0 0 0 0 0 0 9 9 0 10 10 0 0 0 0 0 0 0 0 0 9 9 10 9 10 11 10 10 9 0 0 0 0 0 0 10 10 13 11 11 10 10 10 9 9 10 9 -193 9 12 21 14 18 12 11 12 12 11 10 9 10 0 9 11 9 9 13 12 11 9 10 11 10 12 10 0 0 13 12 11 11 10 10 11 10 10 9 9 9 9 10 12 11 12 13 14 14 14 14 14 15 16 17 17 16 16 17 17 17 15 17 17 18 18 19 17 17 17 18 17 16 16 16 13 16 17 19 18 19 19 21 22 22 23 23 23 25 25 26 26 27 28 29 29 30 35 32 32 34 34 34 35 35 33 32 35 35 35 36 37 37 39 39 39 39 39 40 39 38 39 38 39 39 39 40 39 40 41 39 40 40 41 42 42 42 0 0 0 0 0
    0 0 0 0 0 0 0 0 0 0 0 0 0 0 0 0 0 0 0 0 0 0 0 0 0 0 0 0 0 0 0 0 0 0 0 0 0 0 0 0 0 0 0 0 0 0 0 0 0 0 0 0 0 0 0 0 0 0 0 0 0 0 0 0 0 0 0 0 0 11 11 11 9 10 10 9 0 0 9 0 0 0 0 0 0 9 0 0 0 0 0 0 0 0 0 0 0 0 0 0 0 0 0 0 9 0 0 0 0 9 9 9 9 9 11 12 10 0 0 0 0 9 -193 9 0 0 0 0 0 9 0 0 0 0 0 0 9 9 0 9 9 0 0 0 0 0 0 0 0 0 9 0 10 9 10 11 11 10 9 0 0 0 0 0 9 10 10 12 11 11 10 9 9 9 9 10 10 10 10 12 21 13 19 13 12 13 13 11 11 10 11 0 10 11 9 9 12 12 11 9 10 10 10 11 10 0 9 12 11 11 11 10 10 11 10 10 9 9 9 9 12 12 11 13 13 14 13 14 15 13 15 16 17 17 16 17 17 16 16 16 17 17 18 17 20 17 17 18 17 17 16 15 16 12 16 17 20 18 19 19 21 22 22 23 23 23 25 25 27 27 28 28 29 29 30 34 32 32 33 33 33 34 34 33 33 36 35 36 36 37 37 39 40 40 39 39 40 40 39 40 39 39 39 39 40 39 40 41 40 40 41 41 42 42 42 0 0 0 0 0
    0 0 0 0 0 0 0 0 0 0 0 0 0 0 0 0 0 0 0 0 0 0 0 0 0 0 0 0 0 0 0 0 0 0 0 0 0 0 0 0 0 0 0 0 0 0 0 0 0 0 0 0 0 0 0 0 0 0 0 0 0 0 0 0 0 0 0 0 0 10 11 10 9 10 10 9 0 0 9 0 0 0 0 0 0 0 0 0 0 0 0 0 0 0 0 0 0 0 0 0 0 0 0 0 10 9 9 9 9 10 10 10 10 9 11 12 10 0 0 0 0 0 -209 0 0 0 0 0 0 0 0 0 0 0 0 0 9 9 0 0 0 0 0 0 0 0 0 0 0 0 9 0 10 9 11 12 12 11 9 0 0 0 0 0 0 0 -193 -209 10 11 10 9 9 9 9 10 10 10 9 11 20 13 18 14 13 13 14 12 12 11 12 9 10 11 9 0 12 11 10 9 10 10 10 11 11 9 10 13 11 11 11 10 10 10 9 9 9 0 0 0 11 10 10 11 12 12 12 13 14 13 14 16 17 17 16 17 17 16 17 16 17 18 17 17 20 16 17 17 17 16 15 15 16 11 16 18 20 18 18 19 21 21 22 23 23 23 25 26 27 28 29 29 30 30 31 34 32 33 33 32 32 34 34 33 33 36 36 36 36 38 38 39 40 40 39 39 40 40 39 40 39 40 39 40 40 40 41 41 40 41 41 41 42 42 42 0 0 0 0 0
    0 0 0 0 0 0 0 0 0 0 0 0 0 0 0 0 0 0 0 0 0 0 0 0 0 0 0 0 0 0 0 0 0 0 0 0 0 0 0 0 0 0 0 0 0 0 0 0 0 0 0 0 0 0 0 0 0 0 0 0 0 0 0 0 0 0 0 0 0 10 10 10 9 9 9 0 0 0 10 9 9 0 0 0 0 0 0 0 0 0 0 0 0 0 0 0 0 0 0 0 0 0 0 9 11 10 10 10 10 11 11 10 10 10 12 12 10 0 0 0 0 0 -193 0 0 0 0 0 0 0 0 0 0 0 0 0 9 9 0 0 0 0 9 0 0 0 0 0 0 0 9 9 10 9 11 12 12 11 9 0 0 0 0 0 0 0 0 -209 0 9 9 0 9 9 0 9 9 9 0 9 18 12 18 14 13 14 15 13 13 12 13 10 11 12 10 9 11 10 10 9 10 10 10 12 11 10 10 13 11 11 11 10 10 9 9 9 9 0 0 0 12 10 11 12 12 13 13 13 14 13 15 16 17 17 16 17 16 16 17 17 17 17 17 17 20 17 16 17 16 16 15 15 16 11 17 19 20 18 18 20 21 21 22 23 23 23 26 26 27 28 29 29 30 30 31 34 32 33 33 32 32 34 34 33 34 37 36 37 37 38 39 41 41 41 40 40 41 41 41 41 40 40 40 41 41 41 41 41 41 41 41 42 42 42 42 0 0 0 0 0
    0 0 0 0 0 0 0 0 0 0 0 0 0 0 0 0 0 0 0 0 0 0 0 0 0 0 0 0 0 0 0 0 0 0 0 0 0 0 0 0 0 0 0 0 0 0 0 0 0 0 0 0 0 0 0 0 0 0 0 0 0 0 0 0 0 0 0 0 0 9 10 9 0 9 9 0 0 0 10 9 9 9 0 0 0 9 9 0 0 0 0 0 0 0 0 0 0 0 0 9 9 0 9 10 11 10 10 10 10 11 11 10 11 11 14 12 11 9 0 0 0 0 0 0 0 0 0 0 0 0 0 0 0 0 0 0 9 0 0 0 0 0 9 0 9 0 0 9 9 9 9 9 10 9 11 12 11 11 0 0 0 0 0 0 0 0 0 -209 0 9 9 0 9 9 9 9 9 9 9 9 17 11 18 14 14 15 15 14 14 12 14 10 12 12 10 0 10 10 9 9 10 10 10 12 11 10 11 12 11 10 10 10 10 0 0 0 0 0 0 0 12 0 10 10 10 11 12 13 14 12 14 16 17 17 16 16 16 16 17 17 17 18 18 18 20 17 17 17 17 17 15 15 17 11 20 21 21 19 20 21 21 21 22 23 24 24 25 25 27 27 28 28 29 30 31 33 32 34 33 33 33 34 34 34 34 37 36 37 38 39 39 41 42 42 41 42 42 42 42 42 41 41 41 41 41 41 41 41 41 41 41 41 41 42 42 0 0 0 0 0
    0 0 0 0 0 0 0 0 0 0 0 0 0 0 0 0 0 0 0 0 0 0 0 0 0 0 0 0 0 0 0 0 0 0 0 0 0 0 0 0 0 0 0 0 0 0 0 0 0 0 0 0 0 0 0 0 0 0 0 0 0 0 0 0 0 0 0 0 0 9 9 0 0 0 0 0 0 0 11 9 9 9 9 9 9 9 9 0 9 0 0 0 9 0 0 0 0 0 0 9 9 0 9 10 11 10 10 10 10 11 10 10 10 11 13 11 10 9 0 0 0 0 0 0 0 0 0 0 0 0 0 0 0 0 0 0 0 0 0 0 0 0 9 0 9 9 9 9 9 9 9 9 10 9 10 12 11 11 0 0 0 0 0 0 0 0 0 0 0 9 9 0 9 9 9 9 9 10 9 9 15 10 17 14 14 15 15 14 14 13 14 10 11 12 10 0 9 9 9 9 10 10 10 12 11 10 11 12 10 10 10 10 10 0 0 0 9 0 0 0 12 0 9 10 10 12 12 12 13 12 15 16 17 17 15 16 16 16 17 17 17 18 18 19 21 17 17 17 18 17 15 17 18 11 22 22 22 21 21 21 21 21 23 24 25 25 26 26 27 28 29 29 29 30 32 33 32 34 33 32 34 34 34 34 35 37 36 38 38 39 39 42 42 43 41 42 43 43 42 43 41 41 41 42 41 41 41 41 41 41 41 41 40 42 42 0 0 0 0 0
    0 0 0 0 0 0 0 0 0 0 0 0 0 0 0 0 0 0 0 0 0 0 0 0 0 0 0 0 0 0 0 0 0 0 0 0 0 0 0 0 0 0 0 0 0 0 0 0 0 0 0 0 0 0 0 0 0 0 0 0 0 0 0 0 0 0 0 0 0 9 0 0 9 9 9 9 0 0 12 10 10 9 9 9 9 9 9 0 9 0 0 0 9 0 0 0 0 0 0 0 0 0 9 10 10 10 10 10 9 10 9 9 10 11 13 10 10 9 0 0 0 0 0 0 0 0 0 0 0 0 0 0 0 0 0 0 0 0 0 0 0 0 9 0 10 9 9 9 9 9 10 9 10 9 10 12 11 10 0 0 0 0 0 0 0 0 0 0 0 9 9 0 0 9 9 0 9 10 9 9 13 10 17 13 13 14 15 13 13 13 14 10 11 11 10 0 9 0 9 10 10 10 10 12 11 10 11 10 10 9 10 10 11 9 9 9 9 9 9 0 14 0 9 9 10 11 12 12 13 11 14 16 16 16 15 16 16 16 17 16 17 18 18 18 20 17 17 17 18 17 15 17 18 12 21 22 22 21 21 21 22 22 23 24 25 25 26 26 27 28 30 30 30 32 33 33 34 35 33 34 35 35 35 35 36 38 37 38 38 39 39 42 42 42 41 42 43 42 42 42 40 41 41 41 41 41 41 41 41 41 41 41 39 41 41 0 0 0 0 0
    0 0 0 0 0 0 0 0 0 0 0 0 0 0 0 0 0 0 0 0 0 0 0 0 0 0 0 0 0 0 0 0 0 0 0 0 0 0 0 0 0 0 0 0 0 0 0 0 0 0 0 0 0 0 0 0 0 0 0 0 0 0 0 0 0 0 0 0 0 0 0 0 0 0 0 0 0 0 12 10 10 10 9 9 9 10 10 0 9 0 0 0 0 0 0 0 0 0 0 0 0 0 0 9 9 9 9 9 9 10 0 0 9 11 13 9 9 0 0 0 0 0 0 0 0 0 0 0 0 0 0 0 0 0 0 0 0 0 0 0 0 0 0 0 9 9 9 9 9 9 10 9 10 9 10 12 11 10 0 0 0 0 0 0 0 0 0 0 0 9 9 0 9 9 9 0 9 10 9 9 -193 9 15 13 13 13 14 12 12 12 13 10 11 11 9 0 0 0 0 9 10 10 10 11 10 10 11 9 9 9 10 10 11 10 9 9 10 10 10 9 17 9 10 10 12 13 12 12 13 11 15 16 16 15 15 16 17 16 17 16 18 18 18 18 20 17 17 17 18 17 16 18 18 12 22 22 22 21 21 21 21 21 22 23 24 24 25 25 28 29 30 30 32 33 35 34 35 36 34 35 36 35 36 36 36 38 37 39 38 39 39 41 41 42 41 41 42 42 41 42 40 41 40 41 41 40 41 40 40 41 40 40 38 41 41 0 0 0 0 0
    0 0 0 0 0 0 0 0 0 0 0 0 0 0 0 0 0 0 0 0 0 0 0 0 0 0 0 0 0 0 0 0 0 0 0 0 0 0 0 0 0 0 0 0 0 0 0 0 0 0 0 0 0 0 0 0 0 0 0 0 0 0 0 0 0 0 0 0 0 0 0 0 0 0 0 0 0 0 12 10 11 10 11 10 10 10 10 0 9 0 0 0 0 0 0 0 0 0 0 0 0 0 0 0 0 0 0 0 0 9 0 0 9 10 13 8 8 9 0 0 -193 -193 0 0 0 0 -193 0 0 0 0 0 0 0 0 0 0 0 0 0 0 0 0 0 9 9 9 9 9 9 9 9 10 9 10 12 11 12 0 0 0 0 0 0 0 0 0 0 9 10 10 9 9 9 9 9 10 10 9 10 11 10 14 12 12 13 13 12 11 11 12 9 10 10 9 0 0 0 0 9 9 9 9 10 9 10 10 0 9 0 9 9 11 10 9 9 10 10 11 9 19 10 12 13 14 14 13 13 14 12 15 16 15 15 16 16 16 16 16 17 18 18 17 18 20 17 17 17 18 16 17 18 18 13 21 22 22 21 22 21 22 22 23 24 -209 -209 -209 -193 -193 -193 31 31 34 35 36 36 36 37 36 37 37 36 37 37 37 38 37 39 38 39 39 40 41 41 40 41 41 41 41 41 40 40 40 41 40 40 40 40 40 40 39 39 38 41 41 0 0 0 0 0
    0 0 0 0 0 0 0 0 0 0 0 0 0 0 0 0 0 0 0 0 0 0 0 0 0 0 0 0 0 0 0 0 0 0 0 0 0 0 0 0 0 0 0 0 0 0 0 0 0 0 0 0 0 0 0 0 0 0 0 0 0 0 0 0 0 0 0 0 0 0 0 0 0 0 0 0 0 0 12 10 11 11 11 11 11 11 11 9 10 9 9 9 9 0 0 0 0 0 0 0 0 0 0 0 0 0 0 0 0 0 0 0 0 10 12 0 0 9 0 9 9 9 0 0 9 0 -209 0 0 0 0 0 0 0 0 0 0 0 0 0 0 0 9 9 10 10 10 10 10 10 10 9 10 10 10 13 12 15 -193 0 0 0 12 9 0 0 0 9 9 10 10 9 10 10 10 9 10 10 9 11 11 10 13 11 11 12 12 11 10 11 11 9 10 9 0 0 0 0 0 9 9 9 9 10 9 9 10 0 0 0 9 9 11 10 10 10 10 10 11 10 19 11 12 14 14 13 14 14 14 13 15 16 15 16 16 16 16 16 16 17 17 18 17 17 20 17 17 18 17 16 16 18 18 14 21 21 21 22 22 21 23 22 -193 -177 -193 -209 -209 -209 -209 -209 -209 36 -193 38 38 38 39 39 36 37 37 36 37 37 37 38 37 38 38 39 39 40 40 41 40 40 40 41 40 41 39 40 40 40 39 39 39 39 39 39 39 39 36 40 40 0 0 0 0 0
    0 0 0 0 0 0 0 0 0 0 0 0 0 0 0 0 0 0 0 0 0 0 0 0 0 0 0 0 0 0 0 0 0 0 0 0 0 0 0 0 0 0 0 0 0 0 0 0 0 0 0 0 0 0 0 0 0 0 0 0 0 0 0 0 0 0 0 0 0 0 0 0 0 0 0 0 0 0 10 9 11 10 11 11 10 10 10 10 10 9 10 9 9 9 0 0 0 0 0 0 0 0 0 0 0 0 0 0 0 0 0 0 0 10 11 0 0 9 9 10 10 10 0 0 11 10 9 0 0 0 0 0 0 0 0 0 0 0 9 9 0 0 9 10 11 11 11 11 11 11 11 10 10 9 10 13 10 13 0 0 8 9 13 10 0 8 9 0 9 10 10 9 10 10 10 9 10 9 9 12 11 10 11 10 11 11 11 10 9 10 9 9 9 9 0 0 0 0 0 9 9 9 9 9 9 9 9 0 0 0 0 9 11 10 10 10 10 10 11 10 19 11 12 14 13 14 14 14 14 13 15 15 14 16 15 15 16 15 16 16 17 18 17 18 20 17 17 18 17 16 16 18 18 15 21 21 21 22 23 22 23 -209 -177 -177 -177 -209 -209 85 83 82 83 78 71 70 64 68 -209 45 39 38 38 37 37 37 37 38 37 39 39 40 39 41 40 41 40 40 40 40 40 41 39 40 39 40 40 39 39 39 38 38 38 38 35 39 39 0 0 0 0 0
    0 0 0 0 0 0 0 0 0 0 0 0 0 0 0 0 0 0 0 0 0 0 0 0 0 0 0 0 0 0 0 0 0 0 0 0 0 0 0 0 0 0 0 0 0 0 0 0 0 0 0 0 0 0 0 0 0 0 0 0 0 0 0 0 0 0 0 0 0 0 0 0 0 0 0 0 0 0 9 0 10 -193 9 9 9 9 10 9 10 9 10 10 10 9 0 0 0 0 0 0 0 0 0 0 0 0 0 0 0 0 0 0 0 9 10 0 0 9 10 10 10 11 9 9 12 11 10 0 9 0 0 0 0 0 0 0 0 0 9 10 0 0 9 10 11 11 11 11 11 12 11 10 10 9 10 11 10 9 0 0 12 12 14 12 9 9 9 0 9 10 10 9 9 9 9 9 10 9 9 13 11 11 10 10 10 10 10 9 0 9 0 9 9 0 0 0 0 0 0 9 0 9 9 0 0 0 9 0 0 0 0 9 11 10 10 9 10 10 11 10 19 12 13 14 14 14 14 14 14 13 15 15 15 15 15 16 16 16 15 16 18 18 17 18 20 17 17 18 17 16 16 18 18 15 20 20 22 23 23 22 23 -209 1008 -177 -209 89 89 89 89 89 89 88 84 83 76 74 77 -209 -209 -193 40 39 38 38 38 39 38 39 39 40 40 41 40 41 40 40 40 40 40 41 38 39 39 40 40 38 39 39 38 38 37 38 35 37 39 0 0 0 0 0
    0 0 0 0 0 0 0 0 0 0 0 0 0 0 0 0 0 0 0 0 0 0 0 0 0 0 0 0 0 0 0 0 0 0 0 0 0 0 0 0 0 0 0 0 0 0 0 0 0 0 0 0 0 0 0 0 0 0 0 0 0 0 0 0 0 0 0 0 0 0 0 0 0 0 0 0 0 0 0 0 9 -193 9 9 9 9 9 10 10 9 10 9 9 0 0 0 0 0 0 0 0 0 0 0 0 0 0 0 0 0 0 0 0 9 9 0 0 9 11 10 10 12 10 10 13 12 10 0 9 0 0 0 0 0 0 0 0 0 9 10 0 0 9 10 11 11 11 11 11 11 11 9 9 0 0 0 0 0 0 9 15 13 15 12 11 10 10 9 9 10 10 9 9 10 10 9 10 10 10 15 12 11 10 9 9 9 9 0 0 0 0 0 0 0 0 0 0 0 0 0 0 9 9 0 0 0 9 0 0 0 0 9 11 10 10 9 10 10 10 9 18 11 12 14 14 14 14 14 14 13 16 15 14 15 15 16 16 15 15 15 18 18 17 18 20 17 18 18 17 16 16 18 18 16 20 19 21 22 23 21 22 -177 -209 -209 89 91 91 92 91 91 91 90 89 87 84 80 79 83 86 -193 -209 40 39 39 39 38 37 38 39 39 39 41 39 40 40 40 39 40 39 40 38 39 38 39 39 38 38 38 37 37 37 37 35 36 38 0 0 0 0 0
    0 0 0 0 0 0 0 0 0 0 0 0 0 0 0 0 0 0 0 0 0 0 0 0 0 0 0 0 0 0 0 0 0 0 0 0 0 0 0 0 0 0 0 0 0 0 0 0 0 0 0 0 0 0 0 0 0 0 0 0 0 0 0 0 0 0 0 0 0 0 0 0 0 0 0 0 0 0 0 0 9 0 0 0 0 9 0 9 9 0 10 9 9 0 0 0 0 0 0 0 0 0 0 0 0 0 0 0 0 0 0 0 0 0 0 0 0 0 10 9 9 10 9 9 11 10 9 0 10 0 0 0 0 0 0 0 0 0 9 9 0 0 0 9 11 11 11 10 10 11 10 9 8 0 0 0 0 0 0 10 16 14 15 13 11 10 10 9 10 10 10 9 10 10 10 10 10 10 10 17 13 12 9 9 9 9 0 0 0 0 0 0 0 0 0 0 0 0 0 0 0 0 0 0 0 0 9 0 0 0 0 9 10 10 10 9 10 10 10 10 18 12 13 15 15 14 15 15 15 13 16 15 14 15 15 16 15 15 15 14 18 18 17 18 19 17 18 18 17 16 17 18 17 16 19 19 21 22 22 19 -209 -209 -209 -209 91 92 91 91 90 91 91 90 89 88 86 83 79 81 81 87 95 -209 40 40 40 39 38 38 38 39 39 40 39 39 39 39 38 39 38 39 37 39 38 39 40 38 38 38 38 38 37 38 36 36 38 0 0 0 0 0
    0 0 0 0 0 0 0 0 0 0 0 0 0 0 0 0 0 0 0 0 0 0 0 0 0 0 0 0 0 0 0 0 0 0 0 0 0 0 0 0 0 0 0 0 0 0 0 0 0 0 0 0 0 0 0 0 0 0 0 0 0 0 0 0 0 0 0 0 0 9 0 0 0 0 0 0 0 9 0 0 9 0 0 0 0 0 0 10 9 0 9 9 9 0 0 0 0 0 0 0 0 0 0 0 0 0 0 0 0 0 0 0 0 0 0 0 0 9 11 9 9 10 9 9 11 9 9 0 10 0 0 0 0 0 0 0 0 0 9 9 0 0 0 9 11 11 11 11 10 11 10 9 9 0 0 0 0 0 0 10 13 12 13 10 10 10 9 9 10 10 10 10 10 10 10 10 10 9 10 18 13 13 0 9 9 0 0 0 0 0 0 0 0 0 0 0 0 0 0 0 0 0 0 0 0 0 10 0 0 0 0 9 10 10 10 9 10 10 10 10 18 13 14 16 15 15 15 15 15 14 16 15 14 15 15 15 15 15 14 14 18 17 16 17 19 16 17 17 17 16 17 18 17 16 19 19 20 21 19 -177 -193 -209 -209 -209 94 94 92 92 91 91 91 90 89 87 86 83 77 77 78 -209 -193 -209 -193 -193 100 102 -193 -209 39 40 39 39 38 39 38 38 38 38 38 39 38 40 38 38 40 39 39 39 38 38 37 38 37 36 38 0 0 0 0 0
    0 0 0 0 0 0 0 0 0 0 0 0 0 0 0 0 0 0 0 0 0 0 0 0 0 0 0 0 0 0 0 0 0 0 0 0 0 0 0 0 0 0 0 0 0 0 0 0 0 0 0 0 0 0 0 0 0 0 0 0 0 0 0 0 0 0 0 0 0 10 10 0 0 0 0 9 9 10 0 0 9 0 0 0 0 9 0 10 9 0 9 9 9 0 0 0 0 0 0 0 0 0 0 0 0 0 0 0 0 0 0 0 0 0 0 0 9 10 11 10 10 10 10 10 11 0 9 0 10 0 0 0 0 0 0 0 0 0 0 0 0 0 0 9 10 10 11 11 11 11 10 9 9 0 9 0 0 8 0 10 11 11 11 9 0 9 0 9 10 10 10 10 10 10 10 10 10 9 10 19 13 14 9 9 9 9 0 0 0 0 0 0 0 0 0 0 0 0 0 0 0 0 0 0 0 0 10 0 0 0 0 9 10 10 10 0 9 10 10 10 17 13 15 16 15 15 16 15 16 14 16 15 14 15 15 15 15 14 14 14 18 17 15 17 18 16 17 17 16 16 17 18 17 16 19 19 20 21 16 -177 -209 -209 -177 -209 95 95 93 93 91 92 92 91 89 88 87 80 78 80 79 86 90 -193 -193 96 99 101 103 104 106 -209 110 115 -193 -209 -209 37 37 38 38 40 39 40 38 39 40 39 39 39 38 38 37 38 37 36 37 0 0 0 0 0
    0 0 0 0 0 0 0 0 0 0 0 0 0 0 0 0 0 0 0 0 0 0 0 0 0 0 0 0 0 0 0 0 0 0 0 0 0 0 0 0 0 0 0 0 0 0 0 0 0 0 0 0 0 0 0 0 0 0 0 0 0 0 0 0 0 0 0 0 0 11 10 0 0 0 9 10 9 11 0 0 9 0 0 0 0 9 0 10 10 0 10 9 9 0 0 0 0 0 0 0 0 0 0 0 0 0 0 0 0 0 0 0 0 0 0 0 10 10 11 10 9 10 10 9 10 0 9 0 10 0 0 9 9 9 0 0 0 0 9 0 0 0 0 0 10 10 10 11 11 11 10 9 9 0 9 9 0 9 0 9 10 10 11 10 9 9 9 9 10 9 10 10 9 9 9 9 10 9 10 19 13 14 9 9 9 0 0 0 0 0 0 0 0 0 0 0 0 0 0 0 0 0 0 0 0 0 10 9 0 0 0 9 9 9 10 0 9 9 9 10 16 13 14 15 15 15 16 15 15 14 16 14 14 14 14 14 14 14 13 14 17 16 16 18 18 15 17 17 15 16 16 17 16 16 18 18 19 20 14 12 -209 -209 -209 -209 -193 95 92 92 91 91 91 90 88 87 86 79 79 85 83 87 88 -209 -209 91 94 96 95 -209 -209 -209 104 109 112 114 113 113 -209 -209 -209 -193 40 42 39 40 41 40 39 39 38 38 37 38 37 36 37 0 0 0 0 0
    0 0 0 0 0 0 0 0 0 0 0 0 0 0 0 0 0 0 0 0 0 0 0 0 0 0 0 0 0 0 0 0 0 0 0 0 0 0 0 0 0 0 0 0 0 0 0 0 0 0 0 0 0 0 0 0 0 0 0 0 0 0 0 0 0 0 0 0 0 11 11 9 9 0 9 10 10 11 0 0 10 0 0 0 0 0 0 9 9 0 9 9 9 9 0 0 0 0 0 0 0 0 0 0 0 0 0 0 0 0 0 0 0 0 0 0 10 10 11 9 9 10 9 9 10 0 0 0 10 0 0 10 9 9 9 9 9 0 9 0 0 0 0 0 9 9 10 10 11 11 10 9 9 9 9 10 9 9 8 9 10 10 11 10 9 10 10 10 10 9 10 9 9 0 9 9 9 0 10 19 13 15 9 9 9 9 0 0 0 0 0 0 0 0 0 9 0 9 0 0 0 9 9 0 0 0 11 9 0 0 0 10 9 9 10 0 9 10 10 10 15 13 14 14 15 15 16 15 15 13 16 14 14 14 14 14 14 13 13 13 17 17 17 18 17 15 17 16 15 16 16 17 16 15 18 18 19 19 13 12 -193 -209 -209 -209 -209 -209 93 93 91 92 92 90 89 87 86 78 82 87 85 88 88 88 89 91 93 94 92 97 92 92 102 106 105 106 107 105 104 106 104 104 104 -209 -209 40 43 40 40 39 39 38 37 38 37 36 37 0 0 0 0 0
    0 0 0 0 0 0 0 0 0 0 0 0 0 0 0 0 0 0 0 0 0 0 0 0 0 0 0 0 0 0 0 0 0 0 0 0 0 0 0 0 0 0 0 0 0 0 0 0 0 0 0 0 0 0 0 0 0 0 0 0 0 0 0 0 0 0 0 0 0 12 12 9 9 9 9 10 9 11 0 0 10 0 0 0 0 0 0 0 0 0 0 0 0 9 0 0 0 9 0 0 0 0 0 0 0 0 0 0 0 0 0 0 0 0 9 9 10 10 10 9 9 9 9 0 8 0 0 0 9 9 9 10 10 10 10 10 10 0 9 9 0 0 0 0 9 0 9 10 10 10 10 9 9 9 10 10 10 10 9 10 10 10 10 10 9 10 10 10 10 9 10 9 9 0 0 0 0 0 9 18 13 14 10 9 10 9 0 0 0 0 0 0 0 0 0 9 9 9 0 0 9 9 9 9 0 0 11 9 0 0 0 11 10 10 10 0 10 10 10 10 14 13 14 13 15 14 16 15 15 13 15 14 14 13 13 14 13 13 13 13 17 17 17 18 17 15 17 16 15 16 16 17 15 15 18 18 20 16 11 -193 -209 -177 -177 -193 -209 -177 95 94 91 92 91 90 88 87 86 77 82 89 86 89 87 87 89 90 91 92 91 95 93 94 105 109 108 111 109 106 107 109 107 106 107 107 104 -193 -209 41 41 40 40 39 38 39 38 36 38 0 0 0 0 0
    0 0 0 0 0 0 0 0 0 0 0 0 0 0 0 0 0 0 0 0 0 0 0 0 0 0 0 0 0 0 0 0 0 0 0 0 0 0 0 0 0 0 0 0 0 0 0 0 0 0 0 0 0 0 0 0 0 0 0 0 0 0 0 0 0 0 0 0 0 11 11 9 9 9 9 11 10 11 9 0 10 9 0 0 0 0 0 0 0 0 0 0 0 9 0 0 0 9 0 0 0 0 0 0 0 0 0 0 0 0 0 0 0 0 10 9 10 10 10 9 9 9 0 0 0 0 0 0 9 9 9 11 10 10 10 10 10 9 9 0 0 0 0 0 0 0 0 9 10 10 9 9 9 9 10 10 10 10 9 10 10 10 10 9 9 9 10 10 10 10 10 10 9 9 9 0 0 0 9 17 13 14 10 10 10 9 0 0 0 0 0 0 0 0 0 10 10 10 9 9 9 9 9 9 8 9 10 9 0 0 0 10 9 9 10 0 10 10 10 10 15 14 14 13 15 14 17 16 15 13 15 14 14 13 14 13 13 14 12 13 17 17 17 18 17 16 17 17 16 17 16 17 15 15 17 17 18 12 9 -209 -209 -177 -177 -177 -177 -193 -209 97 -193 -193 -193 -193 86 86 85 76 82 89 87 91 -209 -209 -193 95 96 99 100 104 106 -209 113 118 122 120 117 108 111 111 109 108 109 109 106 105 106 105 -193 -193 -193 40 39 39 39 37 38 0 0 0 0 0
    0 0 0 0 0 0 0 0 0 0 0 0 0 0 0 0 0 0 0 0 0 0 0 0 0 0 0 0 0 0 0 0 0 0 0 0 0 0 0 0 0 0 0 0 0 0 0 0 0 0 0 0 0 0 0 0 0 0 0 0 0 0 0 0 0 0 0 0 0 11 11 9 9 0 0 11 10 11 9 9 11 9 9 0 0 0 0 0 0 0 0 0 9 10 0 0 0 10 0 9 0 0 0 0 0 0 0 0 0 0 9 0 0 0 11 9 11 10 10 9 9 9 0 0 0 0 0 0 10 10 10 11 10 11 10 10 11 0 0 0 0 0 0 0 0 0 0 9 9 9 9 9 9 9 10 11 9 9 9 9 9 9 9 9 9 9 10 11 11 10 11 10 10 9 10 0 0 0 0 15 12 13 10 9 10 9 9 0 0 0 0 9 9 0 9 11 11 10 9 9 9 9 10 10 9 9 9 0 0 0 0 9 9 9 9 0 10 10 10 10 15 14 14 13 15 15 18 16 15 14 15 14 14 14 14 13 14 14 12 14 17 16 18 18 17 16 16 17 16 17 17 16 15 14 16 18 16 11 10 -209 -177 -177 -177 -177 -209 -193 -209 -193 -193 -177 -193 -177 -193 84 82 -209 -193 -209 -209 38 39 38 38 38 -193 -209 -193 -177 116 117 119 120 122 122 -209 104 106 108 107 109 110 110 107 106 110 110 116 -209 -209 -209 -193 39 39 37 38 0 0 0 0 0
    0 0 0 0 0 0 0 0 0 0 0 0 0 0 0 0 0 0 0 0 0 0 0 0 0 0 0 0 0 0 0 0 0 0 0 0 0 0 0 0 0 0 0 0 0 0 0 0 0 0 0 0 0 0 0 0 0 0 0 0 0 0 0 0 0 0 0 0 0 10 10 9 0 0 0 10 10 11 9 9 11 10 10 9 0 9 0 0 0 0 0 0 10 10 9 9 9 10 0 9 0 0 0 0 0 0 0 0 0 9 9 0 0 0 12 10 11 10 9 9 9 0 0 0 0 0 0 0 10 10 11 11 11 11 11 10 10 9 0 0 0 0 0 0 0 0 0 9 10 10 10 9 10 10 11 11 10 9 9 9 9 9 9 9 9 9 10 11 11 10 11 10 10 9 9 0 0 0 0 13 11 12 9 9 9 9 9 0 0 0 0 9 10 9 9 11 11 11 10 9 9 9 10 10 9 9 0 0 0 0 0 9 0 0 9 9 11 10 11 11 16 15 14 14 15 15 19 16 15 14 15 14 15 14 14 13 14 15 12 15 18 16 19 19 18 17 16 17 16 17 17 16 14 13 17 20 15 11 10 -193 -177 -177 -177 -193 -193 -209 -209 -209 -177 -177 -193 -177 -193 80 78 -209 37 37 37 37 37 37 36 37 36 38 -209 -209 -193 -177 -177 121 122 122 -209 98 106 109 107 109 111 110 107 106 110 112 119 122 124 128 -193 -209 -209 -193 -193 0 0 0 0 0
    0 0 0 0 0 0 0 0 0 0 0 0 0 0 0 0 0 0 0 0 0 0 0 0 0 0 0 0 0 0 0 0 0 0 0 0 0 0 0 0 0 0 0 0 0 0 0 0 0 0 0 0 0 0 0 0 0 0 0 0 0 0 0 0 0 0 0 0 0 9 9 9 9 0 0 10 10 11 10 9 12 11 10 10 9 9 0 0 0 0 0 0 10 10 10 9 9 10 9 9 9 0 0 0 0 0 0 0 0 9 10 9 0 9 11 10 11 10 10 9 10 9 9 9 9 0 0 8 10 10 11 11 10 11 10 10 10 9 9 0 0 0 0 0 0 0 0 9 10 10 10 10 9 10 11 11 10 10 9 9 9 9 9 9 0 9 10 11 11 10 11 10 10 9 9 0 0 0 0 11 10 11 9 9 9 9 9 0 0 0 0 10 10 9 9 11 11 11 10 10 10 10 10 10 9 9 0 0 0 0 0 0 0 0 9 9 12 11 11 11 17 15 15 14 16 15 19 16 16 14 15 14 15 14 15 13 15 15 12 15 17 16 20 19 18 17 17 17 17 16 17 15 13 13 17 20 15 10 12 10 -177 -177 -177 -193 -177 -193 -193 -209 -209 -193 -193 -209 -193 80 77 38 34 35 35 35 37 36 36 36 35 37 38 38 -193 -209 -193 -209 -193 -209 -209 101 110 115 110 111 114 112 107 106 111 115 121 122 124 127 133 134 133 -209 -209 0 0 0 0 0
    0 0 0 0 0 0 0 0 0 0 0 0 0 0 0 0 0 0 0 0 0 0 0 0 0 0 0 0 0 0 0 0 0 0 0 0 0 0 0 0 0 0 0 0 0 0 0 0 0 0 0 0 0 0 0 0 0 0 0 0 0 0 0 0 0 0 0 0 0 0 0 0 0 0 0 0 9 11 10 10 12 11 11 10 9 10 0 0 0 0 0 0 10 10 11 10 10 10 9 9 9 0 0 0 0 0 0 0 9 9 11 10 0 9 10 9 10 9 9 9 9 9 9 9 9 0 9 10 10 10 11 11 11 11 10 10 10 10 10 9 9 9 0 9 0 0 0 0 9 9 9 9 0 9 10 10 10 9 9 -193 9 9 9 9 9 9 10 10 10 10 10 9 10 9 9 0 0 0 0 9 0 10 9 0 9 9 9 9 0 9 0 10 10 9 10 11 11 11 10 10 10 10 10 10 9 9 0 0 0 0 0 0 0 0 9 10 12 11 11 11 17 15 15 14 16 15 19 16 16 15 15 15 15 14 15 13 15 15 12 16 17 17 21 19 18 17 16 17 16 15 15 13 12 11 16 20 14 10 13 11 -177 -177 -193 -177 -177 -177 -193 -209 -177 -177 -209 90 -193 -193 -193 36 32 33 34 34 36 35 34 35 34 36 36 36 38 39 41 44 -193 -193 -193 -209 -193 -193 112 113 115 113 106 106 110 115 121 122 123 125 131 131 131 133 -193 0 0 0 0 0
    0 0 0 0 0 0 0 0 0 0 0 0 0 0 0 0 0 0 0 0 0 0 0 0 0 0 0 0 0 0 0 0 0 0 0 0 0 0 0 0 0 0 0 0 0 0 0 0 0 0 0 0 0 0 0 0 0 0 0 0 0 0 0 0 0 0 0 0 0 0 0 0 0 0 0 0 0 11 10 10 12 12 11 11 10 10 0 8 9 0 0 0 11 10 11 10 10 10 10 10 10 0 0 0 0 0 0 0 9 9 11 10 9 10 9 9 10 9 0 0 0 0 0 8 0 0 9 9 9 9 10 10 10 11 10 10 10 10 10 9 9 9 0 9 0 9 0 8 9 9 9 0 0 0 0 9 9 8 -193 -193 9 9 9 9 9 9 10 9 9 9 9 9 9 9 9 0 0 0 0 0 0 9 9 0 9 10 9 9 9 10 9 10 11 10 10 12 12 11 11 10 10 10 10 10 9 9 0 0 0 0 0 0 0 0 0 10 12 11 12 12 18 15 15 15 16 15 20 16 16 15 15 15 15 15 15 13 15 15 13 16 17 17 21 19 17 17 17 16 16 14 14 12 12 12 18 20 13 10 15 12 -177 -177 -177 -177 -177 -193 -193 -209 -177 -177 -193 91 -193 -193 -209 35 31 32 33 33 35 34 34 35 33 35 35 34 37 37 40 41 42 -193 48 -177 -193 -193 -209 115 116 114 108 109 113 116 121 123 123 125 129 129 128 131 131 0 0 0 0 0
    0 0 0 0 0 0 0 0 0 0 0 0 0 0 0 0 0 0 0 0 0 0 0 0 0 0 0 0 0 0 0 0 0 0 0 0 0 0 0 0 0 0 0 0 0 0 0 0 0 0 0 0 0 0 0 0 0 0 0 0 0 0 0 0 0 0 0 0 0 0 0 9 9 9 0 0 9 12 10 11 12 12 11 11 10 11 9 9 9 0 0 0 11 11 12 10 10 10 10 10 10 0 0 0 0 0 0 0 0 0 10 9 9 10 0 0 9 9 0 0 0 0 0 0 0 0 0 9 0 9 10 10 10 11 9 10 9 10 10 9 10 9 0 10 9 9 9 9 9 9 9 0 0 0 0 0 0 0 -193 -193 9 9 9 9 9 10 9 9 9 -193 -193 9 9 -209 0 0 0 0 9 0 0 9 9 9 10 11 10 9 9 10 9 10 11 10 10 13 12 12 11 10 10 10 10 10 0 9 0 0 0 0 0 0 0 0 0 11 12 11 12 12 18 15 15 15 15 15 20 16 16 14 15 15 15 15 15 13 15 15 13 16 17 17 21 18 17 17 17 16 16 15 15 12 13 15 21 21 13 11 17 -193 -177 -177 -177 -177 -177 -193 -193 -209 -177 -177 -193 -193 -193 -177 -209 34 30 31 32 32 35 34 34 34 33 34 35 34 37 36 39 40 40 42 44 44 -177 -193 -193 -177 119 118 119 109 113 116 121 124 124 125 129 129 128 131 131 0 0 0 0 0
    0 0 0 0 0 0 0 0 0 0 0 0 0 0 0 0 0 0 0 0 0 0 0 0 0 0 0 0 0 0 0 0 0 0 0 0 0 0 0 0 0 0 0 0 0 0 0 0 0 0 0 0 0 0 0 0 0 0 0 0 0 0 0 0 0 0 0 0 0 0 0 10 11 11 10 10 13 17 12 12 12 12 12 11 11 11 9 10 10 9 0 0 12 11 12 11 10 10 10 10 10 0 0 0 0 0 0 0 0 0 10 9 10 11 9 9 10 9 9 0 9 0 0 9 0 0 0 9 0 9 10 10 10 11 9 10 9 10 11 10 10 10 9 11 10 10 10 -193 9 9 9 -193 0 0 0 0 0 0 -193 -193 9 -193 -193 9 -193 -193 127 -193 -209 -193 -193 -209 -193 -193 -209 9 0 0 9 0 0 9 9 9 9 10 9 9 9 9 0 9 10 10 10 13 13 12 11 11 10 10 10 9 0 0 0 0 0 0 0 0 0 0 0 11 12 11 12 12 18 15 15 15 14 15 19 16 16 14 15 16 16 16 16 13 15 15 13 16 18 16 21 18 18 18 18 17 17 15 16 12 14 20 24 21 11 10 17 -209 -193 -193 -177 -177 -177 -193 -177 -177 -177 -177 -209 -193 -177 -177 -193 33 29 29 31 30 34 33 33 34 32 34 35 34 37 36 39 40 39 41 42 41 42 41 42 -209 -177 -177 -177 -209 117 121 122 125 125 126 129 128 127 131 132 0 0 0 0 0
    0 0 0 0 0 0 0 0 0 0 0 0 0 0 0 0 0 0 0 0 0 0 0 0 0 0 0 0 0 0 0 0 0 0 0 0 0 0 0 0 0 0 0 0 0 0 0 0 0 0 0 0 0 0 0 0 0 0 0 0 0 0 0 0 0 0 0 0 0 9 0 11 13 13 13 11 17 19 11 13 12 12 12 12 11 11 10 11 10 9 0 0 12 11 12 11 10 10 10 10 10 0 0 0 0 0 0 0 0 0 9 9 10 10 0 0 9 9 9 0 0 0 0 9 9 9 0 9 0 9 10 10 10 10 9 10 9 10 11 10 10 10 9 12 10 10 10 -193 9 9 9 -193 0 0 0 0 0 -177 -193 -193 -193 -193 -193 -193 126 129 127 125 126 125 -193 126 126 126 -193 -209 -209 -209 -193 -193 0 0 9 0 9 9 -193 0 -193 9 0 9 10 10 10 13 13 12 11 10 10 10 10 9 0 9 0 0 0 0 0 0 0 0 0 11 11 11 11 11 17 14 14 15 14 15 19 16 16 14 16 16 16 16 16 14 16 16 14 17 19 16 21 19 17 18 18 17 17 14 16 12 14 21 23 20 11 11 18 -209 28 -177 -177 -177 -177 -177 -177 -177 -177 -177 -209 -193 -193 -177 -193 32 28 29 30 30 33 32 32 33 31 33 34 33 36 35 39 40 39 41 41 40 40 39 40 41 -193 -209 -209 -209 -209 125 124 127 127 126 129 129 127 131 133 0 0 0 0 0
    0 0 0 0 0 0 0 0 0 0 0 0 0 0 0 0 0 0 0 0 0 0 0 0 0 0 0 0 0 0 0 0 0 0 0 0 0 0 0 0 0 0 0 0 0 0 0 0 0 0 0 0 0 0 0 0 0 0 0 0 0 0 0 0 0 0 0 0 0 9 0 12 14 14 13 11 18 19 11 13 11 12 12 12 11 11 10 12 10 10 9 0 11 11 12 10 10 10 10 10 10 0 0 0 0 0 0 0 0 0 0 0 9 10 0 0 9 9 9 0 0 0 0 9 0 0 0 9 0 0 9 9 9 10 0 9 0 9 10 9 10 10 9 11 10 10 11 -193 9 9 -193 -193 0 0 0 0 -177 -177 -193 -193 -193 -177 -193 -193 126 128 126 124 126 125 125 127 127 126 123 -193 -209 -209 -193 -209 0 0 0 0 0 9 -193 0 9 -193 9 9 10 10 10 13 14 12 11 10 10 10 10 9 0 9 0 0 0 0 0 0 0 0 0 11 11 10 10 11 16 14 14 15 14 15 18 16 16 14 15 16 16 16 16 14 16 16 14 17 19 16 21 20 18 18 18 17 17 14 16 13 13 21 23 19 11 10 18 22 28 -177 -177 -177 -177 -177 -177 -177 -193 -177 -193 -193 -209 -209 30 31 28 28 30 29 32 31 31 32 31 33 33 33 35 35 38 39 38 40 40 40 40 39 39 40 41 -193 -209 -177 -177 -209 127 129 128 127 130 131 128 130 133 0 0 0 0 0
    0 0 0 0 0 0 0 0 0 0 0 0 0 0 0 0 0 0 0 0 0 0 0 0 0 0 0 0 0 0 0 0 0 0 0 0 0 0 0 0 0 0 0 0 0 0 0 0 0 0 0 0 0 0 0 0 0 0 0 0 0 0 0 0 0 0 0 0 0 10 9 13 15 14 14 12 19 20 11 13 11 11 12 12 12 11 10 11 9 10 0 0 10 10 11 10 10 10 10 10 10 0 0 0 0 0 0 0 0 0 0 0 9 9 0 0 9 9 9 9 0 0 0 9 0 0 0 9 0 0 0 0 9 9 0 0 0 9 10 10 10 10 10 12 10 10 11 -193 9 10 -193 -193 0 0 0 0 -177 -177 -193 -193 -193 -177 -193 -193 125 128 126 -193 125 125 126 127 127 126 123 -193 -209 -209 -193 -209 0 0 9 0 9 9 9 9 9 9 9 9 10 10 9 12 13 12 11 10 10 10 10 9 0 9 0 0 0 0 0 0 0 0 0 11 11 10 10 11 15 13 14 15 14 15 18 16 16 13 15 15 15 15 15 14 15 15 14 18 19 17 20 20 18 18 18 17 16 14 16 13 13 20 21 14 9 9 17 19 27 -177 -177 -177 -177 -177 -177 -177 -193 -209 95 94 -209 -193 29 30 28 27 29 29 31 30 31 32 31 33 33 32 34 33 37 37 37 38 38 39 39 38 39 40 40 -209 -209 -209 -177 -209 -209 131 128 128 130 131 129 130 133 0 0 0 0 0
    0 0 0 0 0 0 0 0 0 0 0 0 0 0 0 0 0 0 0 0 0 0 0 0 0 0 0 0 0 0 0 0 0 0 0 0 0 0 0 0 0 0 0 0 0 0 0 0 0 0 0 0 0 0 0 0 0 0 0 0 0 0 0 0 0 0 0 0 0 11 10 15 18 17 17 14 21 20 11 13 11 11 11 11 11 11 10 11 9 9 0 0 9 10 11 10 10 10 10 10 10 0 0 0 0 0 0 0 0 0 0 0 9 9 0 0 9 9 9 9 0 0 0 9 0 9 0 9 0 0 0 0 0 9 0 0 0 9 10 10 10 10 9 12 10 10 11 -193 9 9 -193 -193 0 0 -177 0 0 0 -193 -193 -193 124 124 -177 -177 -177 126 -193 -193 126 126 128 128 -193 -193 -193 -209 -193 9 9 0 0 9 9 9 10 9 9 9 9 9 9 10 9 9 11 12 11 10 9 10 10 10 9 0 10 0 0 0 9 0 9 9 9 0 12 11 10 10 11 15 13 14 15 13 15 17 16 16 13 15 14 14 15 14 14 15 15 13 18 19 18 20 19 17 17 17 17 15 14 16 14 13 20 20 11 0 0 16 16 -193 -177 -177 -177 -177 -177 -177 -177 -193 -193 94 94 89 88 30 29 27 27 29 29 31 29 31 31 30 33 32 31 33 31 35 35 35 37 37 38 38 38 38 39 -193 -209 -209 -209 -193 -193 -209 -193 128 128 130 131 129 129 132 0 0 0 0 0
    0 0 0 0 0 0 0 0 0 0 0 0 0 0 0 0 0 0 0 0 0 0 0 0 0 0 0 0 0 0 0 0 0 0 0 0 0 0 0 0 0 0 0 0 0 0 0 0 0 0 0 0 0 0 0 0 0 0 0 0 0 0 0 0 0 0 0 0 0 12 11 17 20 19 19 17 23 -193 11 -193 10 10 11 11 11 10 9 10 0 0 0 0 0 0 9 10 10 9 10 9 10 0 0 0 0 0 0 0 0 0 0 0 9 9 0 0 9 10 9 9 9 0 9 9 0 0 0 9 0 0 0 0 0 9 0 0 0 9 10 10 10 9 9 11 10 10 11 10 9 9 9 0 0 0 0 0 0 0 -193 -193 -193 -177 -193 -193 -177 -177 126 -193 -193 -193 -193 -193 -193 -209 -209 10 9 9 9 9 0 0 9 0 9 10 9 9 9 9 9 9 10 9 9 11 11 10 10 9 9 9 9 0 0 9 0 0 0 0 0 9 9 9 0 11 11 10 10 11 15 13 14 14 13 16 17 16 16 13 14 14 14 14 14 13 14 14 13 19 19 18 20 19 17 17 18 17 15 15 17 14 13 20 20 0 0 0 14 -193 -177 -177 -177 -177 -177 -177 -177 -209 -193 -209 93 93 -209 -209 30 30 28 28 29 28 30 29 30 31 30 34 31 31 33 31 35 35 34 36 35 37 38 37 38 38 39 -209 -209 -209 -177 766 -209 -209 129 128 129 130 129 129 132 0 0 0 0 0
    0 0 0 0 0 0 0 0 0 0 0 0 0 0 0 0 0 0 0 0 0 0 0 0 0 0 0 0 0 0 0 0 0 0 0 0 0 0 0 0 0 0 0 0 0 0 0 0 0 0 0 0 0 0 0 0 0 0 0 0 0 0 0 0 0 0 0 0 0 14 13 19 22 21 21 20 25 -209 -193 -193 -209 -193 10 10 10 -209 9 9 0 0 0 0 0 0 0 0 0 0 10 0 10 9 9 0 0 0 0 0 0 0 0 0 9 9 0 9 9 10 10 9 9 0 9 9 0 0 0 0 0 0 0 0 0 0 0 0 0 9 9 10 10 10 9 11 10 10 11 10 9 9 9 0 0 0 0 0 0 0 -177 -193 -193 -193 -193 -193 -177 -177 126 0 0 0 -193 -209 -209 -209 -193 10 9 9 10 9 9 0 9 9 9 9 9 9 9 9 9 10 10 9 9 11 12 10 10 9 9 0 0 0 0 0 0 0 0 0 0 0 0 0 0 11 10 10 10 10 14 13 13 14 13 15 16 16 16 13 15 14 14 14 14 14 14 13 15 19 20 17 20 19 18 18 18 17 16 15 18 14 13 20 21 0 0 0 -193 14 -193 -177 -177 -177 -177 -177 -177 -209 -209 -209 -193 -209 -193 -193 30 30 28 28 28 28 29 28 29 32 30 35 32 32 33 32 35 34 34 35 34 36 37 37 37 38 -193 -209 -209 -209 -177 -177 -209 -193 129 128 129 130 130 130 132 0 0 0 0 0
    0 0 0 0 0 0 0 0 0 0 0 0 0 0 0 0 0 0 0 0 0 0 0 0 0 0 0 0 0 0 0 0 0 0 0 0 0 0 0 0 0 0 0 0 0 0 0 0 0 0 0 0 0 0 0 0 0 0 0 0 0 0 0 0 0 0 0 0 0 16 15 21 23 23 23 23 27 -209 -209 250 -209 -209 -193 -193 -209 -193 -209 -209 0 0 0 0 0 0 0 0 0 0 0 0 9 10 9 0 0 0 0 0 0 0 0 0 9 9 9 9 10 11 10 10 9 9 9 9 0 0 0 0 0 0 0 0 0 0 0 0 0 9 9 11 12 12 11 12 10 10 11 10 0 9 10 0 0 0 0 0 0 0 -193 -193 -193 -193 -193 -193 -193 -193 -193 -193 0 0 0 -193 -209 0 0 10 9 9 10 10 10 0 0 9 9 10 9 0 9 0 9 10 10 9 9 11 12 11 10 10 10 0 0 0 0 0 0 0 0 0 0 8 8 8 0 11 10 10 10 10 14 13 13 14 13 16 16 16 16 13 15 14 14 14 14 14 15 13 16 20 20 18 20 19 18 18 18 17 16 16 18 14 14 21 22 0 0 0 -193 14 -177 -177 -193 -177 -177 -209 -209 -209 -209 -209 90 -209 -193 -193 29 30 28 28 28 28 29 28 29 32 30 35 32 32 33 33 35 35 34 35 34 36 37 37 37 38 -193 -209 -209 -209 -177 -177 -209 -193 128 127 128 129 131 130 132 0 0 0 0 0
    0 0 0 0 0 0 0 0 0 0 0 0 0 0 0 0 0 0 0 0 0 0 0 0 0 0 0 0 0 0 0 0 0 0 0 0 0 0 0 0 0 0 0 0 0 0 0 0 0 0 0 0 0 0 0 0 0 0 0 0 0 0 0 0 0 0 0 0 0 16 15 21 24 24 24 24 29 -209 -209 249 245 -193 -193 -193 -209 -209 -193 -209 -193 0 0 0 0 0 -209 -209 0 0 0 0 9 11 10 0 0 0 0 9 10 10 9 0 10 11 10 11 11 13 11 12 10 9 9 9 0 0 0 -193 0 0 0 0 0 0 0 0 0 0 0 11 13 15 12 12 11 -193 11 10 -193 9 -193 9 11 -209 -209 -209 -209 -209 -209 -209 -193 -193 -209 -209 -209 -193 -209 -193 0 0 0 0 9 0 9 10 10 9 11 10 11 0 8 9 9 9 9 0 9 0 10 10 10 9 9 10 12 11 10 9 9 9 0 0 0 0 0 0 0 0 9 9 9 9 0 11 10 10 10 10 13 12 13 14 14 16 17 15 16 14 14 13 13 13 13 13 15 13 17 21 20 18 21 20 18 18 18 17 16 17 18 14 14 22 23 0 0 0 -209 -193 -177 -177 -177 -193 -193 -177 -209 -209 -177 -209 90 -209 -193 -193 29 29 28 28 28 28 29 28 30 32 30 35 32 32 34 33 35 35 34 36 34 36 37 37 37 38 -193 -209 -209 -209 -177 767 -209 -193 126 126 127 129 131 130 132 0 0 0 0 0
    0 0 0 0 0 0 0 0 0 0 0 0 0 0 0 0 0 0 0 0 0 0 0 0 0 0 0 0 0 0 0 0 0 0 0 0 0 0 0 0 0 0 0 0 0 0 0 0 0 0 0 0 0 0 0 0 0 0 0 0 0 0 0 0 0 0 0 0 0 14 14 20 24 24 -193 -209 -209 -209 243 247 243 -193 -209 -193 -209 -209 -209 -209 -209 -209 -193 0 -209 -209 -209 -209 -209 0 -193 0 10 13 12 0 0 9 9 10 12 11 10 9 12 12 11 12 12 15 12 12 -209 -193 -209 -209 -209 -209 -193 -177 0 0 0 0 0 0 0 0 0 0 0 10 13 -209 -209 -209 -177 88 -193 -193 -209 -209 -193 87 88 84 86 87 88 -209 87 -193 90 -209 97 -209 -209 -209 -193 96 -193 -209 -209 -209 -209 0 9 11 10 9 12 10 13 9 9 9 10 10 10 9 10 0 11 12 11 10 10 10 12 11 10 9 9 0 0 0 0 9 0 0 9 9 9 10 10 10 0 10 10 10 9 9 13 12 13 14 14 16 18 16 16 14 14 13 13 13 13 12 14 12 17 21 20 19 21 19 18 18 18 17 16 17 18 14 15 22 24 0 0 0 -177 -177 -177 -177 -177 -209 -193 -177 -209 -177 -177 -193 90 -209 -193 -193 29 29 28 28 29 29 30 29 32 33 31 35 33 33 34 33 34 34 34 36 34 37 37 37 37 38 -209 -177 -209 -193 -193 766 -193 -193 125 126 127 129 132 131 133 0 0 0 0 0
    0 0 0 0 0 0 0 0 0 0 0 0 0 0 0 0 0 0 0 0 0 0 0 0 0 0 0 0 0 0 0 0 0 0 0 0 0 0 0 0 0 0 0 0 0 0 0 0 0 0 0 0 0 0 0 0 0 0 0 0 0 0 0 0 0 0 0 0 0 13 13 17 26 36 -209 -209 -193 -209 -193 -209 -193 -209 -193 -193 -193 -193 -193 -209 -209 -209 -209 -209 -209 -193 -193 -209 -209 -193 -193 -209 11 16 14 9 0 10 11 12 15 14 11 12 18 16 -193 -209 -193 -209 -193 -193 -209 -209 -209 -209 -209 -209 372 372 -193 0 0 0 0 0 0 0 0 0 -177 -177 -177 -209 -193 87 87 89 90 89 87 88 88 88 87 87 88 88 90 88 87 88 88 88 90 89 88 88 88 88 90 92 90 89 88 -193 -193 -193 -193 0 12 11 15 10 10 10 11 11 12 10 11 9 12 14 13 12 11 10 13 11 11 10 9 10 10 9 9 10 0 9 9 10 10 10 10 10 0 11 11 10 10 10 13 12 15 14 15 16 18 16 17 14 14 12 13 12 12 11 13 11 17 21 19 19 21 19 18 17 18 17 15 18 18 13 18 23 24 0 0 0 -177 -177 -177 -177 -177 -209 -193 -209 -193 -177 -177 -177 89 -193 -193 -193 29 29 28 28 29 29 30 30 32 33 31 35 32 33 34 34 34 35 35 36 35 37 36 37 38 38 -209 -177 -209 535 -209 -209 121 132 126 126 127 129 132 132 133 0 0 0 0 0
    0 0 0 0 0 0 0 0 0 0 0 0 0 0 0 0 0 0 0 0 0 0 0 0 0 0 0 0 0 0 0 0 0 0 0 0 0 0 0 0 0 0 0 0 0 0 0 0 0 0 0 0 0 0 0 0 0 0 0 0 0 0 0 0 0 0 0 0 0 13 16 21 29 -209 -209 -209 -193 -209 83 -209 -193 -209 -193 -193 -193 -193 -193 -209 -209 -209 -209 -193 -193 85 86 -193 -209 85 85 85 -209 17 17 11 10 12 14 15 19 19 14 16 -209 -209 -209 -209 -209 -209 -193 -209 -193 90 90 -193 -193 89 -209 -177 -209 -193 -209 0 0 0 0 -177 0 10 -177 -177 -209 93 85 88 88 90 90 90 88 89 88 89 88 88 88 88 88 88 87 87 87 87 88 88 86 87 88 88 89 90 88 89 89 91 -193 -193 93 -193 -193 13 17 11 10 11 12 13 13 11 12 9 14 17 14 12 11 10 12 12 11 10 10 12 11 11 11 11 10 10 10 10 10 9 9 9 0 10 10 10 10 10 12 12 16 14 16 16 19 16 17 14 14 12 13 12 12 10 12 10 16 21 18 18 21 18 17 17 17 16 16 19 18 13 21 24 25 -193 -193 -193 -177 -177 -177 -177 -177 -193 -209 -209 106 -177 -177 -177 89 -177 -193 -193 29 29 28 27 29 29 30 29 31 32 30 34 32 34 34 34 34 35 35 36 35 37 36 37 38 39 -209 -177 -209 -209 -209 -193 122 133 127 127 128 130 132 132 132 0 0 0 0 0
    0 0 0 0 0 0 0 0 0 0 0 0 0 0 0 0 0 0 0 0 0 0 0 0 0 0 0 0 0 0 0 0 0 0 0 0 0 0 0 0 0 0 0 0 0 0 0 0 0 0 0 0 0 0 0 0 0 0 0 0 0 0 0 0 0 0 0 0 0 -209 -209 -209 -209 -209 68 -209 -209 -193 84 -209 85 -193 -193 -193 -193 -193 -209 -209 -209 -209 -209 87 87 87 86 86 -193 86 85 85 -209 -209 -209 -209 -209 14 18 -193 -193 -193 -209 -193 80 82 82 -209 -209 -209 -209 -209 90 91 91 90 89 -193 -193 -209 -193 -209 -209 0 0 0 -177 -177 0 12 -209 -209 90 94 87 89 88 90 90 89 88 88 88 88 87 87 85 87 87 87 86 86 86 86 87 87 85 86 88 87 88 89 88 89 89 90 90 91 91 90 -193 -193 18 12 11 12 13 15 -193 -209 -209 -209 -193 -209 -209 9 9 0 10 12 11 10 10 13 12 12 12 12 10 9 9 9 0 0 0 0 0 9 11 10 10 10 13 14 18 15 17 17 20 16 18 15 14 13 13 13 12 11 13 9 17 20 17 17 21 17 17 16 17 16 17 19 19 13 22 23 -193 -177 -193 -193 -177 -177 -177 -177 -177 -177 -193 -209 108 -177 -177 -177 -209 -177 -193 -193 30 29 28 27 29 28 29 28 30 30 28 32 31 33 34 34 35 35 35 36 35 37 36 37 38 39 39 -209 -209 -193 -209 120 122 134 127 127 128 130 132 132 132 0 0 0 0 0
    0 0 0 0 0 0 0 0 0 0 0 0 0 0 0 0 0 0 0 0 0 0 0 0 0 0 0 0 0 0 0 0 0 0 0 0 0 0 0 0 0 0 0 0 0 0 0 0 0 0 0 0 0 0 0 0 0 0 0 0 0 0 0 0 0 0 0 0 0 89 90 -193 92 91 90 91 90 87 85 87 85 86 86 86 86 87 87 88 86 88 89 88 88 87 87 86 86 86 86 86 86 87 -193 -209 89 -193 88 87 88 88 88 88 86 87 87 89 92 91 91 90 91 91 91 90 89 -193 -193 -193 -193 -193 -193 -209 -209 -193 -177 -177 -177 -177 -209 -209 91 94 88 89 88 89 89 89 88 88 88 88 87 87 84 87 87 86 86 85 86 85 86 86 84 86 87 87 88 89 88 89 90 90 90 91 91 90 89 -193 -193 -193 11 13 15 -193 -209 -209 -209 -193 -209 -209 -209 -209 9 0 12 15 14 12 12 16 14 13 13 12 10 0 0 0 0 0 0 0 0 0 9 9 9 10 13 14 19 16 18 17 20 16 18 14 13 12 13 12 12 10 12 9 17 19 16 17 21 17 17 17 18 17 18 20 19 13 22 23 -193 -177 -177 -177 -177 -177 -177 -177 -177 -177 -193 -209 109 -177 -177 -209 -209 -209 -193 28 29 30 29 27 29 29 28 28 29 29 27 30 30 32 34 34 35 35 36 36 36 37 36 37 38 38 39 -209 -209 528 -209 118 121 134 127 127 128 130 132 132 132 0 0 0 0 0
    0 0 0 0 0 0 0 0 0 0 0 0 0 0 0 0 0 0 0 0 0 0 0 0 0 0 0 0 0 0 0 0 0 0 0 0 0 0 0 0 0 0 0 0 0 0 0 0 0 0 0 0 0 0 0 0 0 0 0 0 0 0 0 0 0 0 0 0 0 91 91 92 93 92 91 94 93 91 89 88 87 87 87 86 86 87 87 88 87 89 89 88 89 88 88 87 87 88 88 87 88 89 90 91 91 91 90 89 90 91 90 90 90 90 90 90 93 91 92 92 91 91 91 91 90 89 90 89 89 89 90 89 90 93 -193 -209 -209 -209 91 90 91 92 88 89 88 89 89 89 88 88 88 88 88 87 84 87 87 86 85 85 85 85 85 86 84 85 87 87 88 89 88 89 90 90 90 90 90 90 89 90 -193 -193 -193 -193 -209 -209 -209 -209 -209 -193 -193 -209 -209 80 -209 -209 -209 -209 -209 15 15 20 17 17 16 13 11 9 0 0 0 0 0 0 0 0 0 0 9 9 13 13 19 17 18 17 20 16 17 14 13 12 12 11 11 9 11 9 16 18 16 17 21 17 17 17 17 17 18 20 18 13 20 21 -193 -177 -193 -193 -177 -177 -177 -177 -177 -177 -177 -209 109 -193 -177 -209 -209 -209 84 28 30 30 29 27 29 28 28 27 28 28 27 29 30 32 34 35 36 36 37 37 37 37 36 37 38 38 39 38 -209 530 -209 -209 120 135 126 127 127 130 131 131 132 0 0 0 0 0
    0 0 0 0 0 0 0 0 0 0 0 0 0 0 0 0 0 0 0 0 0 0 0 0 0 0 0 0 0 0 0 0 0 0 0 0 0 0 0 0 0 0 0 0 0 0 0 0 0 0 0 0 0 0 0 0 0 0 0 0 0 0 0 0 0 0 0 0 0 91 92 92 94 93 92 95 94 93 91 91 89 88 88 88 88 88 89 90 89 90 91 90 92 90 89 88 88 89 89 89 89 90 92 92 92 91 91 90 92 92 91 92 91 91 91 92 94 91 92 92 91 91 92 91 90 89 90 89 89 88 89 88 90 91 91 90 90 90 91 90 92 90 89 90 89 90 89 89 89 89 89 89 88 88 85 88 87 86 86 85 85 85 86 86 83 85 86 86 88 89 88 89 90 90 90 90 90 90 89 90 -193 89 89 -193 91 -193 94 -193 -209 -209 -209 -209 83 83 84 80 76 85 86 87 -209 21 20 -193 -193 -193 14 11 9 9 0 0 0 0 0 0 0 0 0 9 12 13 20 18 19 18 21 17 17 13 12 11 11 10 10 9 10 9 15 18 16 16 21 17 17 17 17 17 18 20 17 13 18 19 -193 -193 -193 -193 -193 -177 -177 -177 -177 -177 -177 -209 109 -193 -193 -209 -193 -193 -193 29 30 31 29 27 29 28 28 28 28 27 26 28 29 32 35 36 37 37 38 38 38 38 37 38 39 39 39 38 -209 531 -209 -209 -193 -177 127 128 128 131 131 131 132 0 0 0 0 0
    0 0 0 0 0 0 0 0 0 0 0 0 0 0 0 0 0 0 0 0 0 0 0 0 0 0 0 0 0 0 0 0 0 0 0 0 0 0 0 0 0 0 0 0 0 0 0 0 0 0 0 0 0 0 0 0 0 0 0 0 0 0 0 0 0 0 0 0 0 92 92 92 94 93 92 95 94 94 92 92 90 90 90 89 89 90 90 91 90 91 92 91 93 91 90 89 89 90 90 89 90 90 92 93 93 93 93 91 95 93 92 93 93 92 92 92 94 91 92 92 91 91 92 91 90 89 89 88 88 88 88 88 90 91 90 90 90 90 90 89 91 90 89 90 89 90 89 89 89 89 89 89 88 89 87 90 89 88 88 87 87 86 87 87 84 86 87 86 88 89 88 89 90 90 90 90 90 90 89 89 89 89 89 89 89 88 90 97 87 -193 85 86 84 84 85 83 78 85 86 87 84 -193 -209 875 876 880 -193 -193 -209 -209 -193 0 0 0 0 0 0 0 0 9 12 13 20 19 19 19 21 18 18 14 12 10 11 10 9 0 9 0 14 18 17 17 21 17 17 16 16 17 17 19 16 13 -193 -193 -209 -193 -193 -193 -193 -193 -209 -209 -193 -177 -177 -209 107 106 105 -209 89 88 88 30 31 32 30 27 29 28 28 28 29 28 27 28 29 32 34 35 36 37 37 38 38 38 37 38 39 39 39 38 -193 -193 -209 -209 -177 -177 130 130 130 131 131 131 133 0 0 0 0 0
    0 0 0 0 0 0 0 0 0 0 0 0 0 0 0 0 0 0 0 0 0 0 0 0 0 0 0 0 0 0 0 0 0 0 0 0 0 0 0 0 0 0 0 0 0 0 0 0 0 0 0 0 0 0 0 0 0 0 0 0 0 0 0 0 0 0 0 0 0 93 94 92 95 93 92 95 94 95 93 93 92 92 91 90 91 92 91 92 91 92 93 92 94 91 90 91 90 91 91 91 91 91 95 95 95 95 95 92 97 94 93 94 93 93 93 93 95 91 92 92 91 91 92 91 91 90 90 89 89 89 90 89 92 93 92 91 91 91 91 91 92 91 89 91 89 90 89 90 89 89 89 89 89 90 89 92 91 90 90 89 88 88 88 88 86 87 88 86 87 88 88 89 90 90 90 90 90 90 89 90 89 89 89 89 89 89 90 92 88 87 86 86 86 85 86 85 82 86 86 87 86 87 -193 876 -177 -177 -193 -209 -193 -177 -193 -193 0 0 0 0 0 0 0 9 -193 -193 -193 -193 20 20 22 19 19 14 12 10 10 10 9 0 0 0 13 18 18 18 21 18 18 16 14 18 16 18 15 -193 697 700 -209 -209 -209 -193 -209 -193 -209 -209 -209 -177 -177 -193 105 106 104 87 88 87 88 -209 32 33 30 28 28 28 27 28 28 28 26 27 28 32 33 36 36 36 37 37 37 37 37 38 39 40 40 -209 -209 -209 -209 -209 133 136 131 131 130 131 131 131 133 0 0 0 0 0
    0 0 0 0 0 0 0 0 0 0 0 0 0 0 0 0 0 0 0 0 0 0 0 0 0 0 0 0 0 0 0 0 0 0 0 0 0 0 0 0 0 0 0 0 0 0 0 0 0 0 0 0 0 0 0 0 0 0 0 0 0 0 0 0 0 0 0 0 0 94 94 92 96 93 93 95 95 96 95 94 94 94 93 92 95 94 92 93 93 93 93 93 95 91 91 92 91 92 94 92 93 92 96 95 96 95 96 91 98 94 93 94 94 94 93 93 95 91 93 93 92 92 92 91 91 90 91 90 91 91 92 91 94 95 93 92 92 92 92 92 93 91 90 92 90 91 90 90 90 90 90 90 90 92 89 94 92 90 91 90 89 89 89 89 87 88 89 87 88 88 88 90 90 90 90 90 90 90 90 90 90 90 89 89 90 90 90 92 89 88 88 88 88 87 87 87 85 88 88 88 88 89 90 -193 -193 -193 95 92 93 -193 -193 -193 -193 0 0 0 0 -193 -193 -193 -193 -193 -193 -193 -193 20 22 -193 -193 -193 -177 95 -193 -193 -193 -193 -209 -193 -193 19 18 18 21 18 19 -193 13 17 15 16 -193 -193 697 699 -209 -209 -209 -193 -193 -193 -193 -209 -209 -209 -193 102 104 105 101 85 87 86 88 -209 -193 34 30 28 28 27 26 27 27 27 26 27 27 31 32 36 36 36 37 37 37 37 37 39 40 40 -209 -209 -209 -209 -209 124 132 135 131 131 131 131 131 131 134 0 0 0 0 0
    0 0 0 0 0 0 0 0 0 0 0 0 0 0 0 0 0 0 0 0 0 0 0 0 0 0 0 0 0 0 0 0 0 0 0 0 0 0 0 0 0 0 0 0 0 0 0 0 0 0 0 0 0 0 0 0 0 0 0 0 0 0 0 0 0 0 0 0 0 94 94 92 95 93 93 95 95 96 96 96 96 97 95 94 98 96 94 95 93 94 94 94 95 92 92 94 92 94 96 93 94 93 96 94 95 95 96 92 99 94 94 94 94 94 94 94 95 91 93 95 93 93 92 92 91 91 91 91 91 91 93 92 94 97 93 93 93 93 93 92 93 92 90 92 90 91 91 91 90 90 90 90 90 92 89 94 92 91 92 91 90 90 90 90 88 89 90 88 88 89 89 90 91 90 90 89 90 90 90 90 90 90 90 90 92 91 92 92 91 89 89 90 89 89 89 89 89 90 90 90 90 91 92 94 96 95 97 93 94 92 91 92 91 90 -193 -193 91 90 92 93 93 91 92 91 92 -193 92 92 93 94 93 93 94 91 90 89 87 86 83 -193 -193 -193 -209 -209 -209 -209 -209 -209 -209 -209 -209 -209 -209 -209 -209 -209 -193 -193 92 92 96 96 102 102 101 100 101 100 98 86 87 85 87 -209 -209 -193 31 29 29 28 27 27 -193 -193 -193 27 26 28 30 35 37 37 36 36 37 37 37 39 -193 -193 -209 -209 -209 -209 -209 -193 131 135 131 131 131 131 131 131 134 0 0 0 0 0
    0 0 0 0 0 0 0 0 0 0 0 0 0 0 0 0 0 0 0 0 0 0 0 0 0 0 0 0 0 0 0 0 0 0 0 0 0 0 0 0 0 0 0 0 0 0 0 0 0 0 0 0 0 0 0 0 0 0 0 0 0 0 0 0 0 0 0 0 0 94 94 92 96 94 93 96 96 96 96 97 97 98 96 95 99 96 94 95 94 94 94 94 96 92 93 96 93 95 96 93 94 93 95 94 94 96 97 92 100 95 94 95 95 95 94 94 95 91 94 96 93 93 92 93 92 92 91 92 91 92 94 93 95 97 94 93 93 93 93 92 93 92 90 92 91 92 91 91 91 91 90 90 90 92 89 96 93 91 93 92 91 91 91 91 89 90 91 88 89 89 89 91 92 90 90 89 90 90 91 91 91 91 91 92 93 92 93 93 92 90 90 91 90 90 90 90 90 91 91 92 91 92 93 96 98 97 98 95 95 94 93 93 92 91 91 90 91 90 92 92 92 91 91 90 91 91 92 92 93 94 93 92 92 90 90 89 88 86 84 86 85 86 -193 91 93 -193 95 98 94 94 -193 -193 -209 -209 91 -193 -193 92 92 92 95 94 100 100 99 97 98 98 96 88 88 86 87 87 -209 -209 -209 -193 -193 -193 -193 -193 -193 -209 -209 -209 -209 -209 28 39 46 39 38 38 39 38 38 -209 -209 -209 -177 -209 -209 -209 -209 122 130 133 130 131 131 131 130 131 135 0 0 0 0 0
    0 0 0 0 0 0 0 0 0 0 0 0 0 0 0 0 0 0 0 0 0 0 0 0 0 0 0 0 0 0 0 0 0 0 0 0 0 0 0 0 0 0 0 0 0 0 0 0 0 0 0 0 0 0 0 0 0 0 0 0 0 0 0 0 0 0 0 0 0 95 95 92 96 94 94 97 97 97 98 98 99 99 97 96 100 96 94 95 94 94 94 95 96 92 93 97 93 94 96 93 94 93 94 94 94 98 98 93 100 95 95 95 95 95 94 94 95 91 93 96 93 93 92 93 92 93 92 93 91 92 94 93 95 97 94 93 93 94 93 92 93 92 89 92 91 92 91 91 91 92 91 91 90 93 91 99 94 93 94 93 93 93 93 93 90 91 92 89 89 89 90 91 91 90 90 89 90 90 92 92 93 92 92 93 94 93 93 93 92 90 91 92 91 91 92 91 91 92 93 93 93 93 95 98 99 98 99 96 97 95 94 94 92 92 92 90 91 91 93 93 92 91 93 91 93 92 93 93 94 94 92 92 92 90 90 89 89 87 86 88 87 88 91 92 93 93 93 97 95 94 94 92 93 91 91 91 91 92 92 92 95 94 99 99 99 97 97 97 96 89 89 86 87 86 86 88 -193 -209 -209 -209 -209 -193 831 -209 -209 -209 -209 -209 -209 -193 -209 -193 39 38 40 38 40 -193 -209 -209 103 -209 169 -209 -209 123 129 131 129 130 130 130 130 132 136 0 0 0 0 0
    0 0 0 0 0 0 0 0 0 0 0 0 0 0 0 0 0 0 0 0 0 0 0 0 0 0 0 0 0 0 0 0 0 0 0 0 0 0 0 0 0 0 0 0 0 0 0 0 0 0 0 0 0 0 0 0 0 0 0 0 0 0 0 0 0 0 0 0 0 95 95 92 97 96 96 99 99 100 100 101 102 102 99 98 101 96 94 95 94 94 94 95 96 91 93 96 92 92 94 92 92 92 94 94 95 99 100 95 101 96 95 96 96 95 94 94 95 91 94 95 93 92 92 94 92 93 93 93 92 93 96 94 95 98 94 94 94 94 93 92 92 92 89 92 91 93 92 93 93 95 95 94 92 96 93 100 96 95 96 95 95 95 94 95 91 93 94 91 91 91 91 92 92 91 91 90 91 92 93 93 95 93 93 94 95 94 94 94 93 90 92 93 92 92 93 93 92 93 95 94 94 94 95 99 98 99 99 97 97 95 95 95 93 93 93 91 92 92 93 93 93 92 93 92 93 94 94 95 95 95 93 92 92 91 91 90 89 88 86 88 89 89 92 94 93 92 94 97 95 95 95 93 94 92 93 92 92 93 93 93 96 94 98 98 99 97 97 98 98 92 92 90 90 88 88 90 91 92 94 96 99 99 100 101 100 101 103 -193 -209 97 -193 -209 -209 -193 39 37 40 -193 101 98 103 -193 -209 -209 -209 123 129 130 129 130 130 130 130 132 136 0 0 0 0 0
    0 0 0 0 0 0 0 0 0 0 0 0 0 0 0 0 0 0 0 0 0 0 0 0 0 0 0 0 0 0 0 0 0 0 0 0 0 0 0 0 0 0 0 0 0 0 0 0 0 0 0 0 0 0 0 0 0 0 0 0 0 0 0 0 0 0 0 0 0 96 95 93 100 99 100 102 103 104 103 105 104 104 101 101 102 97 95 96 95 95 94 95 96 91 93 96 92 92 93 91 92 92 94 94 95 100 100 96 101 96 95 95 95 95 94 94 95 91 94 96 93 93 92 94 92 94 93 94 93 94 97 94 96 98 95 95 94 94 94 92 93 92 89 93 92 94 94 94 95 99 99 97 94 98 95 101 97 96 97 96 96 97 96 97 92 96 97 93 93 94 94 93 93 93 91 91 91 92 94 94 97 94 94 96 96 95 94 94 93 91 93 94 93 92 95 94 93 94 95 94 94 94 96 99 98 99 99 97 98 96 97 96 93 94 94 92 93 92 93 93 93 93 94 93 94 95 95 97 97 96 95 93 93 92 91 91 90 88 86 89 89 91 94 96 96 93 97 97 96 95 96 94 96 93 94 93 93 95 95 94 97 94 98 99 99 98 98 99 100 96 97 96 96 92 92 94 94 93 95 97 99 99 99 100 99 100 102 102 101 99 98 96 98 99 95 94 94 93 95 94 102 112 -209 125 127 124 130 130 129 130 130 130 130 132 -193 0 0 0 0 0
    0 0 0 0 0 0 0 0 0 0 0 0 0 0 0 0 0 0 0 0 0 0 0 0 0 0 0 0 0 0 0 0 0 0 0 0 0 0 0 0 0 0 0 0 0 0 0 0 0 0 0 0 0 0 0 0 0 0 0 0 0 0 0 0 0 0 0 0 0 97 96 94 102 102 103 105 106 106 105 106 106 105 103 103 103 97 96 97 95 95 95 96 97 91 95 97 93 94 96 91 92 92 96 96 98 102 101 97 101 96 96 95 96 96 94 94 95 91 96 98 96 95 94 96 94 95 94 96 95 96 98 95 97 99 95 95 95 94 94 93 93 92 89 93 93 94 94 95 98 102 102 99 96 99 97 102 98 97 98 97 98 98 97 98 93 98 99 95 95 95 94 94 93 93 91 91 92 93 95 96 98 95 95 97 97 95 95 95 94 92 94 96 94 93 96 95 94 95 96 95 96 94 97 100 98 99 98 97 98 97 97 97 93 95 94 93 93 93 94 94 94 94 95 94 96 97 97 99 99 98 96 95 94 93 93 92 91 89 88 90 91 93 96 98 98 95 99 97 96 96 96 95 98 95 96 95 96 98 97 96 98 95 99 99 99 98 98 100 100 97 99 99 99 95 97 98 97 96 98 99 100 100 100 99 99 100 102 102 101 100 100 100 101 101 99 97 97 95 96 96 102 110 117 125 126 124 130 129 129 129 130 129 129 132 -193 0 0 0 0 0
    0 0 0 0 0 0 0 0 0 0 0 0 0 0 0 0 0 0 0 0 0 0 0 0 0 0 0 0 0 0 0 0 0 0 0 0 0 0 0 0 0 0 0 0 0 0 0 0 0 0 0 0 0 0 0 0 0 0 0 0 0 0 0 0 0 0 0 0 0 97 97 95 103 103 104 105 107 106 105 106 105 104 103 103 103 98 97 98 96 96 96 97 98 92 97 99 95 99 101 93 93 94 99 99 101 103 101 98 102 98 97 96 96 96 94 95 96 92 98 99 98 97 96 99 96 97 96 97 97 99 99 96 98 99 96 96 96 95 95 94 94 93 89 97 97 98 97 97 100 103 103 100 97 99 97 102 98 98 98 98 98 98 98 99 93 100 100 98 96 96 95 95 94 94 91 91 92 94 96 96 99 96 95 97 97 96 95 95 95 92 96 98 96 96 98 98 97 98 98 97 98 97 99 101 99 99 99 98 98 97 98 97 94 97 95 94 94 95 95 95 95 95 96 95 97 98 98 100 100 99 98 97 96 95 94 94 92 91 90 92 92 95 98 99 99 97 100 98 97 97 97 98 99 97 98 96 100 100 99 98 99 97 100 100 100 99 99 101 101 98 100 100 100 98 100 99 99 99 100 101 102 101 101 100 101 101 103 102 102 102 102 103 104 104 103 101 101 99 99 99 103 108 115 124 125 123 130 128 128 128 129 128 128 131 135 0 0 0 0 0
    0 0 0 0 0 0 0 0 0 0 0 0 0 0 0 0 0 0 0 0 0 0 0 0 0 0 0 0 0 0 0 0 0 0 0 0 0 0 0 0 0 0 0 0 0 0 0 0 0 0 0 0 0 0 0 0 0 0 0 0 0 0 0 0 0 0 0 0 0 98 97 97 104 104 104 106 107 105 105 105 105 104 103 104 103 99 99 99 97 97 98 99 99 94 100 100 98 102 102 94 94 95 100 101 102 103 102 100 102 99 98 97 97 97 96 96 98 94 100 101 100 99 99 101 99 99 98 99 99 101 101 99 100 100 98 98 98 97 96 95 96 94 90 103 103 102 101 102 104 105 105 102 100 100 99 103 99 98 99 99 99 99 99 100 93 102 102 101 100 101 100 98 96 96 92 93 93 96 96 97 99 96 95 97 97 96 95 96 95 93 98 99 97 97 99 99 98 98 98 98 98 97 99 101 98 99 99 98 98 98 99 98 93 98 96 95 95 97 96 96 97 97 97 97 98 99 99 101 101 100 99 99 98 97 96 96 94 92 93 94 92 97 99 101 100 99 101 98 98 98 98 99 100 98 99 98 102 102 101 101 101 100 102 102 101 100 102 103 102 100 101 101 102 100 102 101 101 102 102 103 103 103 102 101 102 102 104 103 103 103 104 105 105 105 105 103 103 103 102 102 104 108 114 123 123 123 129 127 127 128 129 128 127 131 134 0 0 0 0 0
    0 0 0 0 0 0 0 0 0 0 0 0 0 0 0 0 0 0 0 0 0 0 0 0 0 0 0 0 0 0 0 0 0 0 0 0 0 0 0 0 0 0 0 0 0 0 0 0 0 0 0 0 0 0 0 0 0 0 0 0 0 0 0 0 0 0 0 0 0 100 100 101 107 106 105 107 108 105 105 105 105 104 104 104 104 100 100 100 98 98 99 100 101 98 102 102 100 103 103 98 97 99 101 102 103 104 102 101 103 100 99 98 98 98 97 98 99 96 101 102 102 101 101 102 101 100 100 101 101 103 103 101 101 101 100 100 100 100 98 97 99 98 94 106 106 106 106 106 107 107 107 105 104 104 103 105 100 100 100 100 100 100 100 101 95 104 105 104 103 104 104 101 99 99 94 96 97 99 99 99 101 96 96 98 98 97 96 96 96 93 99 99 98 98 100 99 98 98 98 97 98 96 98 100 97 98 98 98 98 97 98 97 93 99 97 97 95 98 97 96 97 99 98 99 100 101 100 102 102 101 100 100 99 98 98 98 96 94 96 97 94 100 101 101 101 100 102 99 98 99 99 100 101 100 101 100 104 103 103 103 103 102 104 103 103 103 104 104 103 102 103 103 103 103 104 104 104 -193 105 104 104 104 102 101 103 102 104 103 104 104 104 105 106 106 106 104 105 105 104 104 105 108 113 -193 122 123 129 127 127 127 129 128 126 131 133 0 0 0 0 0
    0 0 0 0 0 0 0 0 0 0 0 0 0 0 0 0 0 0 0 0 0 0 0 0 0 0 0 0 0 0 0 0 0 0 0 0 0 0 0 0 0 0 0 0 0 0 0 0 0 0 0 0 0 0 0 0 0 0 0 0 0 0 0 0 0 0 0 0 0 105 103 104 108 107 106 108 109 106 105 106 106 105 105 105 104 101 102 102 100 99 101 102 102 101 103 103 102 104 104 101 101 101 103 103 104 104 103 102 103 101 100 98 99 99 98 99 101 98 102 103 103 103 102 103 103 101 102 102 102 104 104 103 103 102 102 102 102 102 100 100 102 101 103 107 108 108 108 108 108 108 109 106 106 106 105 106 102 102 102 102 102 102 102 102 97 105 106 105 104 104 105 103 102 102 99 101 101 102 102 102 102 98 98 99 99 98 97 98 97 95 100 100 99 99 100 100 98 98 97 97 98 96 98 100 97 98 98 98 98 97 99 98 94 100 99 99 98 98 98 96 97 99 98 99 100 101 100 102 102 100 100 101 99 99 98 99 97 96 99 99 97 101 101 101 101 100 102 99 98 98 99 100 101 101 102 101 104 105 105 105 105 105 106 106 105 106 106 105 105 104 104 104 104 104 105 105 104 105 105 104 103 104 102 102 103 102 104 103 104 104 105 105 106 106 106 105 106 106 106 105 106 109 113 -193 122 122 129 126 126 127 128 127 126 130 132 0 0 0 0 0
    0 0 0 0 0 0 0 0 0 0 0 0 0 0 0 0 0 0 0 0 0 0 0 0 0 0 0 0 0 0 0 0 0 0 0 0 0 0 0 0 0 0 0 0 0 0 0 0 0 0 0 0 0 0 0 0 0 0 0 0 0 0 0 0 0 0 0 0 0 105 104 105 108 107 107 109 109 106 106 106 106 105 105 106 105 103 105 104 102 102 104 105 -193 -193 105 105 105 105 105 104 103 104 104 104 105 105 104 104 104 103 101 100 100 100 100 101 102 101 103 103 104 104 103 104 104 103 103 104 104 107 106 105 105 104 103 104 104 104 102 102 104 104 105 108 108 108 109 109 109 109 109 107 107 107 106 107 103 103 103 103 104 103 103 104 100 106 107 106 104 105 105 105 104 105 103 104 105 105 104 104 103 99 100 100 100 99 99 99 99 97 102 101 101 100 101 101 100 100 99 99 100 98 99 100 97 98 98 98 98 98 99 99 95 102 101 101 101 100 100 98 98 99 98 99 100 101 100 102 102 101 100 101 100 99 99 100 98 98 100 100 98 102 102 101 101 100 102 98 98 98 100 100 101 101 102 101 105 105 106 106 106 108 108 108 108 108 107 107 106 106 105 105 105 105 105 105 105 106 106 105 105 106 105 105 106 103 106 104 105 105 105 106 106 108 108 107 108 107 107 107 108 110 115 -209 122 123 129 126 126 127 128 127 125 130 130 0 0 0 0 0
    0 0 0 0 0 0 0 0 0 0 0 0 0 0 0 0 0 0 0 0 0 0 0 0 0 0 0 0 0 0 0 0 0 0 0 0 0 0 0 0 0 0 0 0 0 0 0 0 0 0 0 0 0 0 0 0 0 0 0 0 0 0 0 0 0 0 0 0 0 104 103 105 108 107 107 108 109 106 106 106 106 105 106 106 106 105 107 107 107 106 112 110 110 109 107 106 106 106 106 105 105 105 106 106 105 105 105 105 105 104 103 102 102 102 102 103 103 103 103 104 104 104 104 104 104 104 104 105 105 109 107 106 106 105 105 106 105 105 104 104 106 106 106 108 107 108 109 109 108 109 109 107 107 107 106 107 104 104 104 104 105 105 104 105 102 106 108 106 105 106 106 107 105 106 106 106 107 107 105 106 104 101 101 102 101 101 100 100 100 100 103 103 102 102 103 102 102 102 101 102 102 100 100 100 97 98 98 98 98 98 99 100 98 104 103 104 104 104 103 102 100 101 99 100 101 101 100 102 103 101 101 102 100 100 99 101 100 100 102 102 101 103 103 102 102 101 102 99 99 99 100 101 101 102 102 102 105 106 106 106 107 108 109 108 108 109 109 108 108 108 107 106 106 105 106 106 106 108 107 107 107 108 109 109 109 108 109 106 107 106 107 107 108 109 109 108 109 109 109 108 110 112 116 -193 122 123 129 126 126 127 128 127 125 129 129 0 0 0 0 0
    0 0 0 0 0 0 0 0 0 0 0 0 0 0 0 0 0 0 0 0 0 0 0 0 0 0 0 0 0 0 0 0 0 0 0 0 0 0 0 0 0 0 0 0 0 0 0 0 0 0 0 0 0 0 0 0 0 0 0 0 0 0 0 0 0 0 0 0 0 104 103 105 108 107 107 108 109 106 106 106 106 105 105 106 105 105 108 108 107 107 114 113 113 111 110 108 108 108 107 105 106 106 107 106 106 105 105 105 105 105 -193 -209 -193 -209 104 -193 -193 -193 104 104 104 104 104 104 105 105 105 106 106 110 107 107 107 106 106 107 107 107 105 106 107 107 107 108 107 108 109 109 108 109 108 107 107 107 107 107 105 104 105 105 106 105 105 106 104 107 108 107 105 107 106 108 107 107 107 107 108 108 107 107 105 103 103 103 102 102 102 102 101 101 104 104 103 103 103 103 103 103 102 104 104 101 101 101 97 98 98 98 99 99 100 101 101 105 105 106 106 106 105 106 105 104 101 102 102 102 101 103 103 102 102 103 101 101 101 102 102 102 103 103 102 104 103 103 102 101 102 100 99 100 101 101 102 102 103 103 105 107 107 107 108 109 110 110 109 111 109 108 109 109 108 108 107 106 107 108 108 110 108 107 108 109 110 110 111 110 109 107 108 107 107 107 108 109 109 109 110 109 110 110 111 112 116 -209 121 122 129 126 126 127 128 127 125 129 129 0 0 0 0 0
    0 0 0 0 0 0 0 0 0 0 0 0 0 0 0 0 0 0 0 0 0 0 0 0 0 0 0 0 0 0 0 0 0 0 0 0 0 0 0 0 0 0 0 0 0 0 0 0 0 0 0 0 0 0 0 0 0 0 0 0 0 0 0 0 0 0 0 0 0 106 104 107 108 107 106 108 108 105 105 106 106 104 105 105 105 105 108 108 107 106 115 114 115 114 113 111 110 110 109 107 108 108 108 105 105 105 105 106 106 106 -193 -209 -193 -209 -193 -193 -193 -193 104 104 105 104 104 104 105 106 105 106 106 112 108 107 108 107 107 108 108 108 105 107 108 107 107 108 108 108 109 109 108 109 108 107 107 107 107 108 105 105 106 106 107 107 106 106 105 108 109 107 106 108 107 111 109 109 110 109 110 110 108 108 106 105 104 104 103 103 103 103 103 103 105 105 105 105 104 103 104 104 102 105 105 103 102 102 98 99 99 99 100 101 102 103 103 106 106 107 108 108 107 109 108 108 106 106 104 103 102 104 104 102 103 104 102 102 102 102 104 103 104 104 103 105 104 104 103 102 102 100 100 101 102 102 102 102 103 103 106 107 107 107 108 111 111 110 110 112 110 110 110 112 111 111 110 108 107 109 109 110 108 107 108 108 109 110 110 109 109 108 110 109 109 108 109 112 111 111 111 110 110 110 111 113 116 -209 121 122 129 126 126 127 128 127 125 130 129 0 0 0 0 0
    0 0 0 0 0 0 0 0 0 0 0 0 0 0 0 0 0 0 0 0 0 0 0 0 0 0 0 0 0 0 0 0 0 0 0 0 0 0 0 0 0 0 0 0 0 0 0 0 0 0 0 0 0 0 0 0 0 0 0 0 0 0 0 0 0 0 0 0 0 111 107 113 109 108 107 108 108 106 105 106 106 104 105 105 105 105 108 108 107 106 116 115 116 116 116 115 115 114 113 109 111 110 110 106 106 105 105 106 106 106 106 -209 108 -193 -193 -193 -193 -193 -193 105 105 105 105 105 106 106 105 106 105 111 108 107 107 107 107 109 108 108 106 107 107 107 107 107 107 107 109 109 108 109 108 107 108 107 107 108 106 106 107 107 107 107 107 107 105 108 109 107 106 109 109 113 110 111 111 110 111 111 110 109 107 107 106 105 105 105 105 105 105 105 106 106 106 106 106 104 105 105 104 105 105 104 102 102 100 100 100 100 101 103 103 104 105 106 107 108 109 109 107 110 109 110 110 109 107 105 104 105 105 103 103 104 103 103 103 103 106 105 106 106 105 107 107 106 106 103 103 102 102 102 103 102 102 103 103 104 106 108 108 108 109 111 111 111 111 112 110 112 112 114 114 115 115 110 109 110 109 111 108 108 108 109 111 111 111 110 109 109 111 110 109 109 109 113 111 112 112 110 110 110 111 113 116 -209 121 122 130 126 127 127 128 127 126 130 129 0 0 0 0 0
    0 0 0 0 0 0 0 0 0 0 0 0 0 0 0 0 0 0 0 0 0 0 0 0 0 0 0 0 0 0 0 0 0 0 0 0 0 0 0 0 0 0 0 0 0 0 0 0 0 0 0 0 0 0 0 0 0 0 0 0 0 0 0 0 0 0 0 0 0 116 112 117 110 111 109 111 110 107 106 106 107 105 105 106 105 105 109 110 109 108 118 117 118 117 119 118 118 117 116 113 116 114 115 107 107 106 106 107 107 107 107 -209 109 110 109 -193 -209 -193 -209 107 106 105 106 106 107 108 106 107 106 113 109 108 108 108 108 109 109 108 106 107 107 107 106 107 107 107 109 109 108 109 109 108 108 108 108 109 107 107 107 108 108 108 108 107 105 108 108 106 106 109 109 113 111 111 112 110 111 111 111 110 108 108 108 107 106 107 107 106 106 107 107 106 107 107 107 105 106 106 105 106 106 104 103 102 100 101 101 101 102 104 104 105 106 107 107 108 109 109 108 111 110 111 112 112 109 108 106 106 107 105 105 106 106 105 105 106 110 107 109 108 108 109 109 108 107 104 104 103 103 103 104 103 103 104 104 104 106 109 108 108 110 112 111 112 112 113 111 114 113 116 116 117 116 114 113 114 111 113 110 109 109 110 112 112 111 111 109 112 109 111 109 109 108 115 112 114 112 111 111 111 111 113 116 -209 121 123 130 127 127 127 128 128 126 131 129 0 0 0 0 0
    0 0 0 0 0 0 0 0 0 0 0 0 0 0 0 0 0 0 0 0 0 0 0 0 0 0 0 0 0 0 0 0 0 0 0 0 0 0 0 0 0 0 0 0 0 0 0 0 0 0 0 0 0 0 0 0 0 0 0 0 0 0 0 0 0 0 0 0 0 118 116 119 112 114 112 113 112 108 108 108 108 107 106 107 105 106 111 112 112 110 120 119 119 118 120 120 119 118 118 116 118 117 117 108 108 107 108 108 108 107 107 106 109 112 111 111 -209 -193 -193 108 108 106 107 108 109 111 108 110 109 116 111 109 109 109 109 110 110 108 106 107 107 107 106 106 106 107 109 109 108 110 109 108 108 108 108 109 107 108 108 108 109 108 108 107 105 108 107 104 104 108 110 113 111 111 112 110 111 111 111 110 108 109 109 108 108 108 108 107 107 108 108 106 107 107 107 106 107 106 106 107 109 107 106 -193 -209 102 -193 103 103 106 105 106 107 107 108 108 109 110 108 111 110 111 113 113 110 109 107 107 108 107 107 109 108 108 109 109 113 109 110 110 109 110 110 108 108 105 105 104 104 104 105 103 104 104 105 105 106 110 109 109 110 113 112 113 113 114 111 116 115 117 117 117 117 117 116 115 111 114 110 110 110 110 112 112 112 115 113 122 -193 121 -209 -209 -209 -193 113 115 113 111 111 111 112 114 117 122 121 124 130 127 127 128 129 128 127 131 129 0 0 0 0 0
    0 0 0 0 0 0 0 0 0 0 0 0 0 0 0 0 0 0 0 0 0 0 0 0 0 0 0 0 0 0 0 0 0 0 0 0 0 0 0 0 0 0 0 0 0 0 0 0 0 0 0 0 0 0 0 0 0 0 0 0 0 0 0 0 0 0 0 0 0 119 117 119 113 116 115 114 114 110 111 111 110 108 108 108 107 108 113 114 115 113 120 119 119 119 123 121 121 120 120 119 120 119 119 109 109 108 108 108 109 108 107 107 110 112 111 -193 -193 -193 -193 109 108 106 108 109 111 114 110 114 113 118 113 110 111 110 109 111 111 108 106 107 107 106 105 105 106 106 108 109 108 110 109 108 108 108 109 110 108 109 108 109 110 109 109 108 105 108 106 103 103 108 111 114 112 112 112 111 111 112 111 110 108 109 110 108 108 108 108 107 107 108 108 106 107 107 106 105 106 106 107 108 109 108 109 109 -193 -209 -193 107 106 110 107 108 108 108 108 109 109 110 108 111 110 111 112 112 109 108 107 107 108 109 109 111 110 110 112 112 115 111 111 111 110 110 111 109 109 106 106 105 105 105 105 104 104 105 106 106 107 112 109 109 110 112 112 113 114 114 111 117 116 118 118 118 118 119 119 118 114 117 114 114 113 113 114 114 115 119 118 122 122 123 124 127 123 123 114 116 113 112 111 111 112 115 118 122 122 125 130 127 128 128 129 128 127 131 129 0 0 0 0 0
    0 0 0 0 0 0 0 0 0 0 0 0 0 0 0 0 0 0 0 0 0 0 0 0 0 0 0 0 0 0 0 0 0 0 0 0 0 0 0 0 0 0 0 0 0 0 0 0 0 0 0 0 0 0 0 0 0 0 0 0 0 0 0 0 0 0 0 0 0 120 118 120 115 119 118 116 116 112 113 113 113 110 110 110 110 110 115 116 117 116 120 120 120 120 125 122 121 121 121 120 121 120 120 112 113 111 112 111 112 111 111 111 114 116 116 -193 -193 -193 -193 113 109 107 110 111 113 116 114 117 117 119 116 113 113 112 111 112 112 109 107 107 106 106 104 104 105 105 108 109 108 110 109 108 109 108 111 111 109 111 110 111 112 111 111 108 106 109 107 104 106 110 113 114 113 112 113 112 112 113 112 111 109 109 111 109 109 109 109 108 108 109 110 107 109 109 108 106 108 107 108 108 109 108 111 111 115 113 -193 109 109 113 108 109 108 108 108 109 109 110 108 111 110 111 112 112 108 107 107 107 108 111 110 113 111 112 114 113 116 111 112 112 111 111 111 110 110 107 107 106 106 106 106 105 105 106 106 107 108 113 109 110 111 112 112 114 114 113 112 118 117 118 118 119 119 120 120 120 117 120 117 117 116 116 117 116 117 120 120 122 122 123 124 125 123 123 115 116 114 112 111 112 113 116 119 123 122 126 130 128 128 129 129 128 128 132 130 0 0 0 0 0
    0 0 0 0 0 0 0 0 0 0 0 0 0 0 0 0 0 0 0 0 0 0 0 0 0 0 0 0 0 0 0 0 0 0 0 0 0 0 0 0 0 0 0 0 0 0 0 0 0 0 0 0 0 0 0 0 0 0 0 0 0 0 0 0 0 0 0 0 0 121 120 121 118 121 122 118 118 116 116 117 116 115 113 114 114 113 117 117 119 117 120 120 121 120 126 122 122 121 121 121 121 121 121 113 117 115 116 115 116 116 115 116 117 117 118 -193 -193 -193 -193 117 113 111 114 114 116 118 117 119 119 120 117 115 115 114 112 113 112 109 108 106 105 104 102 103 104 105 108 108 108 110 109 109 109 109 112 114 111 113 112 113 114 113 113 109 107 111 108 105 110 114 117 117 116 114 115 114 114 115 114 112 110 111 113 110 110 110 110 110 111 112 112 109 112 112 111 108 109 108 109 108 110 108 -193 115 118 118 119 112 111 115 109 109 109 108 108 109 109 110 108 111 110 111 111 112 108 107 107 107 108 110 110 112 111 112 115 113 115 111 111 112 111 111 111 110 110 108 110 108 107 108 107 107 108 108 108 109 111 115 111 111 112 112 113 114 114 114 113 118 118 119 119 120 120 121 122 121 120 123 120 120 118 118 118 117 118 121 120 122 122 123 124 124 123 123 115 116 114 113 111 111 113 117 120 123 123 127 130 128 128 129 130 128 130 132 130 0 0 0 0 0
    0 0 0 0 0 0 0 0 0 0 0 0 0 0 0 0 0 0 0 0 0 0 0 0 0 0 0 0 0 0 0 0 0 0 0 0 0 0 0 0 0 0 0 0 0 0 0 0 0 0 0 0 0 0 0 0 0 0 0 0 0 0 0 0 0 0 0 0 0 121 120 121 -193 121 123 120 119 118 119 119 120 120 118 118 119 116 118 119 121 119 121 120 123 121 128 123 122 122 122 121 121 121 121 114 118 116 117 117 117 117 116 116 117 117 118 -193 -193 -193 -193 117 114 -193 116 116 118 120 119 121 121 122 120 118 118 117 115 115 114 110 108 106 104 102 101 102 105 105 109 109 109 112 110 110 110 109 114 116 114 116 115 116 116 116 116 113 111 117 118 120 121 121 121 120 119 117 117 115 116 117 116 113 111 112 114 111 111 112 111 111 113 114 115 111 115 115 114 109 110 110 110 107 -193 -209 -193 121 121 121 121 116 114 117 110 110 109 109 109 110 110 111 109 113 112 113 114 115 109 107 107 107 108 109 109 111 110 112 114 112 115 110 111 111 110 111 111 110 110 108 110 109 109 109 108 108 109 110 110 110 113 115 111 112 112 112 113 115 115 114 114 119 118 119 120 121 121 123 124 124 122 128 125 125 122 121 120 120 120 123 121 121 122 123 124 124 123 123 116 118 115 112 109 110 114 118 122 123 123 129 130 128 128 129 130 129 130 132 130 0 0 0 0 0
    0 0 0 0 0 0 0 0 0 0 0 0 0 0 0 0 0 0 0 0 0 0 0 0 0 0 0 0 0 0 0 0 0 0 0 0 0 0 0 0 0 0 0 0 0 0 0 0 0 0 0 0 0 0 0 0 0 0 0 0 0 0 0 0 0 0 0 0 0 121 119 120 -193 121 124 121 120 120 122 123 124 124 123 122 122 120 120 119 120 120 121 120 122 121 128 123 122 122 122 122 122 121 -193 114 118 116 117 117 116 116 116 116 116 116 117 -209 -193 -209 -193 118 -193 -193 117 118 119 121 121 122 123 123 122 121 121 119 117 117 116 113 113 -193 -193 -193 -193 102 108 108 112 111 110 114 112 112 111 110 116 118 116 118 118 118 119 119 119 118 118 122 123 123 124 124 124 124 121 119 118 117 117 118 117 114 113 114 115 112 112 113 113 114 116 116 116 114 117 117 117 112 112 112 112 109 114 118 120 122 122 122 122 118 117 118 111 111 110 110 109 111 112 113 111 115 115 116 116 117 111 108 107 107 108 110 109 111 110 112 114 112 115 110 111 111 110 110 110 110 111 108 111 111 109 110 109 109 110 111 110 110 113 115 111 112 112 112 113 115 115 114 115 120 119 120 121 121 122 124 125 124 124 129 128 128 126 124 123 121 121 123 121 121 121 123 123 124 124 123 120 124 123 117 111 115 118 120 124 124 124 129 129 128 128 129 130 129 130 132 130 0 0 0 0 0
    0 0 0 0 0 0 0 0 0 0 0 0 0 0 0 0 0 0 0 0 0 0 0 0 0 0 0 0 0 0 0 0 0 0 0 0 0 0 0 0 0 0 0 0 0 0 0 0 0 0 0 0 0 0 0 0 0 0 0 0 0 0 0 0 0 0 0 0 0 121 119 120 -193 121 123 121 121 122 123 124 125 125 124 123 123 121 121 119 119 119 120 120 122 121 127 123 123 123 122 122 122 -193 -193 115 119 116 117 117 116 117 116 117 117 117 118 -193 118 -209 -193 -193 119 119 119 120 122 123 123 124 124 124 123 123 122 121 119 119 118 118 118 118 116 -209 -209 -209 -193 116 117 115 113 116 115 115 115 114 118 120 119 120 120 120 121 120 121 120 120 123 124 124 125 125 125 124 -193 -193 -193 118 118 119 117 115 114 116 117 114 114 115 115 117 118 119 118 117 119 119 119 116 116 116 115 113 118 121 121 122 122 122 122 119 118 119 113 112 112 111 110 111 114 115 113 117 117 118 119 119 116 108 108 107 109 112 110 112 111 113 115 113 115 112 111 111 111 111 111 110 112 109 113 114 111 113 111 112 112 112 111 111 114 116 112 112 112 113 114 116 115 115 116 120 120 120 120 122 122 124 125 125 125 129 128 128 127 126 124 122 121 124 121 120 121 123 123 123 123 123 121 126 125 122 118 119 122 123 126 125 126 129 129 128 128 129 130 129 131 132 131 0 0 0 0 0
    0 0 0 0 0 0 0 0 0 0 0 0 0 0 0 0 0 0 0 0 0 0 0 0 0 0 0 0 0 0 0 0 0 0 0 0 0 0 0 0 0 0 0 0 0 0 0 0 0 0 0 0 0 0 0 0 0 0 0 0 0 0 0 0 0 0 0 0 0 121 119 120 119 121 123 121 120 122 123 124 124 124 124 123 123 122 121 119 120 120 121 121 122 122 128 124 123 123 123 123 122 -193 -193 115 119 116 117 117 116 116 116 117 117 116 118 -193 118 122 122 123 123 123 123 124 125 125 125 125 125 125 125 124 123 122 120 120 120 120 120 121 121 -209 -209 -193 125 123 122 119 116 117 118 118 118 117 119 124 121 122 122 121 122 122 122 121 121 123 124 123 125 124 125 124 123 -193 -193 -209 120 121 119 116 117 118 118 116 115 117 117 119 120 120 120 119 121 121 121 119 118 119 118 118 121 122 123 123 123 122 122 120 119 119 115 114 113 112 111 113 117 117 116 119 119 121 121 121 119 108 109 108 111 116 113 114 112 115 116 114 116 113 112 112 111 111 110 110 113 110 115 117 115 117 115 115 115 115 114 112 114 116 112 112 113 113 115 116 116 115 116 120 120 120 121 122 122 125 126 127 127 129 128 128 126 125 124 123 122 124 122 121 122 123 124 124 124 123 123 128 127 125 123 122 125 124 126 125 127 129 128 128 128 129 129 129 131 132 131 0 0 0 0 0
    0 0 0 0 0 0 0 0 0 0 0 0 0 0 0 0 0 0 0 0 0 0 0 0 0 0 0 0 0 0 0 0 0 0 0 0 0 0 0 0 0 0 0 0 0 0 0 0 0 0 0 0 0 0 0 0 0 0 0 0 0 0 0 0 0 0 0 0 0 121 119 120 118 121 122 121 119 120 121 122 123 123 122 122 122 121 121 119 120 120 121 122 122 122 128 124 124 124 123 123 122 122 -193 114 118 116 116 117 116 117 117 117 118 117 119 -193 -193 122 123 123 124 125 125 125 127 127 126 126 125 125 125 124 123 121 120 120 119 119 120 120 121 -209 -209 -209 125 124 123 121 118 117 120 121 121 121 121 128 123 123 123 122 123 123 123 123 121 123 124 123 124 124 125 124 124 122 123 123 122 122 121 120 119 120 120 117 116 118 119 120 121 122 121 121 122 122 122 120 120 120 120 121 122 123 124 123 122 122 122 120 120 119 116 115 115 115 114 116 120 121 120 122 123 123 123 123 122 111 114 108 114 119 116 115 114 116 117 114 116 114 112 111 111 111 110 110 114 110 116 119 118 119 119 118 118 117 116 115 116 116 113 113 113 114 115 116 116 116 117 120 121 121 122 123 124 128 127 128 128 129 129 128 126 126 124 123 122 124 122 121 122 123 124 124 125 124 124 129 128 127 125 124 127 125 127 125 127 129 128 128 128 129 129 129 131 132 132 0 0 0 0 0
    0 0 0 0 0 0 0 0 0 0 0 0 0 0 0 0 0 0 0 0 0 0 0 0 0 0 0 0 0 0 0 0 0 0 0 0 0 0 0 0 0 0 0 0 0 0 0 0 0 0 0 0 0 0 0 0 0 0 0 0 0 0 0 0 0 0 0 0 0 120 119 120 118 121 123 121 119 120 120 122 123 123 122 122 121 121 121 120 120 120 121 123 123 123 129 124 124 124 124 123 122 122 122 114 119 116 117 118 117 118 118 118 118 117 119 -193 -209 122 123 123 124 125 125 125 127 126 125 125 125 125 124 123 122 120 119 118 117 118 119 119 -193 -209 964 -193 -193 125 124 123 120 119 122 124 123 122 122 130 124 124 124 123 123 123 123 123 121 123 124 123 124 124 124 125 124 123 124 123 124 124 123 122 121 121 121 119 118 120 120 121 121 122 122 122 122 122 122 121 121 121 121 122 123 123 124 122 122 122 122 121 120 120 118 117 118 119 117 119 123 123 123 124 125 124 124 124 123 120 121 -193 117 121 119 118 117 118 118 115 117 115 112 111 111 112 110 110 115 112 118 120 120 121 121 121 120 120 119 119 118 117 114 114 115 115 116 117 117 117 118 121 121 121 122 125 125 130 129 130 130 130 129 128 126 126 124 123 122 124 122 121 122 123 124 124 125 124 125 129 128 127 126 125 127 126 127 125 127 129 127 128 128 128 129 129 132 132 132 0 0 0 0 0
    0 0 0 0 0 0 0 0 0 0 0 0 0 0 0 0 0 0 0 0 0 0 0 0 0 0 0 0 0 0 0 0 0 0 0 0 0 0 0 0 0 0 0 0 0 0 0 0 0 0 0 0 0 0 0 0 0 0 0 0 0 0 0 0 0 0 0 0 0 121 119 120 118 121 122 122 119 121 121 123 123 124 124 124 124 123 123 121 121 121 122 124 124 123 129 124 125 124 124 123 122 122 122 115 119 116 118 119 117 118 118 119 119 118 120 -209 -209 123 124 124 124 124 124 125 127 125 125 125 124 124 124 123 122 120 119 118 117 118 119 119 -193 -193 959 -193 -193 127 125 124 121 120 122 123 122 122 122 129 123 124 124 123 124 124 123 123 122 124 125 123 124 124 124 125 125 123 124 124 125 125 124 123 122 122 122 121 120 122 122 122 122 123 123 123 123 123 122 121 121 121 121 122 123 123 124 122 122 123 123 122 121 121 120 119 120 122 121 121 127 125 126 126 126 125 125 125 124 121 123 122 121 122 122 121 121 121 121 118 119 118 115 113 113 114 114 113 118 -193 119 123 122 123 123 123 122 122 121 122 120 119 116 116 116 117 117 118 118 118 119 121 122 122 123 127 127 131 129 130 130 130 129 128 126 127 125 125 124 126 123 123 123 124 124 124 125 124 126 129 128 127 126 126 128 127 127 125 127 128 127 127 128 128 129 130 132 132 133 0 0 0 0 0
    0 0 0 0 0 0 0 0 0 0 0 0 0 0 0 0 0 0 0 0 0 0 0 0 0 0 0 0 0 0 0 0 0 0 0 0 0 0 0 0 0 0 0 0 0 0 0 0 0 0 0 0 0 0 0 0 0 0 0 0 0 0 0 0 0 0 0 0 0 121 120 121 119 122 123 123 122 124 123 126 125 127 128 128 127 126 126 124 123 123 -177 127 125 125 130 125 125 125 124 124 122 122 122 115 119 117 118 119 117 118 118 119 119 119 120 -209 -209 123 124 124 124 124 123 124 126 124 124 124 123 124 124 123 122 120 120 119 118 119 120 120 -209 -193 958 965 -193 127 125 124 122 121 122 123 122 122 122 127 123 123 124 123 124 124 123 123 122 124 125 123 125 124 125 125 125 123 124 123 125 124 124 123 123 123 122 122 121 123 123 123 123 123 124 123 123 122 122 121 121 122 122 122 123 123 125 123 122 123 123 122 122 121 121 120 121 123 122 124 130 126 127 127 126 126 125 125 124 122 124 123 122 124 124 124 124 124 124 -193 121 120 119 117 117 116 117 116 120 -209 121 124 123 123 124 124 123 123 123 123 121 120 118 117 118 118 118 119 119 119 120 122 123 122 124 129 128 131 130 130 130 129 129 128 125 128 125 127 127 131 128 128 128 127 126 126 125 125 128 129 128 128 127 126 128 127 126 124 126 127 126 127 127 127 130 131 133 132 134 0 0 0 0 0
    0 0 0 0 0 0 0 0 0 0 0 0 0 0 0 0 0 0 0 0 0 0 0 0 0 0 0 0 0 0 0 0 0 0 0 0 0 0 0 0 0 0 0 0 0 0 0 0 0 0 0 0 0 0 0 0 0 0 0 0 0 0 0 0 0 0 0 0 0 121 120 121 120 122 124 124 124 126 -193 -193 127 129 130 131 129 129 129 127 126 127 127 131 127 127 131 126 126 126 125 125 123 123 123 117 120 119 118 120 117 119 118 119 -193 -193 -193 -209 -193 -193 126 127 126 125 125 125 127 124 124 125 124 124 124 124 123 121 121 121 120 120 120 121 122 -193 -193 -193 129 127 126 125 123 122 123 123 122 123 123 127 123 124 124 123 124 124 123 123 122 124 125 123 125 124 124 125 124 123 124 123 124 124 124 122 122 122 122 121 121 123 123 122 123 123 123 123 123 122 121 120 120 120 121 120 121 122 124 122 122 123 122 122 122 121 121 121 122 124 123 126 130 126 128 127 126 126 125 125 125 122 125 123 124 125 126 126 127 127 126 124 122 124 122 122 121 120 119 119 123 123 123 126 124 124 125 125 124 124 124 124 122 122 120 119 119 119 119 120 119 119 120 122 123 123 125 130 128 131 129 130 129 128 128 128 125 129 126 130 132 135 135 135 135 131 129 129 127 126 130 130 128 128 127 127 129 128 127 125 128 127 126 127 127 128 131 131 133 133 136 0 0 0 0 0
    0 0 0 0 0 0 0 0 0 0 0 0 0 0 0 0 0 0 0 0 0 0 0 0 0 0 0 0 0 0 0 0 0 0 0 0 0 0 0 0 0 0 0 0 0 0 0 0 0 0 0 0 0 0 0 0 0 0 0 0 0 0 0 0 0 0 0 0 0 121 120 121 120 123 126 127 130 -193 -193 -193 132 133 133 134 134 133 133 132 131 132 132 134 129 129 133 127 127 127 126 125 123 124 124 119 122 121 119 122 -193 120 120 -193 -193 -209 -193 -209 -177 -193 131 133 132 132 130 130 130 126 126 126 124 125 125 125 123 122 122 121 121 120 120 121 122 -193 -193 -193 129 127 127 126 123 122 123 123 123 123 124 126 123 124 124 124 124 124 123 123 122 124 124 122 124 124 124 124 124 123 124 123 124 123 124 122 122 122 121 121 121 122 122 122 123 123 123 123 123 122 121 120 120 120 120 119 120 121 123 122 122 122 122 121 122 121 121 120 122 123 123 126 130 126 128 127 126 126 126 126 125 123 126 124 125 126 127 128 129 128 128 126 124 127 126 125 124 123 123 123 125 125 125 127 125 125 126 126 125 125 125 124 123 124 122 121 121 121 121 121 121 120 121 122 123 123 125 131 128 130 129 130 129 127 128 127 125 130 128 133 135 137 138 138 138 135 133 132 128 127 131 130 128 128 128 128 129 129 128 125 130 128 128 128 128 129 132 132 134 134 138 0 0 0 0 0
    0 0 0 0 0 0 0 0 0 0 0 0 0 0 0 0 0 0 0 0 0 0 0 0 0 0 0 0 0 0 0 0 0 0 0 0 0 0 0 0 0 0 0 0 0 0 0 0 0 0 0 0 0 0 0 0 0 0 0 0 0 0 0 0 0 0 0 0 0 121 120 122 120 124 130 130 136 136 -193 -193 136 137 136 137 137 135 135 134 134 134 135 136 133 132 134 129 130 128 127 126 124 125 125 120 125 124 122 126 124 125 124 125 128 -209 132 -177 765 771 135 -193 136 136 135 135 133 130 130 127 125 125 125 125 123 122 121 121 121 119 120 121 122 125 -193 128 130 127 128 128 124 123 124 124 123 124 126 126 123 125 125 124 124 124 124 122 122 124 122 120 123 122 124 124 124 124 124 124 125 124 124 123 122 122 122 121 121 122 122 122 123 123 124 124 124 123 122 122 122 121 121 120 121 -193 123 122 122 122 122 121 122 121 121 119 120 122 122 125 129 126 128 127 127 127 126 126 125 124 126 124 126 128 129 130 131 130 129 127 126 127 127 126 125 124 124 125 126 126 127 128 125 126 126 126 125 125 126 125 124 127 125 124 124 124 124 123 122 122 122 123 124 124 127 133 129 130 129 130 129 128 128 128 125 131 131 134 136 138 140 139 139 137 136 135 129 127 131 129 127 128 128 128 129 129 128 126 129 130 129 129 130 131 134 134 135 135 138 0 0 0 0 0</data></disparity>
</opencv_storage>
