<?xml version="1.0"?>
<opencv_storage>
<gps_time_stamp>23205</gps_time_stamp>
<gps_x>-3.6012899875640869e+000</gps_x>
<gps_y>3.2309505343437195e-001</gps_y>
<gps_z>-5.0401496887207031e-001</gps_z>
<image_time_stamp>11164</image_time_stamp>
<disparity type_id="opencv-matrix">
  <rows>89</rows>
  <cols>320</cols>
  <dt>s</dt>
  <data>
    0 0 0 0 0 0 0 0 0 0 0 0 0 0 0 0 0 0 0 0 0 0 0 0 0 0 0 0 0 0 0 0 0 0 0 0 0 0 0 0 0 0 0 0 0 0 0 0 0 0 0 0 0 0 0 0 0 0 0 0 0 0 0 0 0 0 0 0 0 0 0 0 0 0 0 0 0 0 0 0 0 0 0 0 0 0 0 0 0 0 0 0 0 0 0 0 0 0 0 0 0 0 0 0 0 0 0 0 0 0 0 0 0 0 0 0 0 0 0 0 0 0 0 0 0 0 0 0 0 0 0 0 0 0 0 0 0 0 0 0 0 0 0 0 0 0 0 0 0 0 0 0 0 0 0 0 0 0 0 0 0 0 0 0 0 0 0 0 0 0 0 0 0 0 0 0 0 0 0 0 0 0 0 0 0 0 0 0 0 0 0 0 0 0 0 0 0 0 0 0 0 0 0 0 0 0 0 0 0 0 0 0 0 0 0 0 0 0 0 0 0 0 0 0 0 0 0 0 0 0 0 0 0 0 0 0 0 0 0 0 0 0 0 0 0 0 0 0 0 0 0 0 0 0 0 0 0 0 0 0 0 0 0 0 0 0 0 0 0 0 0 0 0 0 0 0 0 0 0 0 0 0 0 0 0 0 0 0 0 0 0 0 0 0 0 0 0 0 0 0 0 0 0 0 0 0 0 0 0 0 0 0 0 0 0 0 0 0 0 0
    0 0 0 0 0 0 0 0 0 0 0 0 0 0 0 0 0 0 0 0 0 0 0 0 0 0 0 0 0 0 0 0 0 0 0 0 0 0 0 0 0 0 0 0 0 0 0 0 0 0 0 0 0 0 0 0 0 0 0 0 0 0 0 0 0 0 0 0 0 0 0 0 0 0 0 0 0 0 0 0 0 0 0 0 0 0 0 0 0 0 0 0 0 0 0 0 0 0 0 0 0 0 0 0 0 0 0 0 0 0 0 0 0 0 0 0 0 0 0 0 0 0 0 0 0 0 0 0 0 0 0 0 0 0 0 0 0 0 0 0 0 0 0 0 0 0 0 0 0 0 0 0 0 0 0 0 0 0 0 0 0 0 0 0 0 0 0 0 0 0 0 0 0 0 0 0 0 0 0 0 0 0 0 0 0 0 0 0 0 0 0 0 0 0 0 0 0 0 0 0 0 0 0 0 0 0 0 0 0 0 0 0 0 0 0 0 0 0 0 0 0 0 0 0 0 0 0 0 0 0 0 0 0 0 0 0 0 0 0 0 0 0 0 0 0 0 0 0 0 0 0 0 0 0 0 0 0 0 0 0 0 0 0 0 0 0 0 0 0 0 0 0 0 0 0 0 0 0 0 0 0 0 0 0 0 0 0 0 0 0 0 0 0 0 0 0 0 0 0 0 0 0 0 0 0 0 0 0 0 0 0 0 0 0 0 0 0 0 0 0
    0 0 0 0 0 0 0 0 0 0 0 0 0 0 0 0 0 0 0 0 0 0 0 0 0 0 0 0 0 0 0 0 0 0 0 0 0 0 0 0 0 0 0 0 0 0 0 0 0 0 0 0 0 0 0 0 0 0 0 0 0 0 0 0 0 0 0 0 0 0 0 0 0 0 0 0 0 0 0 0 0 0 0 0 0 0 0 0 0 0 0 0 0 0 0 0 0 0 0 0 0 0 0 0 0 0 0 0 0 0 0 0 0 0 0 0 0 0 0 0 0 0 0 0 0 0 0 0 0 0 0 0 0 0 0 0 0 0 0 0 0 0 0 0 0 0 0 0 0 0 0 0 0 0 0 0 0 0 0 0 0 0 0 0 0 0 0 0 0 0 0 0 0 0 0 0 0 0 0 0 0 0 0 0 0 0 0 0 0 0 0 0 0 0 0 0 0 0 0 0 0 0 0 0 0 0 0 0 0 0 0 0 0 0 0 0 0 0 0 0 0 0 0 0 0 0 0 0 0 0 0 0 0 0 0 0 0 0 0 0 0 0 0 0 0 0 0 0 0 0 0 0 0 0 0 0 0 0 0 0 0 0 0 0 0 0 0 0 0 0 0 0 0 0 0 0 0 0 0 0 0 0 0 0 0 0 0 0 0 0 0 0 0 0 0 0 0 0 0 0 0 0 0 0 0 0 0 0 0 0 0 0 0 0 0 0 0 0 0 0
    0 0 0 0 0 0 0 0 0 0 0 0 0 0 0 0 0 0 0 0 0 0 0 0 0 0 0 0 0 0 0 0 0 0 0 0 0 0 0 0 0 0 0 0 0 0 0 0 0 0 0 0 0 0 0 0 0 0 0 0 0 0 0 0 0 0 0 0 0 9 0 0 0 0 0 -225 -225 -225 -225 -225 -225 -225 -225 -225 -225 -225 -225 -225 -225 -225 0 0 0 0 0 0 0 0 0 0 0 0 0 0 0 0 0 0 0 0 0 0 0 0 0 0 0 0 0 0 0 10 10 0 0 0 0 0 0 0 0 0 0 0 0 0 0 9 0 0 0 0 0 0 0 0 0 0 0 0 -193 -225 0 0 -193 0 0 0 0 0 -193 9 9 9 9 9 9 9 9 9 10 11 -209 10 12 0 0 0 -193 -193 0 0 0 0 9 9 0 0 10 10 11 11 12 12 9 9 0 0 0 0 0 0 0 0 0 0 0 9 10 10 17 11 12 14 14 14 14 14 14 -225 -225 -225 -225 -225 -225 -225 -225 -225 -225 -225 -225 -225 12 10 0 9 10 12 12 12 16 17 20 21 22 22 22 23 22 21 21 21 22 24 25 29 29 31 31 32 32 31 31 32 31 32 31 33 34 34 35 35 35 35 36 35 36 35 35 35 32 35 36 37 39 40 45 43 43 44 43 42 42 42 42 40 40 41 42 43 44 44 45 44 44 44 44 44 44 43 44 42 44 43 -225 0 0 0 0 0
    0 0 0 0 0 0 0 0 0 0 0 0 0 0 0 0 0 0 0 0 0 0 0 0 0 0 0 0 0 0 0 0 0 0 0 0 0 0 0 0 0 0 0 0 0 0 0 0 0 0 0 0 0 0 0 0 0 0 0 0 0 0 0 0 0 0 0 0 0 9 0 0 0 0 0 0 -225 -225 -225 -225 -225 -225 -225 -225 -225 -225 -225 -225 -225 0 0 0 0 0 0 0 0 0 0 0 0 0 0 0 0 0 0 0 0 0 0 0 0 0 0 0 0 0 0 0 0 10 10 0 0 0 0 0 0 0 0 0 0 0 0 0 0 9 0 0 0 0 0 0 0 0 0 0 0 0 -193 -193 0 0 9 0 0 0 0 0 -193 9 10 9 10 9 9 10 10 9 10 10 -193 10 13 0 0 0 -193 -193 0 0 0 0 9 9 0 0 9 9 9 10 11 11 0 9 0 0 0 0 0 0 0 0 0 0 0 9 10 10 17 11 12 14 14 14 14 14 14 -225 -225 -225 -225 -225 -225 -225 -225 -225 -225 -225 -225 -225 13 11 9 10 12 13 13 13 16 17 20 20 22 21 21 22 22 21 21 20 22 24 25 28 29 31 31 32 32 31 31 32 31 32 31 33 34 33 35 35 35 35 36 35 36 35 35 35 34 37 38 38 40 41 46 44 44 44 43 43 42 42 42 41 41 41 42 43 44 44 45 44 44 44 44 44 44 43 45 43 44 43 44 0 0 0 0 0
    0 0 0 0 0 0 0 0 0 0 0 0 0 0 0 0 0 0 0 0 0 0 0 0 0 0 0 0 0 0 0 0 0 0 0 0 0 0 0 0 0 0 0 0 0 0 0 0 0 0 0 0 0 0 0 0 0 0 0 0 0 0 0 0 0 0 0 0 0 10 0 0 0 0 0 0 0 -225 -225 -225 -225 -225 -225 -225 -225 -225 -225 -225 -225 0 0 0 0 0 0 0 0 0 0 0 0 0 0 0 0 0 0 0 0 0 0 0 0 0 0 0 0 0 0 0 0 9 9 0 0 0 0 0 0 0 0 0 0 0 0 0 0 0 0 0 0 0 0 0 0 0 0 0 0 0 -193 -193 0 0 -193 0 0 0 0 0 -193 9 10 9 10 9 9 10 10 9 10 9 -209 10 13 0 0 0 -193 -193 0 0 0 0 9 9 0 0 9 9 9 10 10 11 0 0 0 0 0 0 0 0 0 0 0 0 0 9 9 10 17 12 13 15 15 15 15 15 15 -225 -225 -225 -225 -225 -225 -225 -225 -225 -225 -225 -225 14 13 12 11 12 14 15 16 16 17 18 19 20 21 20 20 21 22 21 21 21 22 25 25 29 29 31 31 32 33 32 31 32 31 32 31 33 33 33 34 35 35 35 35 35 36 35 35 36 35 38 39 40 41 43 46 44 44 43 43 43 42 42 42 42 42 42 42 43 44 44 45 44 44 44 45 44 44 44 45 43 44 44 45 0 0 0 0 0
    0 0 0 0 0 0 0 0 0 0 0 0 0 0 0 0 0 0 0 0 0 0 0 0 0 0 0 0 0 0 0 0 0 0 0 0 0 0 0 0 0 0 0 0 0 0 0 0 0 0 0 0 0 0 0 0 0 0 0 0 0 0 0 0 0 0 0 0 0 11 9 0 0 0 0 0 0 -225 -225 -225 -225 -225 -225 -225 -225 -225 -225 -225 -225 0 0 0 0 0 0 0 0 0 0 0 0 0 0 0 0 0 0 0 0 0 0 0 0 0 0 0 0 0 0 0 0 0 9 0 0 0 0 0 0 0 0 0 0 0 0 0 0 0 0 0 0 0 0 0 0 0 0 0 0 0 0 -193 0 0 -209 0 0 0 0 0 0 0 9 9 9 9 9 9 9 0 0 0 -209 10 14 0 0 0 -193 -177 0 0 0 0 9 9 0 0 9 0 0 10 10 11 0 0 0 0 0 0 0 0 0 0 0 0 0 9 9 10 18 12 14 16 16 16 16 16 16 -225 -225 -225 -225 -225 -225 -225 -225 -225 -225 -225 12 12 12 12 12 13 14 17 17 17 17 18 19 20 20 20 20 21 22 21 21 21 22 25 26 30 29 31 31 32 32 32 31 32 30 32 31 33 33 33 34 35 35 35 35 35 36 35 36 36 36 39 40 41 42 44 47 44 44 44 44 44 43 43 43 42 42 42 43 43 44 44 45 44 44 44 44 44 44 44 44 43 44 45 45 0 0 0 0 0
    0 0 0 0 0 0 0 0 0 0 0 0 0 0 0 0 0 0 0 0 0 0 0 0 0 0 0 0 0 0 0 0 0 0 0 0 0 0 0 0 0 0 0 0 0 0 0 0 0 0 0 0 0 0 0 0 0 0 0 0 0 0 0 0 0 0 0 0 0 13 11 11 9 9 0 0 0 0 -225 -225 -225 -225 -225 -225 -225 -225 -225 -225 -225 0 0 0 0 0 0 0 0 0 0 0 0 0 0 0 0 0 0 0 0 0 0 0 0 0 0 0 0 0 0 0 0 0 0 0 0 0 0 0 0 0 0 0 0 0 0 0 0 0 0 0 0 0 0 0 0 0 0 0 0 0 0 -193 0 9 -209 -193 -209 -209 -193 0 0 0 8 9 0 0 0 0 0 0 0 0 -209 10 14 0 0 9 -193 -177 9 0 0 0 0 0 0 0 0 0 0 9 9 10 0 0 0 0 0 0 0 0 0 0 0 0 0 9 9 9 17 12 15 16 16 16 16 16 16 -225 -225 -225 -225 -225 -225 -225 -225 -225 -225 -225 12 12 13 12 13 13 14 18 17 17 17 18 19 19 20 20 19 21 21 21 21 21 22 27 27 31 30 32 31 32 32 32 30 32 30 31 31 33 33 33 34 35 35 35 36 36 37 37 37 38 38 40 41 41 42 43 46 44 44 44 44 44 43 43 44 43 43 43 43 43 44 44 44 44 43 44 45 44 44 45 45 45 44 47 46 0 0 0 0 0
    0 0 0 0 0 0 0 0 0 0 0 0 0 0 0 0 0 0 0 0 0 0 0 0 0 0 0 0 0 0 0 0 0 0 0 0 0 0 0 0 0 0 0 0 0 0 0 0 0 0 0 0 0 0 0 0 0 0 0 0 0 0 0 0 0 0 0 0 0 14 13 12 11 11 9 0 0 0 0 -225 -225 -225 -225 -225 -225 -225 -225 -225 -225 0 0 0 0 0 0 0 0 0 0 0 0 0 0 0 0 0 0 0 0 0 0 0 0 0 0 0 0 0 0 0 0 0 0 0 0 0 0 0 0 0 0 0 0 0 9 0 0 0 0 0 0 0 0 0 0 0 0 0 0 0 0 -193 0 0 10 -193 -209 -209 -193 11 9 0 0 0 0 0 0 0 0 0 0 0 -209 11 15 9 9 9 -193 -193 9 0 0 0 0 0 0 0 0 0 0 9 0 10 0 0 0 0 0 0 0 0 0 0 0 0 0 9 9 9 15 11 14 15 15 15 15 15 15 -225 -225 -225 -225 -225 -225 -225 -225 -225 -225 14 13 13 13 14 14 14 15 19 17 17 18 19 19 19 20 19 18 20 21 21 21 20 22 27 27 31 30 31 31 32 33 32 30 32 29 31 32 32 33 33 33 35 35 35 36 36 37 37 37 39 39 40 41 42 42 43 45 45 43 44 44 44 43 44 44 43 43 44 44 44 44 45 45 44 44 45 45 44 45 45 45 46 45 48 47 0 0 0 0 0
    0 0 0 0 0 0 0 0 0 0 0 0 0 0 0 0 0 0 0 0 0 0 0 0 0 0 0 0 0 0 0 0 0 0 0 0 0 0 0 0 0 0 0 0 0 0 0 0 0 0 0 0 0 0 0 0 0 0 0 0 0 0 0 0 0 0 0 0 0 15 14 12 12 12 10 9 0 0 0 -225 -225 -225 -225 -225 -225 -225 -225 -225 -225 0 0 0 0 0 0 0 0 0 0 0 0 0 0 0 0 0 0 0 0 0 0 0 0 0 0 0 0 0 0 0 0 0 0 0 0 0 0 0 0 0 0 0 0 0 0 0 0 0 0 0 0 0 0 0 0 0 0 0 0 0 0 0 0 0 9 9 8 9 9 9 0 0 0 0 0 0 0 0 0 0 0 0 -193 11 16 10 10 9 -193 -193 10 9 9 0 9 9 9 0 0 0 0 9 0 10 0 0 0 0 0 0 0 0 0 0 0 0 0 9 9 9 14 10 12 13 13 13 13 13 13 -225 -225 -225 -225 -225 -225 -225 -225 -225 13 12 13 14 14 14 14 15 17 19 18 18 18 18 19 19 19 19 18 20 20 19 20 19 22 27 28 32 30 31 31 33 33 33 30 32 29 31 33 33 33 33 34 35 36 36 37 37 38 38 38 40 40 41 42 42 41 42 45 45 43 44 44 44 44 44 45 44 43 44 44 44 44 45 45 44 44 44 44 44 44 45 45 46 45 48 47 0 0 0 0 0
    0 0 0 0 0 0 0 0 0 0 0 0 0 0 0 0 0 0 0 0 0 0 0 0 0 0 0 0 0 0 0 0 0 0 0 0 0 0 0 0 0 0 0 0 0 0 0 0 0 0 0 0 0 0 0 0 0 0 0 0 0 0 0 0 0 0 0 0 0 16 14 13 12 13 10 9 0 0 0 0 -225 -225 -225 -225 -225 -225 -225 -225 -225 0 0 0 0 0 0 0 0 0 0 0 0 0 0 0 0 0 0 9 9 9 0 0 0 0 0 0 0 0 0 0 0 0 0 0 0 0 0 0 0 0 0 0 0 0 0 0 0 0 0 0 0 0 0 0 0 0 0 0 0 0 0 0 0 0 0 9 0 0 0 9 8 0 0 0 0 0 0 0 0 0 0 0 -177 11 17 11 10 10 -193 -193 10 10 9 0 9 9 10 0 0 0 0 0 0 10 0 0 0 0 0 9 0 0 0 9 9 9 0 9 9 9 12 10 11 11 11 11 11 11 -225 -225 -225 -225 -225 -225 -225 -225 -225 -225 12 12 14 14 14 14 14 15 18 19 18 17 18 18 19 19 19 18 18 19 19 19 19 19 21 26 28 30 29 31 31 32 33 33 30 31 30 32 32 33 33 33 34 35 37 37 38 38 38 38 39 40 40 40 41 41 41 42 44 45 43 44 45 44 44 45 46 45 44 45 45 44 44 45 44 43 43 44 44 43 44 45 45 46 45 48 47 0 0 0 0 0
    0 0 0 0 0 0 0 0 0 0 0 0 0 0 0 0 0 0 0 0 0 0 0 0 0 0 0 0 0 0 0 0 0 0 0 0 0 0 0 0 0 0 0 0 0 0 0 0 0 0 0 0 0 0 0 0 0 0 0 0 0 0 0 0 0 0 0 0 0 17 15 13 13 13 11 9 0 0 0 0 0 -225 -225 -225 -225 -225 -225 -225 -225 0 0 0 0 0 0 0 0 0 0 0 0 0 0 0 0 0 9 9 9 9 0 9 0 0 0 0 0 0 0 0 0 0 0 0 0 0 0 0 0 0 0 0 0 0 0 0 0 0 0 0 0 0 0 0 0 0 0 0 0 0 0 0 0 0 0 0 0 0 0 0 0 0 0 0 0 0 0 0 0 0 0 0 -177 11 18 12 11 10 -193 -193 11 10 10 0 9 10 10 0 0 0 0 0 0 9 0 0 0 9 9 10 9 9 0 9 9 9 0 9 0 8 10 9 9 9 9 9 9 9 -225 -225 -225 -225 -225 -225 -225 -225 -225 13 13 14 15 14 14 14 14 16 18 19 17 17 18 18 18 18 18 18 17 19 19 18 19 20 22 26 28 30 29 31 31 31 32 32 30 31 30 31 32 32 33 34 34 35 37 36 38 38 38 39 39 40 40 40 41 41 41 42 43 45 43 44 45 45 45 46 46 45 44 45 45 44 44 45 44 43 43 44 44 43 44 45 45 46 45 48 46 0 0 0 0 0
    0 0 0 0 0 0 0 0 0 0 0 0 0 0 0 0 0 0 0 0 0 0 0 0 0 0 0 0 0 0 0 0 0 0 0 0 0 0 0 0 0 0 0 0 0 0 0 0 0 0 0 0 0 0 0 0 0 0 0 0 0 0 0 0 0 0 0 0 0 17 16 13 14 14 11 10 0 0 0 0 0 -225 -225 -225 -225 -225 -225 -225 -225 0 0 0 0 0 0 0 0 0 0 0 0 0 0 0 0 0 9 9 9 10 0 8 0 0 0 0 0 0 0 0 0 0 0 0 0 0 0 0 0 0 0 0 0 0 0 0 0 0 0 0 0 0 0 0 0 0 0 0 0 0 0 0 0 0 0 0 0 0 0 0 0 0 0 0 0 0 0 0 0 0 0 0 -177 11 18 12 11 10 11 11 11 10 10 0 9 10 11 0 9 0 0 0 0 10 0 0 0 11 10 10 10 10 9 10 10 10 0 9 0 0 0 0 0 0 0 0 0 0 -225 -225 -225 -225 -225 -225 -225 -225 14 13 13 14 15 15 14 15 16 17 18 19 17 18 18 18 18 18 19 19 19 21 20 20 21 23 23 28 29 30 30 31 32 31 31 32 29 30 29 30 30 31 33 33 33 35 37 37 38 38 38 39 39 40 40 40 41 41 41 42 42 46 43 44 45 45 45 46 46 46 44 45 45 44 44 45 44 43 43 44 44 44 45 45 44 46 45 47 45 0 0 0 0 0
    0 0 0 0 0 0 0 0 0 0 0 0 0 0 0 0 0 0 0 0 0 0 0 0 0 0 0 0 0 0 0 0 0 0 0 0 0 0 0 0 0 0 0 0 0 0 0 0 0 0 0 0 0 0 0 0 0 0 0 0 0 0 0 0 0 0 0 0 0 17 17 14 14 15 12 11 9 0 0 0 0 0 -225 -225 -225 -225 -225 -225 -225 0 0 0 0 0 0 0 0 0 0 0 0 0 0 0 0 0 9 9 10 10 0 9 0 0 0 0 0 0 0 0 0 0 0 0 0 0 0 0 0 0 0 0 0 0 0 0 0 0 0 0 0 0 0 0 0 0 0 0 0 0 0 0 0 0 0 0 0 0 0 0 0 0 0 0 0 0 0 0 0 0 0 9 17 11 18 12 11 10 11 11 11 10 11 0 9 10 11 9 11 11 0 10 10 11 0 0 9 12 11 11 12 11 10 10 10 10 0 9 9 0 0 0 0 0 0 0 0 0 -225 -225 -225 -225 -225 -225 -225 -225 12 12 12 13 14 14 14 14 17 17 18 19 17 18 18 18 18 18 20 20 21 22 21 22 23 25 25 29 29 31 30 31 32 31 30 32 29 31 30 30 32 32 34 35 34 36 37 37 38 38 38 38 38 40 39 40 41 41 41 42 42 46 44 44 46 46 45 46 47 46 44 45 45 44 44 45 44 43 43 44 44 43 44 44 44 45 44 46 45 0 0 0 0 0
    0 0 0 0 0 0 0 0 0 0 0 0 0 0 0 0 0 0 0 0 0 0 0 0 0 0 0 0 0 0 0 0 0 0 0 0 0 0 0 0 0 0 0 0 0 0 0 0 0 0 0 0 0 0 0 0 0 0 0 0 0 0 0 0 0 0 0 0 0 18 17 14 14 15 12 12 10 9 0 0 0 0 0 -225 -225 -225 -225 -225 -225 0 0 0 0 0 0 0 0 0 0 0 0 0 0 0 0 0 9 9 9 10 0 9 0 0 0 0 0 0 0 0 0 0 0 0 0 0 0 0 0 0 0 0 0 0 0 0 0 0 0 0 0 0 0 0 0 0 0 0 0 0 0 0 0 0 0 0 0 0 0 0 0 0 0 0 0 0 0 0 0 0 0 9 16 11 18 12 11 10 11 11 11 10 11 0 10 10 12 10 12 12 9 10 11 12 9 9 10 14 12 12 12 12 10 10 11 11 0 9 9 8 0 0 0 0 0 0 0 0 -225 -225 -225 -225 -225 -225 -225 13 14 13 11 13 14 13 14 16 17 16 18 19 17 18 18 18 18 19 21 21 22 23 22 23 24 26 26 29 29 30 30 31 32 31 30 32 29 31 30 31 32 33 36 36 36 38 38 37 39 38 38 38 39 40 39 40 41 41 41 42 42 47 44 45 46 46 46 47 47 46 44 45 45 44 43 44 44 43 43 43 43 43 44 44 44 45 45 46 45 0 0 0 0 0
    0 0 0 0 0 0 0 0 0 0 0 0 0 0 0 0 0 0 0 0 0 0 0 0 0 0 0 0 0 0 0 0 0 0 0 0 0 0 0 0 0 0 0 0 0 0 0 0 0 0 0 0 0 0 0 0 0 0 0 0 0 0 0 0 0 0 0 0 0 18 17 15 15 15 12 12 10 10 9 0 0 0 0 0 -225 -225 -225 -225 -225 0 0 0 0 0 0 0 0 0 0 0 0 8 0 0 0 0 9 9 9 10 0 0 0 0 0 0 0 0 0 0 0 0 0 0 0 0 0 0 0 0 0 0 0 0 0 0 0 0 0 0 0 0 0 0 0 0 0 0 0 0 0 0 0 0 0 0 0 0 0 0 0 0 0 0 0 0 0 0 0 0 0 9 -193 10 18 12 12 10 11 11 11 11 11 0 10 10 12 10 12 12 9 11 11 13 10 10 11 15 13 13 13 13 11 11 11 11 9 9 9 9 0 0 0 0 0 0 0 0 -225 -225 -225 -225 -225 -225 14 14 16 15 13 14 15 15 17 17 17 17 18 19 17 18 18 18 18 19 21 21 23 24 23 24 25 26 26 28 28 29 29 31 31 30 30 32 29 31 31 31 32 34 37 37 38 39 39 38 39 39 39 39 39 40 40 40 41 41 41 42 42 47 44 45 47 47 47 48 48 47 44 46 46 44 44 44 44 43 43 44 43 43 45 44 44 46 45 46 45 0 0 0 0 0
    0 0 0 0 0 0 0 0 0 0 0 0 0 0 0 0 0 0 0 0 0 0 0 0 0 0 0 0 0 0 0 0 0 0 0 0 0 0 0 0 0 0 0 0 0 0 0 0 0 0 0 0 0 0 0 0 0 0 0 0 0 0 0 0 0 0 0 0 0 18 17 14 16 15 13 12 10 10 0 0 0 0 0 0 -225 -225 -225 -225 -225 0 0 0 0 0 0 0 0 0 0 0 0 9 9 9 9 0 9 0 9 9 0 0 0 0 0 0 0 0 0 0 0 0 0 0 0 0 0 0 0 0 0 0 0 0 0 0 0 0 0 0 0 0 0 0 0 0 0 0 0 0 0 0 0 0 0 0 0 0 0 -193 0 0 0 0 0 0 0 0 0 0 0 9 -193 10 18 13 12 11 12 11 11 11 12 9 10 11 12 10 13 13 11 11 11 13 11 11 11 16 13 13 14 13 11 11 11 11 9 9 9 8 0 0 0 0 0 0 0 0 -225 -225 -225 -225 -225 13 12 15 16 14 13 14 15 16 17 17 16 17 18 18 18 18 18 18 19 20 22 22 24 24 23 25 25 27 26 29 29 29 29 30 31 30 30 32 29 31 32 32 32 34 37 38 39 39 39 39 40 40 40 40 40 40 40 41 42 41 42 42 42 49 45 47 48 48 48 49 49 48 44 46 46 45 44 44 44 43 44 44 43 44 45 44 44 45 45 46 45 0 0 0 0 0
    0 0 0 0 0 0 0 0 0 0 0 0 0 0 0 0 0 0 0 0 0 0 0 0 0 0 0 0 0 0 0 0 0 0 0 0 0 0 0 0 0 0 0 0 0 0 0 0 0 0 0 0 0 0 0 0 0 0 0 0 0 0 0 0 0 0 0 0 0 17 15 12 13 13 12 11 10 9 9 0 0 0 0 0 0 -225 -225 -225 -225 0 0 0 0 0 0 0 0 0 0 0 0 9 9 9 9 0 0 0 0 9 0 0 0 -193 0 0 0 0 0 0 0 0 0 0 0 0 0 0 0 0 0 0 0 0 0 0 0 0 0 0 0 0 0 0 0 0 0 0 0 9 0 -193 0 9 0 9 0 0 0 -193 -193 0 0 0 0 0 0 0 0 0 0 0 -193 9 18 12 12 11 12 11 11 12 13 9 11 11 13 10 13 13 11 12 12 13 11 12 12 16 14 14 14 14 12 12 12 12 9 10 10 9 0 0 0 0 0 0 0 0 -225 -225 -225 -225 -225 12 14 17 17 15 13 14 16 18 17 16 16 16 18 18 18 18 17 18 19 20 22 22 24 25 24 25 26 28 27 29 28 29 29 30 31 29 30 31 29 31 32 33 33 35 37 38 39 40 39 39 40 40 41 41 41 41 41 42 42 42 42 43 43 50 47 48 50 49 49 50 49 48 45 46 45 44 44 44 44 44 44 44 44 44 45 44 44 45 44 45 45 0 0 0 0 0
    0 0 0 0 0 0 0 0 0 0 0 0 0 0 0 0 0 0 0 0 0 0 0 0 0 0 0 0 0 0 0 0 0 0 0 0 0 0 0 0 0 0 0 0 0 0 0 0 0 0 0 0 0 0 0 0 0 0 0 0 0 0 0 0 0 0 0 0 0 17 14 12 12 12 11 10 10 9 9 0 0 0 0 0 0 0 -225 -225 -225 0 0 0 0 0 0 0 0 0 0 0 0 0 0 0 0 0 0 0 0 0 0 0 0 -193 0 0 0 0 0 0 0 0 0 0 0 0 0 0 0 0 0 0 0 0 0 0 0 0 0 0 0 0 0 0 0 0 9 9 0 10 -209 -193 9 10 0 9 -193 -193 -193 -193 -193 8 0 0 0 0 0 0 0 0 0 0 -193 0 17 12 12 11 12 12 12 12 13 9 11 11 12 10 13 13 12 12 12 13 12 12 12 17 14 14 14 15 13 12 12 12 10 10 10 11 0 0 0 0 0 0 0 0 -225 -225 -225 -225 13 12 16 17 19 16 14 16 18 18 17 16 16 16 17 18 17 18 18 19 19 20 22 22 24 25 24 25 27 28 27 28 28 28 29 30 30 29 29 31 29 31 33 33 33 35 38 38 39 40 40 39 40 40 41 41 42 42 42 43 44 43 43 44 44 52 48 49 51 51 51 50 49 49 44 47 45 44 44 44 44 44 44 44 44 44 45 44 45 45 44 45 44 0 0 0 0 0
    0 0 0 0 0 0 0 0 0 0 0 0 0 0 0 0 0 0 0 0 0 0 0 0 0 0 0 0 0 0 0 0 0 0 0 0 0 0 0 0 0 0 0 0 0 0 0 0 0 0 0 0 0 0 0 0 0 0 0 0 0 0 0 0 0 0 0 0 0 17 13 11 11 10 10 9 10 9 0 0 0 0 0 0 0 0 -225 -225 -225 0 0 0 0 0 0 0 0 0 0 0 0 0 0 0 0 0 0 0 0 0 0 0 0 -193 0 0 0 0 0 0 0 0 0 0 0 0 0 0 0 0 0 0 0 0 0 0 0 0 0 0 0 0 0 0 0 9 9 10 9 11 -193 1008 11 13 -209 -209 -209 -209 -209 -209 0 9 0 0 0 0 0 0 0 0 0 0 0 0 -177 12 12 11 12 12 12 12 14 10 11 11 12 9 11 11 11 11 11 13 12 12 12 17 14 14 14 15 14 13 13 13 10 11 11 12 0 0 0 0 0 0 0 0 -225 -225 -225 12 12 12 16 17 19 16 15 16 18 18 18 17 17 16 16 18 17 17 18 19 19 19 22 23 23 25 24 25 27 28 28 29 29 29 29 30 30 29 30 31 29 31 32 32 34 35 37 37 39 39 39 39 39 40 41 41 42 42 43 44 45 44 45 45 46 53 49 50 51 51 51 50 49 49 44 46 44 44 44 44 44 45 45 45 45 45 46 45 45 44 43 44 43 0 0 0 0 0
    0 0 0 0 0 0 0 0 0 0 0 0 0 0 0 0 0 0 0 0 0 0 0 0 0 0 0 0 0 0 0 0 0 0 0 0 0 0 0 0 0 0 0 0 0 0 0 0 0 0 0 0 0 0 0 0 0 0 0 0 0 0 0 0 0 0 0 0 0 17 13 11 10 10 10 9 10 9 0 0 0 0 0 0 0 0 0 -225 -225 0 0 0 0 0 0 0 0 0 0 0 0 0 0 0 0 0 0 0 0 0 0 0 0 -193 0 0 0 0 0 0 0 0 0 0 0 0 0 0 0 0 0 9 9 0 0 0 0 0 0 0 0 0 0 0 0 9 9 10 9 11 -193 -193 12 14 -209 -209 -209 -209 -209 -209 0 9 9 0 0 0 0 0 0 9 0 9 0 0 16 12 12 11 12 12 12 13 14 10 12 11 12 9 10 10 10 10 10 12 11 12 12 17 14 14 14 15 14 13 13 13 10 11 11 13 0 0 0 0 0 0 0 0 -225 -225 -225 12 12 12 15 17 19 16 15 17 18 18 18 17 17 15 17 19 17 18 19 19 19 20 23 23 23 25 25 26 28 29 28 29 29 28 30 30 30 29 30 31 29 31 33 32 33 35 37 37 39 39 39 39 39 40 41 41 42 42 43 45 46 46 47 48 48 53 50 51 51 51 51 50 49 49 43 46 43 43 44 43 45 45 45 46 45 45 46 44 44 43 42 42 41 0 0 0 0 0
    0 0 0 0 0 0 0 0 0 0 0 0 0 0 0 0 0 0 0 0 0 0 0 0 0 0 0 0 0 0 0 0 0 0 0 0 0 0 0 0 0 0 0 0 0 0 0 0 0 0 0 0 0 0 0 0 0 0 0 0 0 0 0 0 0 0 0 0 0 16 12 11 10 9 9 9 9 9 0 0 0 0 0 0 0 0 0 0 -225 0 0 0 0 0 0 0 0 0 0 0 0 0 0 0 0 0 0 0 0 0 0 0 0 -193 0 0 0 0 0 0 0 0 0 0 9 9 9 9 9 9 9 10 10 0 0 0 0 0 0 0 0 0 0 0 0 9 9 10 9 11 -193 -193 11 12 -193 17 -209 -209 12 -209 9 10 9 9 0 0 0 0 9 9 -193 -193 0 0 15 11 11 10 -193 11 11 12 14 10 12 11 12 9 9 9 9 9 10 11 10 11 11 16 14 14 14 15 14 13 13 13 10 11 11 14 9 0 0 0 0 0 0 0 -225 -225 13 12 13 12 16 18 19 16 16 17 18 18 18 17 16 14 17 19 17 18 19 19 20 21 23 23 23 25 26 26 29 29 29 29 29 29 30 30 30 29 30 31 30 31 34 33 34 35 37 37 38 39 39 38 38 39 40 40 42 42 45 47 47 48 50 49 50 53 51 51 51 51 51 50 49 49 43 47 43 43 45 44 46 46 46 46 45 45 46 43 43 41 40 41 41 0 0 0 0 0
    0 0 0 0 0 0 0 0 0 0 0 0 0 0 0 0 0 0 0 0 0 0 0 0 0 0 0 0 0 0 0 0 0 0 0 0 0 0 0 0 0 0 0 0 0 0 0 0 0 0 0 0 0 0 0 0 0 0 0 0 0 0 0 0 0 0 0 0 0 15 11 11 9 9 9 0 9 9 0 0 0 0 0 0 0 0 0 0 -225 0 0 0 0 0 0 0 0 0 0 0 0 0 0 0 0 0 0 0 0 0 0 0 0 -193 0 0 0 0 0 0 0 0 0 0 9 9 9 9 9 9 10 11 11 0 0 0 0 0 0 0 0 0 0 0 0 9 8 10 9 11 9 11 11 13 11 16 -225 -209 11 15 10 10 9 9 0 0 0 9 9 10 -209 -209 -209 0 -193 -193 -193 -193 -177 -193 11 12 13 10 11 10 11 0 0 9 0 9 9 10 10 10 10 14 13 13 13 14 14 13 13 13 10 11 12 16 10 9 9 9 9 9 10 10 -225 11 12 12 12 12 16 19 19 17 16 18 18 18 18 17 16 15 17 19 17 18 19 20 20 22 23 23 24 25 26 26 30 28 28 29 28 28 29 29 30 28 30 30 30 31 33 33 33 35 36 37 38 38 38 38 38 39 40 41 42 43 47 49 49 50 51 50 51 54 51 51 52 52 52 50 50 49 43 46 43 43 46 45 49 49 48 49 46 45 44 39 41 38 39 39 40 0 0 0 0 0
    0 0 0 0 0 0 0 0 0 0 0 0 0 0 0 0 0 0 0 0 0 0 0 0 0 0 0 0 0 0 0 0 0 0 0 0 0 0 0 0 0 0 0 0 0 0 0 0 0 0 0 0 0 0 0 0 0 0 0 0 0 0 0 0 0 0 0 0 0 14 10 10 9 0 0 0 0 0 0 0 0 0 0 0 0 0 0 0 0 0 0 0 0 0 0 0 0 0 0 0 0 0 0 0 0 0 0 0 0 0 0 0 0 -193 0 0 0 0 0 0 0 0 0 0 10 10 10 9 10 10 10 11 12 0 0 0 0 0 0 0 0 0 0 0 0 0 0 9 0 10 0 11 12 14 13 15 12 -193 11 14 10 10 9 10 9 9 9 10 10 10 -209 -209 -193 -193 -193 -193 -209 -177 -177 -177 -193 12 13 10 11 10 10 0 0 9 9 9 9 9 9 10 9 12 11 12 11 12 13 13 13 13 10 12 12 18 12 10 12 12 12 12 12 12 0 11 12 12 11 12 17 18 19 18 17 18 18 18 18 16 16 16 17 19 18 19 20 21 22 23 23 24 24 25 26 26 29 28 28 28 28 28 29 29 29 28 30 30 30 31 32 32 33 34 35 35 37 36 37 37 37 39 40 40 42 43 47 49 49 50 51 50 52 54 52 53 53 52 52 51 51 50 43 46 43 43 47 47 52 52 52 53 49 44 43 38 40 38 38 39 40 0 0 0 0 0
    0 0 0 0 0 0 0 0 0 0 0 0 0 0 0 0 0 0 0 0 0 0 0 0 0 0 0 0 0 0 0 0 0 0 0 0 0 0 0 0 0 0 0 0 0 0 0 0 0 0 0 0 0 0 0 0 0 0 0 0 0 0 0 0 0 0 0 0 0 15 10 10 9 9 9 0 9 9 0 0 0 0 0 0 0 0 0 0 0 0 0 0 0 0 0 0 0 0 0 0 0 0 0 0 0 0 0 0 0 0 0 0 0 -193 -193 0 0 0 0 0 0 0 0 0 10 10 10 9 10 10 10 11 12 0 0 0 0 0 0 0 0 0 0 0 0 0 0 9 0 9 0 10 11 13 12 13 -193 -209 10 15 11 11 10 10 9 9 9 10 11 11 -209 -209 -193 -177 -177 -177 -177 -177 -177 -177 -209 13 15 11 13 11 11 0 9 9 9 9 0 9 9 10 9 11 11 11 10 12 13 13 13 13 11 12 12 20 15 12 16 16 16 17 16 15 0 11 12 11 11 12 18 18 19 17 16 18 18 18 17 16 16 16 18 19 18 19 21 22 22 23 24 25 25 26 27 26 30 30 29 29 29 28 30 29 30 28 30 29 31 31 31 32 32 33 34 34 35 35 35 36 35 38 39 39 42 43 47 49 48 50 51 49 52 54 53 53 54 53 53 51 52 49 43 45 42 43 47 47 52 53 54 53 48 40 41 38 39 38 38 39 41 0 0 0 0 0
    0 0 0 0 0 0 0 0 0 0 0 0 0 0 0 0 0 0 0 0 0 0 0 0 0 0 0 0 0 0 0 0 0 0 0 0 0 0 0 0 0 0 0 0 0 0 0 0 0 0 0 0 0 0 0 0 0 0 0 0 0 0 0 0 0 0 0 0 0 15 10 10 9 9 0 0 0 9 0 0 0 0 0 0 0 0 9 9 9 0 0 0 0 0 0 0 0 0 0 0 0 0 0 0 0 0 0 0 0 0 0 0 0 -193 -193 0 0 0 0 0 0 0 0 0 10 10 10 9 10 10 10 11 12 0 0 0 0 0 0 0 0 0 0 0 0 0 0 9 0 8 0 0 10 12 -225 -193 -225 -209 12 22 12 12 10 11 10 10 10 11 12 -193 -209 -209 -193 -177 -177 -177 -177 -177 -177 -177 -209 13 14 12 13 12 12 9 9 10 9 10 0 9 9 9 9 11 10 10 0 11 14 14 -209 -209 -209 15 15 22 -193 16 21 21 21 21 19 18 9 11 11 11 11 11 19 18 19 18 17 18 18 18 17 16 16 16 18 19 18 20 22 22 23 24 25 25 25 27 27 26 30 29 29 28 28 28 29 29 29 28 29 29 31 30 31 31 32 32 33 32 34 33 34 35 34 36 38 39 40 42 46 47 47 48 51 49 52 54 53 53 54 53 53 51 51 49 42 44 40 41 44 44 46 49 46 40 40 38 39 37 39 38 38 40 43 0 0 0 0 0
    0 0 0 0 0 0 0 0 0 0 0 0 0 0 0 0 0 0 0 0 0 0 0 0 0 0 0 0 0 0 0 0 0 0 0 0 0 0 0 0 0 0 0 0 0 0 0 0 0 0 0 0 0 0 0 0 0 0 0 0 0 0 0 0 0 0 0 0 0 16 11 10 9 9 9 0 9 9 0 0 0 0 0 0 0 9 9 9 9 0 0 0 0 0 0 0 0 0 0 0 0 0 0 0 0 0 0 0 0 0 0 0 0 -193 -193 0 0 0 0 0 0 0 0 0 9 10 10 9 10 10 10 11 12 0 0 0 0 0 0 0 0 0 0 0 0 9 9 10 9 9 0 9 10 12 -225 -225 -225 -209 14 27 14 13 10 11 10 10 10 12 13 -209 -209 -209 -209 245 -193 -193 -177 -177 -177 -193 -193 -209 -193 11 12 10 11 9 9 9 9 9 0 0 9 9 0 10 9 10 0 10 15 -209 -209 -209 -209 -209 -209 -209 -209 -193 23 24 23 22 21 20 12 12 11 11 11 13 19 17 18 18 17 18 18 17 17 16 17 17 18 20 19 20 22 22 23 24 25 25 26 27 27 26 28 28 28 28 28 28 29 28 29 28 30 29 30 30 31 31 32 32 32 32 34 32 33 34 33 35 36 37 39 40 45 46 46 48 51 50 52 54 53 53 54 54 54 52 52 49 42 43 39 41 42 41 42 43 39 39 39 38 39 38 39 39 39 42 45 0 0 0 0 0
    0 0 0 0 0 0 0 0 0 0 0 0 0 0 0 0 0 0 0 0 0 0 0 0 0 0 0 0 0 0 0 0 0 0 0 0 0 0 0 0 0 0 0 0 0 0 0 0 0 0 0 0 0 0 0 0 0 0 0 0 0 0 0 0 0 0 0 0 0 16 11 10 9 10 9 9 9 10 9 9 9 9 0 0 0 9 10 10 9 0 0 0 0 0 0 0 0 0 0 0 0 0 0 0 0 0 0 0 0 0 0 0 0 -193 0 0 0 0 0 0 0 0 0 0 9 9 10 9 9 9 10 11 12 0 0 0 0 0 0 0 0 0 0 0 9 9 9 10 10 10 0 10 11 11 -209 -225 -225 -209 -209 27 14 14 10 11 10 10 10 12 14 -209 -209 -209 -209 -209 -209 -209 -177 -177 -177 -193 -193 -193 109 -193 13 10 12 10 9 9 9 9 0 0 0 0 0 9 0 9 0 9 -193 -209 -209 -209 -209 -209 -209 72 76 -209 27 28 24 23 22 22 14 11 11 11 12 13 17 16 17 17 16 18 17 17 17 16 17 17 18 20 19 21 23 23 24 25 26 26 26 27 27 26 29 28 28 28 28 28 29 28 29 28 30 28 31 30 31 31 32 32 32 32 33 31 33 33 32 33 34 35 37 38 43 45 45 46 51 50 52 54 53 53 54 54 54 52 52 49 41 42 39 40 41 39 39 41 39 39 39 38 39 39 40 40 41 44 50 0 0 0 0 0
    0 0 0 0 0 0 0 0 0 0 0 0 0 0 0 0 0 0 0 0 0 0 0 0 0 0 0 0 0 0 0 0 0 0 0 0 0 0 0 0 0 0 0 0 0 0 0 0 0 0 0 0 0 0 0 0 0 0 0 0 0 0 0 0 0 0 0 0 0 14 12 11 10 10 10 9 9 9 9 0 0 0 0 0 0 9 10 10 10 0 0 0 0 0 0 0 0 0 0 0 0 0 0 0 0 0 0 0 0 0 0 0 0 0 0 0 0 0 0 0 0 0 0 0 9 9 9 9 9 9 9 10 11 0 0 0 0 0 0 9 9 9 9 9 9 10 10 11 10 10 0 9 11 -193 -209 -209 -225 -209 16 22 13 14 10 11 10 10 10 12 14 -209 -209 -193 -209 -177 -209 -209 -177 -177 -177 -193 -193 110 108 108 -209 -209 16 -209 9 10 9 9 0 0 0 0 0 0 0 0 0 0 -209 -209 -209 -209 -209 -209 -209 82 84 -209 33 37 30 24 23 22 16 11 11 10 13 13 17 16 17 17 16 17 16 16 16 16 17 17 18 19 19 21 23 23 25 26 27 27 27 28 28 27 29 28 29 28 28 29 29 28 29 28 30 28 31 30 31 31 32 32 32 31 33 31 33 32 32 33 34 35 37 38 42 43 44 46 50 49 52 54 54 54 55 55 55 53 53 49 41 41 38 39 40 39 39 41 39 39 39 39 40 39 42 42 43 48 53 0 0 0 0 0
    0 0 0 0 0 0 0 0 0 0 0 0 0 0 0 0 0 0 0 0 0 0 0 0 0 0 0 0 0 0 0 0 0 0 0 0 0 0 0 0 0 0 0 0 0 0 0 0 0 0 0 0 0 0 0 0 0 0 0 0 0 0 0 0 0 0 0 0 0 14 12 11 11 11 10 9 9 10 9 9 0 8 0 9 0 9 10 11 11 0 0 0 0 0 0 0 0 0 0 0 0 0 0 0 0 0 0 0 0 0 0 0 0 0 0 0 0 0 0 0 0 0 0 0 9 9 9 0 0 0 0 10 10 0 0 0 0 9 9 9 9 9 9 9 10 10 10 11 11 11 9 11 12 14 -193 -209 -209 13 15 18 12 12 9 10 10 10 10 12 13 -209 -209 -209 -209 -177 -209 -209 801 -193 -193 -193 -193 109 107 108 -209 -209 -193 -193 10 10 9 9 0 0 0 0 0 0 0 0 0 0 -209 -209 -209 -209 -209 -209 -193 89 89 89 35 37 31 26 24 23 19 12 11 12 14 14 17 16 16 17 16 17 16 16 17 16 17 17 18 19 19 21 23 23 25 27 27 27 28 28 28 27 28 28 28 28 28 29 29 28 29 28 30 28 31 30 31 31 32 32 33 32 33 31 33 33 32 33 34 35 36 37 41 41 43 44 48 47 52 55 54 54 56 56 55 54 54 49 40 40 38 40 40 39 40 44 40 40 40 40 42 41 44 45 47 53 56 0 0 0 0 0
    0 0 0 0 0 0 0 0 0 0 0 0 0 0 0 0 0 0 0 0 0 0 0 0 0 0 0 0 0 0 0 0 0 0 0 0 0 0 0 0 0 0 0 0 0 0 0 0 0 0 0 0 0 0 0 0 0 0 0 0 0 0 0 0 0 0 0 0 0 15 12 12 11 11 10 9 10 9 9 0 0 0 0 0 0 0 9 10 11 0 0 0 0 0 0 0 0 0 0 0 0 0 0 0 0 0 0 0 0 0 0 0 0 0 0 0 0 0 0 0 0 0 0 0 9 9 9 0 0 0 0 9 9 0 0 0 0 9 9 9 9 10 9 9 10 10 11 11 11 11 10 11 13 15 19 15 19 15 14 16 11 11 9 10 9 9 9 11 -193 -209 -209 -209 -209 -193 -193 -193 -209 -193 -177 -193 -193 -193 106 -209 -209 -193 48 51 11 11 10 10 0 0 0 0 0 0 0 0 0 0 -209 -209 -209 -209 -209 93 90 90 90 90 -209 37 32 28 25 24 23 11 12 13 14 14 17 16 16 17 16 16 16 16 16 16 17 18 18 19 20 22 23 24 25 27 27 28 28 28 28 27 28 28 28 28 28 28 28 27 29 28 29 29 30 29 31 31 32 32 33 32 33 31 33 32 33 33 34 35 36 37 40 40 42 43 46 46 52 55 55 56 57 56 56 55 54 47 40 40 39 40 40 40 41 46 46 42 42 41 43 42 46 49 51 55 58 0 0 0 0 0
    0 0 0 0 0 0 0 0 0 0 0 0 0 0 0 0 0 0 0 0 0 0 0 0 0 0 0 0 0 0 0 0 0 0 0 0 0 0 0 0 0 0 0 0 0 0 0 0 0 0 0 0 0 0 0 0 0 0 0 0 0 0 0 0 0 0 0 0 0 15 13 11 11 11 10 9 9 9 0 0 0 0 0 0 0 0 10 10 11 0 0 0 0 0 0 0 0 0 0 0 0 0 0 0 0 0 0 0 0 0 0 0 0 0 0 0 0 0 0 0 0 0 0 0 9 9 9 0 0 0 0 0 0 0 0 0 0 8 9 9 9 10 9 9 10 9 10 10 10 11 9 10 12 15 18 15 19 14 13 14 11 11 9 9 9 9 9 10 -193 -209 -209 -193 -193 -209 -193 -193 -193 -193 -177 -193 -193 -193 -209 -209 -209 50 51 54 12 12 10 10 0 0 8 0 0 0 0 0 0 -177 -209 -209 -209 -209 -177 96 92 92 92 90 -209 36 32 29 26 25 26 13 13 14 15 15 18 16 17 17 15 16 16 16 16 16 17 18 18 20 20 22 23 24 25 27 27 27 28 28 28 27 28 28 28 28 28 28 28 27 29 28 29 29 30 29 30 31 32 32 32 32 32 31 33 32 33 33 34 34 36 36 39 39 40 41 44 44 51 56 56 56 57 57 56 55 54 48 41 42 40 41 41 42 43 47 48 45 43 43 46 48 52 54 55 57 60 0 0 0 0 0
    0 0 0 0 0 0 0 0 0 0 0 0 0 0 0 0 0 0 0 0 0 0 0 0 0 0 0 0 0 0 0 0 0 0 0 0 0 0 0 0 0 0 0 0 0 0 0 0 0 0 0 0 0 0 0 0 0 0 0 0 0 0 0 0 0 0 0 0 0 15 13 12 11 11 11 10 10 9 0 0 0 0 0 0 0 0 9 9 10 0 0 0 0 0 0 0 0 0 0 0 0 0 0 0 0 0 0 0 0 0 0 0 0 0 0 0 0 9 0 9 9 9 0 0 9 9 0 0 0 0 0 0 0 0 0 0 0 0 9 9 9 9 9 9 10 9 11 10 10 11 9 10 12 14 18 14 18 13 12 14 10 11 9 9 9 9 9 -193 -177 -209 -209 -209 -193 -209 -193 -193 -193 -209 -177 -193 -193 -193 -209 42 -193 50 50 53 14 12 10 10 0 0 0 0 0 0 0 0 0 -177 -209 -209 -209 -177 -177 96 93 92 93 91 -193 32 28 25 24 24 24 12 12 13 14 14 16 16 16 15 15 16 16 16 16 16 17 17 18 19 20 21 22 23 24 26 26 27 28 27 28 27 28 28 28 28 28 28 28 27 29 28 29 29 30 29 30 31 32 31 33 32 33 31 34 33 33 33 33 34 35 35 37 37 39 40 43 44 51 56 56 56 57 56 56 55 54 48 41 42 40 41 42 43 46 51 51 48 47 48 51 53 55 57 57 59 61 0 0 0 0 0
    0 0 0 0 0 0 0 0 0 0 0 0 0 0 0 0 0 0 0 0 0 0 0 0 0 0 0 0 0 0 0 0 0 0 0 0 0 0 0 0 0 0 0 0 0 0 0 0 0 0 0 0 0 0 0 0 0 0 0 0 0 0 0 0 0 0 0 0 0 13 12 11 11 10 10 9 9 0 0 0 0 0 0 0 0 0 0 9 10 0 0 0 0 0 0 0 0 0 0 0 0 0 0 0 0 0 0 0 0 0 0 0 0 0 0 0 0 9 0 0 9 10 0 9 9 9 0 0 0 0 0 0 0 0 0 0 0 0 9 9 9 9 9 9 10 9 11 10 11 11 9 9 12 14 18 15 17 12 11 13 10 11 9 9 9 9 9 -209 -177 -209 -209 -209 -209 -209 -209 -193 -209 108 -193 -193 -193 -209 -209 44 49 52 50 52 13 12 10 9 0 0 0 0 0 0 0 0 0 -177 -209 -209 -193 -177 -177 96 93 92 93 91 -193 26 24 23 22 23 21 13 13 13 14 14 16 16 17 15 15 16 16 16 16 16 16 17 18 19 20 20 21 22 23 25 25 26 27 26 27 27 27 27 27 28 28 28 28 27 29 28 29 29 30 30 30 31 33 32 33 32 33 32 34 33 33 32 33 33 34 34 36 35 37 38 41 42 51 57 56 56 56 56 55 54 53 47 41 42 41 42 43 45 49 52 53 51 52 51 54 55 56 57 58 60 62 0 0 0 0 0
    0 0 0 0 0 0 0 0 0 0 0 0 0 0 0 0 0 0 0 0 0 0 0 0 0 0 0 0 0 0 0 0 0 0 0 0 0 0 0 0 0 0 0 0 0 0 0 0 0 0 0 0 0 0 0 0 0 0 0 0 0 0 0 0 0 0 0 0 0 12 12 11 10 10 9 9 9 0 0 0 0 0 0 0 0 0 0 0 10 0 0 0 0 0 0 0 0 0 0 0 0 0 0 0 0 0 0 0 0 0 0 0 0 0 0 0 0 9 0 9 10 11 9 9 9 9 0 0 0 0 0 0 0 0 0 0 0 0 0 0 0 9 9 9 9 9 11 10 11 12 10 9 12 -193 -193 13 -193 10 10 12 10 11 9 9 9 -193 -193 -193 -177 -209 -209 -209 -209 -193 -209 -193 109 110 -193 -193 -193 -209 -209 44 47 50 49 50 11 11 9 9 9 0 0 0 0 0 0 0 0 0 -193 -209 -209 -193 -177 95 92 92 92 91 24 24 22 21 21 21 19 13 13 14 14 15 16 15 17 14 15 16 15 16 16 16 17 17 18 19 20 19 20 21 22 23 23 25 26 25 27 27 27 27 27 28 28 28 29 27 29 29 29 29 30 30 30 31 33 32 33 32 33 32 34 33 33 32 33 32 33 33 34 32 35 37 38 40 49 57 55 56 55 55 54 53 53 47 41 42 41 42 43 46 51 54 56 57 57 58 59 59 60 60 60 61 63 0 0 0 0 0
    0 0 0 0 0 0 0 0 0 0 0 0 0 0 0 0 0 0 0 0 0 0 0 0 0 0 0 0 0 0 0 0 0 0 0 0 0 0 0 0 0 0 0 0 0 0 0 0 0 0 0 0 0 0 0 0 0 0 0 0 0 0 0 0 0 0 0 0 0 12 11 10 10 9 9 9 9 0 0 0 0 0 0 0 0 0 0 9 10 0 0 0 0 0 0 0 0 0 0 0 0 0 0 0 0 0 0 0 0 0 0 0 0 0 0 0 0 10 9 9 10 11 10 10 0 -193 0 0 0 0 0 0 0 0 0 0 0 0 0 0 0 0 0 0 0 0 10 9 10 11 9 0 11 -193 -193 12 -193 9 9 10 9 11 9 9 9 -193 -209 -209 -209 -209 -209 -209 -209 -209 -193 -193 108 109 107 -193 -193 -209 -209 -209 -209 48 44 -209 10 10 9 9 9 9 9 0 0 0 0 0 0 0 11 -209 -209 -209 -209 -193 91 91 92 -193 21 21 20 19 18 19 16 14 15 15 15 14 15 15 16 14 15 15 15 16 16 16 17 16 17 18 20 19 20 21 22 22 22 25 26 25 27 27 28 27 28 30 30 29 30 28 30 29 30 30 30 29 30 30 32 31 33 33 33 32 34 33 33 33 33 32 33 32 34 32 35 36 37 39 46 56 55 56 55 54 53 53 53 48 42 43 42 43 45 49 53 57 58 60 60 61 62 62 63 63 62 63 64 0 0 0 0 0
    0 0 0 0 0 0 0 0 0 0 0 0 0 0 0 0 0 0 0 0 0 0 0 0 0 0 0 0 0 0 0 0 0 0 0 0 0 0 0 0 0 0 0 0 0 0 0 0 0 0 0 0 0 0 0 0 0 0 0 0 0 0 0 0 0 0 0 0 0 11 10 10 9 9 0 0 0 0 0 0 0 0 0 0 0 0 0 0 10 0 0 0 0 0 0 0 0 0 0 0 0 0 0 0 0 0 0 0 0 0 0 0 0 0 0 0 0 10 9 9 10 11 10 10 0 0 0 0 0 0 0 0 0 0 0 0 0 0 0 0 0 0 0 0 0 0 0 0 0 0 0 0 9 -193 -193 11 -193 0 9 9 0 11 10 10 10 -209 -209 -209 -209 -209 -209 -209 -209 101 108 -193 106 105 104 104 -193 -209 -209 -209 -209 -209 -209 11 10 10 9 9 9 10 10 9 0 0 0 0 0 0 -209 -209 -209 -209 -209 -193 91 91 91 23 17 17 18 17 16 17 15 15 15 15 15 15 16 15 17 15 15 16 16 16 16 15 16 15 18 18 20 19 20 21 22 22 22 25 26 25 27 27 27 27 28 30 31 30 32 30 32 30 30 31 30 29 30 30 32 31 33 33 33 33 34 33 33 33 33 32 33 32 34 32 34 36 37 39 46 56 54 56 55 54 53 53 53 50 43 44 43 44 46 50 53 58 58 60 60 61 62 62 63 63 61 63 65 0 0 0 0 0
    0 0 0 0 0 0 0 0 0 0 0 0 0 0 0 0 0 0 0 0 0 0 0 0 0 0 0 0 0 0 0 0 0 0 0 0 0 0 0 0 0 0 0 0 0 0 0 0 0 0 0 0 0 0 0 0 0 0 0 0 0 0 0 0 0 0 0 0 0 11 10 9 9 9 0 0 0 0 0 0 0 0 0 0 0 0 0 0 0 0 0 0 0 0 0 0 0 0 0 0 0 0 0 0 0 0 10 9 0 0 9 0 0 0 0 0 0 10 9 9 9 11 10 10 0 0 0 0 0 0 0 0 0 0 0 0 0 0 0 0 0 0 0 0 0 0 0 0 0 0 0 0 0 -193 -193 9 -193 0 0 0 0 10 9 10 10 -209 -209 -209 -209 -209 -209 -209 -209 102 107 103 105 104 103 103 -193 -209 -209 -209 98 -193 -193 12 11 10 10 10 10 11 13 11 0 0 0 0 0 -209 -209 -209 -209 -209 -209 -193 91 91 -193 -209 17 17 18 15 15 16 14 14 14 15 15 15 16 15 17 14 15 16 15 16 16 15 17 16 18 19 20 20 20 21 22 22 22 24 26 25 27 27 28 28 28 31 31 30 33 -209 -209 -193 -193 -193 29 29 29 30 31 30 32 33 33 33 34 33 33 33 33 32 33 32 33 31 34 36 37 39 46 56 54 55 54 54 53 53 53 51 44 44 43 45 49 51 54 58 58 61 60 61 61 61 62 62 61 63 65 0 0 0 0 0
    0 0 0 0 0 0 0 0 0 0 0 0 0 0 0 0 0 0 0 0 0 0 0 0 0 0 0 0 0 0 0 0 0 0 0 0 0 0 0 0 0 0 0 0 0 0 0 0 0 0 0 0 0 0 0 0 0 0 0 0 0 0 0 0 0 0 0 0 0 11 10 9 9 8 0 0 0 0 0 0 0 0 0 0 0 0 0 0 9 0 0 0 0 0 0 0 0 0 0 0 0 0 0 0 0 9 11 10 10 9 10 0 0 0 0 0 0 9 0 9 9 10 9 9 0 0 0 0 0 0 0 0 0 0 0 0 0 0 0 0 0 0 0 0 0 0 0 0 0 0 0 0 0 -193 -193 0 0 0 0 0 0 10 9 11 -209 -209 -209 -209 -209 -209 104 105 104 103 107 103 104 103 103 103 104 -193 -193 99 99 97 98 -193 11 11 11 11 11 14 18 16 9 -193 -209 -209 -209 -209 -209 -209 -209 -209 93 90 90 90 -209 -209 17 19 18 15 15 16 15 14 14 15 14 15 16 15 17 15 15 16 15 16 15 16 18 16 19 20 21 21 20 21 22 22 22 24 25 25 27 27 28 27 28 32 33 -193 -193 -209 -209 -209 -209 -193 -193 28 28 29 30 29 31 32 33 32 33 33 33 33 33 32 33 31 33 31 34 36 38 39 46 56 54 55 53 53 53 53 53 51 45 45 44 47 50 52 54 59 59 61 60 61 61 61 62 62 61 63 65 0 0 0 0 0
    0 0 0 0 0 0 0 0 0 0 0 0 0 0 0 0 0 0 0 0 0 0 0 0 0 0 0 0 0 0 0 0 0 0 0 0 0 0 0 0 0 0 0 0 0 0 0 0 0 0 0 0 0 0 0 0 0 0 0 0 0 0 0 0 0 0 0 0 0 11 10 9 9 0 0 0 0 0 0 0 0 0 0 0 0 0 0 0 9 0 0 0 0 0 0 0 0 0 0 0 0 0 0 0 9 9 11 11 11 10 10 0 0 0 0 0 0 9 0 9 0 9 8 9 0 0 0 0 0 0 0 0 0 0 0 0 0 0 0 0 0 0 0 0 0 0 0 0 0 0 0 0 0 -193 -193 0 0 0 0 -209 0 -209 -209 -209 -209 -209 -209 -209 -193 109 105 104 104 103 105 102 103 102 102 102 103 -193 103 98 99 98 100 99 -193 12 12 13 12 17 22 22 17 -209 -209 -209 -209 -177 -193 -209 95 -193 -193 91 91 91 -193 -209 -193 20 18 16 16 16 15 14 14 14 14 15 16 15 17 15 15 16 15 15 15 16 18 15 19 20 20 20 19 20 21 22 22 24 25 26 27 27 28 27 28 34 -193 -193 -209 -209 -209 -209 -177 -209 -209 28 28 29 29 29 31 32 33 32 33 33 32 33 33 32 33 31 33 32 34 36 37 39 46 56 55 55 54 54 53 53 54 52 46 45 46 49 52 53 55 59 60 62 61 62 61 62 63 63 62 64 65 0 0 0 0 0
    0 0 0 0 0 0 0 0 0 0 0 0 0 0 0 0 0 0 0 0 0 0 0 0 0 0 0 0 0 0 0 0 0 0 0 0 0 0 0 0 0 0 0 0 0 0 0 0 0 0 0 0 0 0 0 0 0 0 0 0 0 0 0 0 0 0 0 0 0 11 10 9 9 9 0 0 0 0 0 0 0 0 0 0 0 0 0 0 0 0 0 0 0 0 0 0 0 0 0 0 0 0 0 0 0 9 11 11 11 9 10 0 0 0 0 0 0 9 0 0 0 0 0 0 0 0 0 0 0 0 0 0 0 0 0 0 0 0 0 0 0 0 0 0 0 0 0 0 0 0 0 0 0 -193 -193 0 0 0 0 -209 0 -193 -209 -209 -209 111 -209 -209 107 108 104 104 104 103 104 103 103 103 103 103 103 103 103 100 101 100 101 100 101 -193 13 14 14 20 24 25 -209 -209 -209 -193 -193 -177 -193 93 94 -193 -193 91 91 91 90 -209 -177 -193 16 14 15 15 14 13 13 14 14 15 15 14 16 14 15 15 15 14 15 16 18 15 19 20 20 20 20 20 22 22 22 24 25 26 27 28 28 27 29 34 -193 -209 -209 -209 -209 -209 -209 -209 29 29 28 29 29 29 31 31 33 32 32 33 32 32 33 31 33 31 33 32 35 36 37 39 46 56 55 55 54 54 53 53 54 53 48 46 49 52 54 55 57 60 60 62 62 62 61 62 63 62 61 64 65 0 0 0 0 0
    0 0 0 0 0 0 0 0 0 0 0 0 0 0 0 0 0 0 0 0 0 0 0 0 0 0 0 0 0 0 0 0 0 0 0 0 0 0 0 0 0 0 0 0 0 0 0 0 0 0 0 0 0 0 0 0 0 0 0 0 0 0 0 0 0 0 0 0 0 11 9 9 9 0 0 0 0 0 0 0 0 0 0 0 9 0 0 0 0 0 0 0 0 0 0 0 0 0 0 0 0 0 0 0 0 10 11 11 10 9 9 0 0 0 0 0 0 0 0 0 0 0 0 0 0 0 0 0 0 0 0 0 0 0 0 0 0 0 0 0 0 0 0 0 0 0 0 0 9 0 9 10 10 -193 -193 0 0 0 0 -209 0 0 -209 -209 -177 -177 114 -177 108 108 105 104 104 104 104 103 104 103 103 103 104 103 104 101 101 100 101 100 101 101 -193 17 18 22 28 -193 -209 -209 -209 -193 -209 -209 -193 93 94 94 93 91 92 92 91 90 -209 -193 14 14 14 14 13 13 14 15 15 15 15 14 17 15 15 15 15 15 15 16 19 15 19 20 20 20 20 21 22 22 22 24 25 26 27 27 28 27 29 -193 -193 -193 -209 -209 -209 -209 -209 -209 30 29 28 29 28 29 30 30 33 31 32 32 32 32 33 31 33 31 33 33 35 36 37 38 45 55 55 54 53 54 53 54 54 53 49 48 52 53 55 55 57 60 60 63 62 62 61 63 63 62 61 64 64 0 0 0 0 0
    0 0 0 0 0 0 0 0 0 0 0 0 0 0 0 0 0 0 0 0 0 0 0 0 0 0 0 0 0 0 0 0 0 0 0 0 0 0 0 0 0 0 0 0 0 0 0 0 0 0 0 0 0 0 0 0 0 0 0 0 0 0 0 0 0 0 0 0 0 12 10 9 9 9 0 0 0 0 0 0 0 0 9 9 9 9 9 0 0 0 0 0 0 0 0 0 0 0 0 0 0 0 0 0 0 10 11 10 10 9 0 0 0 0 0 0 0 0 0 0 0 0 0 0 0 0 0 0 0 0 0 0 0 0 0 0 0 0 0 0 0 0 0 0 0 0 9 0 9 0 12 12 11 11 -193 0 -193 -193 10 -209 0 0 -209 -209 -193 107 107 -177 106 106 104 104 104 103 104 102 103 103 103 103 103 103 103 101 101 100 100 100 100 101 -193 20 21 24 34 43 -209 -209 -209 72 -193 -193 -193 94 95 94 93 92 92 92 91 91 91 -209 11 12 13 13 13 13 14 15 15 16 15 14 17 15 15 15 15 15 14 16 19 15 19 20 20 20 21 22 23 23 23 26 27 28 28 30 30 30 35 -193 -177 -177 -209 70 70 -209 -209 -209 -209 30 29 30 28 29 30 29 32 31 31 31 32 32 33 31 33 31 33 33 35 35 37 39 44 53 54 54 53 53 53 54 54 54 50 50 53 55 55 56 57 60 61 63 63 62 62 63 64 62 61 64 64 0 0 0 0 0
    0 0 0 0 0 0 0 0 0 0 0 0 0 0 0 0 0 0 0 0 0 0 0 0 0 0 0 0 0 0 0 0 0 0 0 0 0 0 0 0 0 0 0 0 0 0 0 0 0 0 0 0 0 0 0 0 0 0 0 0 0 0 0 0 0 0 0 0 0 12 10 9 9 0 0 0 0 0 9 0 8 9 9 9 9 9 9 0 0 0 0 0 0 0 0 0 0 0 0 0 0 0 0 0 0 10 10 10 10 9 0 0 0 0 0 0 0 0 0 0 0 0 0 0 0 0 0 0 0 0 0 0 0 0 0 0 9 0 9 0 0 0 0 0 0 0 10 9 11 11 14 13 12 12 10 9 10 11 -193 -209 -209 -209 -209 103 104 104 104 104 105 105 104 103 103 103 103 102 103 102 102 103 102 102 103 101 100 99 100 99 99 100 101 23 26 30 39 49 -209 -209 -209 76 88 92 94 94 95 94 93 93 94 93 93 92 92 -193 10 12 12 13 14 13 14 15 15 16 15 14 17 15 15 15 15 15 14 17 19 15 20 20 19 21 21 22 23 24 25 26 28 30 30 32 34 35 -209 -193 -177 -177 -193 71 71 72 -209 -209 -209 -209 30 31 27 28 29 28 31 30 30 30 31 31 32 31 33 32 33 34 36 36 38 39 45 53 54 54 53 54 53 54 54 54 52 52 55 55 56 56 57 60 60 63 63 62 62 63 64 62 62 64 64 0 0 0 0 0
    0 0 0 0 0 0 0 0 0 0 0 0 0 0 0 0 0 0 0 0 0 0 0 0 0 0 0 0 0 0 0 0 0 0 0 0 0 0 0 0 0 0 0 0 0 0 0 0 0 0 0 0 0 0 0 0 0 0 0 0 0 0 0 0 0 0 0 0 0 13 11 10 10 0 0 0 0 0 9 9 9 9 9 9 9 9 9 0 0 0 0 0 0 0 0 0 0 0 0 0 0 0 0 0 0 10 10 10 11 9 0 0 0 -193 0 0 0 0 0 0 0 0 0 0 0 0 0 0 0 0 0 0 0 9 9 0 9 9 9 9 9 0 9 0 9 9 11 10 12 13 17 15 14 12 10 10 12 14 -209 -209 -209 -209 -209 102 102 103 103 103 104 104 103 103 103 102 102 101 102 101 101 102 101 101 102 101 100 99 100 99 99 100 101 28 34 38 42 54 -209 -209 73 83 89 92 95 95 95 95 93 93 94 94 95 93 93 96 -193 12 12 13 14 13 14 15 14 16 14 14 18 15 15 16 16 15 14 17 18 15 19 20 19 20 21 22 23 25 26 28 30 32 34 36 37 37 -209 -209 -193 -193 -193 70 70 70 73 -209 -209 -209 -209 -193 27 27 28 27 29 29 29 29 30 30 31 30 33 32 33 33 36 36 39 40 47 54 55 55 54 54 54 55 55 54 53 53 56 57 57 57 58 60 60 62 63 62 62 64 64 62 63 64 64 0 0 0 0 0
    0 0 0 0 0 0 0 0 0 0 0 0 0 0 0 0 0 0 0 0 0 0 0 0 0 0 0 0 0 0 0 0 0 0 0 0 0 0 0 0 0 0 0 0 0 0 0 0 0 0 0 0 0 0 0 0 0 0 0 0 0 0 0 0 0 0 0 0 0 14 12 11 11 9 0 0 0 0 10 9 10 9 10 10 10 9 9 0 0 0 0 0 0 0 0 0 0 0 0 0 0 0 0 0 0 10 10 10 11 10 0 0 0 -193 0 0 0 0 0 0 0 0 0 0 0 0 0 0 0 0 0 0 0 0 9 0 10 9 9 9 9 9 10 9 10 10 12 11 13 15 19 18 16 14 11 12 15 -193 -177 -177 -193 -209 -209 102 101 102 102 102 103 104 103 103 102 103 103 102 102 102 101 101 101 101 101 102 100 100 99 98 99 101 101 -209 40 42 50 -209 -209 84 86 88 90 93 96 96 96 96 94 95 96 95 97 93 94 97 102 -209 -209 -193 -193 12 13 14 14 16 14 14 18 14 15 16 15 15 15 17 18 15 19 19 18 19 20 22 24 26 27 32 35 35 37 39 -209 -209 -193 63 65 68 -193 69 70 70 73 -209 -209 -209 -193 31 27 27 27 27 29 28 29 29 29 30 30 30 33 32 32 33 36 36 38 40 48 54 55 54 54 54 54 55 55 55 54 54 57 58 58 58 60 60 60 62 63 62 62 64 65 62 64 65 64 0 0 0 0 0
    0 0 0 0 0 0 0 0 0 0 0 0 0 0 0 0 0 0 0 0 0 0 0 0 0 0 0 0 0 0 0 0 0 0 0 0 0 0 0 0 0 0 0 0 0 0 0 0 0 0 0 0 0 0 0 0 0 0 0 0 0 0 0 0 0 0 0 0 0 14 12 11 11 9 0 0 0 0 10 9 10 10 11 10 11 10 10 0 0 0 0 0 0 0 0 0 0 0 0 0 0 0 0 0 0 10 10 10 10 10 0 0 0 0 9 0 0 0 0 0 0 0 0 0 0 0 0 0 0 0 0 0 0 0 0 0 10 9 10 10 10 10 10 10 11 10 12 11 13 14 18 18 16 14 11 14 18 -209 -177 -177 -193 -193 -193 103 102 102 102 102 103 104 103 103 102 103 103 102 102 103 102 101 100 100 101 102 100 99 99 97 98 100 101 -209 47 50 55 69 78 88 89 89 91 94 99 97 97 97 95 96 97 96 99 94 96 98 102 -193 -177 -193 482 482 14 14 14 16 13 14 17 15 15 15 15 15 15 17 17 15 18 18 17 18 20 21 25 27 28 37 -209 -209 -209 -209 61 61 60 65 66 67 68 68 69 69 72 -193 -209 -177 30 32 27 27 27 27 28 28 28 28 29 29 30 30 32 32 34 34 37 37 39 41 50 54 55 55 55 54 54 55 55 55 54 55 57 58 58 58 60 59 60 62 63 61 62 65 64 62 64 65 64 0 0 0 0 0
    0 0 0 0 0 0 0 0 0 0 0 0 0 0 0 0 0 0 0 0 0 0 0 0 0 0 0 0 0 0 0 0 0 0 0 0 0 0 0 0 0 0 0 0 0 0 0 0 0 0 0 0 0 0 0 0 0 0 0 0 0 0 0 0 0 0 0 0 0 14 13 12 12 10 9 0 0 0 9 9 10 10 10 11 10 9 9 0 0 0 0 0 0 0 0 0 0 0 0 0 0 0 0 0 0 9 9 9 10 10 0 0 0 9 9 9 9 0 0 9 0 0 0 0 0 0 0 0 0 0 0 0 0 0 0 0 10 10 10 10 10 10 10 10 11 10 10 10 12 13 15 16 15 13 12 16 -193 -209 -193 -177 -193 -193 101 102 101 102 101 102 102 103 103 102 102 103 103 103 103 103 103 101 100 100 100 101 99 99 99 96 97 99 99 -209 -193 56 60 71 79 88 89 90 92 95 100 97 98 97 96 97 98 98 100 95 97 99 102 -177 -177 -193 482 482 -193 13 14 16 13 14 17 14 15 15 15 15 15 17 17 15 18 18 17 18 20 22 26 30 36 44 -193 -193 60 61 64 64 62 66 66 67 68 68 68 67 71 -193 -209 -209 -193 -193 27 27 26 27 28 28 28 28 28 29 30 29 32 33 35 36 39 39 41 43 51 54 55 55 55 55 55 56 56 56 55 56 58 58 58 58 59 59 59 61 63 61 62 66 65 62 65 65 65 0 0 0 0 0
    0 0 0 0 0 0 0 0 0 0 0 0 0 0 0 0 0 0 0 0 0 0 0 0 0 0 0 0 0 0 0 0 0 0 0 0 0 0 0 0 0 0 0 0 0 0 0 0 0 0 0 0 0 0 0 0 0 0 0 0 0 0 0 0 0 0 0 0 0 14 13 12 12 10 9 0 0 0 0 0 10 9 10 10 10 9 9 0 0 0 0 0 0 0 0 0 0 0 0 0 0 0 0 0 0 9 0 0 9 9 0 0 0 9 9 9 9 0 0 0 0 0 0 0 0 0 0 0 0 0 0 0 0 0 0 0 10 10 10 9 9 10 10 10 10 9 9 9 11 12 15 15 14 13 13 18 -193 -209 -177 -193 -193 -193 102 102 101 102 101 101 101 102 102 101 101 102 101 102 103 103 104 101 100 100 101 102 100 99 99 96 97 99 98 -209 -193 -177 -177 72 80 89 89 90 93 96 100 97 98 97 96 97 99 99 101 96 98 99 102 -177 -177 -193 -193 482 483 12 13 15 12 14 17 14 15 15 15 15 15 17 17 16 17 17 17 18 20 23 29 37 42 53 -193 60 63 62 66 66 64 67 67 68 70 69 69 67 70 73 -209 -209 -193 -209 28 26 26 27 28 28 28 28 28 29 29 29 32 35 36 37 40 42 44 46 52 54 55 56 56 55 56 56 56 56 56 57 58 58 58 59 60 59 59 61 63 61 63 66 65 63 66 66 65 0 0 0 0 0
    0 0 0 0 0 0 0 0 0 0 0 0 0 0 0 0 0 0 0 0 0 0 0 0 0 0 0 0 0 0 0 0 0 0 0 0 0 0 0 0 0 0 0 0 0 0 0 0 0 0 0 0 0 0 0 0 0 0 0 0 0 0 0 0 0 0 0 0 0 13 13 12 12 9 9 0 0 0 0 0 9 9 9 9 9 9 9 0 0 0 0 0 0 0 0 0 0 0 0 0 0 0 0 0 0 0 0 0 0 0 0 0 0 0 0 0 0 0 0 0 0 0 0 0 0 0 0 0 0 0 0 0 0 0 0 0 10 10 10 9 9 9 10 10 10 9 9 9 11 12 14 14 14 13 14 20 -209 -193 -177 -193 -193 101 102 102 101 101 101 101 101 101 102 101 101 101 101 101 101 102 102 100 98 99 101 102 100 100 99 97 99 100 99 -193 -193 -209 69 73 79 88 89 91 93 96 100 97 97 97 97 97 99 100 101 96 98 99 102 -177 -177 -177 -177 -177 483 -193 13 15 12 15 17 15 15 15 15 15 15 17 17 16 17 17 17 18 21 24 33 41 49 56 -193 62 66 64 68 68 67 69 69 69 71 69 70 68 70 73 -177 -177 -177 -209 -209 26 26 27 27 28 28 28 28 29 29 29 33 36 37 38 43 45 47 50 53 54 55 56 56 56 56 56 57 57 57 57 58 59 59 59 60 59 59 61 63 61 63 65 65 63 67 67 66 0 0 0 0 0
    0 0 0 0 0 0 0 0 0 0 0 0 0 0 0 0 0 0 0 0 0 0 0 0 0 0 0 0 0 0 0 0 0 0 0 0 0 0 0 0 0 0 0 0 0 0 0 0 0 0 0 0 0 0 0 0 0 0 0 0 0 0 0 0 0 0 0 0 0 13 13 12 11 0 0 0 0 0 0 0 9 0 0 9 -193 9 9 0 9 0 0 0 0 0 0 0 0 0 0 0 0 0 0 0 0 0 0 0 0 0 0 0 9 9 9 9 9 0 0 9 0 0 0 0 0 0 0 0 0 0 0 0 0 0 0 9 9 10 10 9 9 9 9 9 10 9 9 9 10 12 14 14 14 12 15 22 -209 -193 -177 -193 -193 102 102 102 101 101 101 100 101 101 101 101 101 101 100 101 101 101 101 99 98 99 102 102 100 100 100 98 102 102 100 -193 -193 -193 69 -177 77 87 89 91 93 97 100 96 97 97 97 96 99 100 101 96 98 99 102 -177 -193 -177 -177 -177 483 485 12 14 12 15 18 15 16 15 15 15 16 17 17 15 17 17 16 17 20 23 33 43 55 58 -177 65 67 65 68 68 68 70 69 70 71 70 70 69 71 73 -177 -177 -209 -193 -209 -193 26 27 28 28 28 28 28 29 29 30 35 38 40 41 47 49 51 52 54 54 55 56 56 56 56 57 57 58 57 58 59 59 59 60 61 60 59 62 63 61 63 65 65 64 67 68 66 0 0 0 0 0
    0 0 0 0 0 0 0 0 0 0 0 0 0 0 0 0 0 0 0 0 0 0 0 0 0 0 0 0 0 0 0 0 0 0 0 0 0 0 0 0 0 0 0 0 0 0 0 0 0 0 0 0 0 0 0 0 0 0 0 0 0 0 0 0 0 0 0 0 0 12 12 11 11 9 0 0 0 0 0 0 0 0 0 0 -193 9 9 9 10 0 0 0 0 0 0 0 0 0 0 0 0 0 0 0 0 0 0 0 0 9 9 9 10 9 10 9 9 0 0 9 0 0 0 9 0 0 0 0 0 0 9 9 0 0 0 9 10 10 10 9 9 10 10 9 9 9 9 9 9 11 12 13 13 12 15 22 -209 -193 -209 -209 -209 102 102 102 101 102 101 101 101 101 101 101 101 101 100 101 102 101 101 98 98 98 102 102 101 101 101 100 104 104 -193 -193 -193 -209 -193 -177 75 85 88 90 93 96 99 95 96 97 97 96 99 100 101 96 98 99 102 -209 -193 -177 -177 -177 482 485 11 14 12 15 18 16 16 15 14 15 16 17 17 15 17 16 17 17 19 22 25 -193 -193 -193 -177 -177 -193 64 67 69 68 70 70 71 73 71 72 71 72 77 -209 -177 -209 -193 -193 -193 26 27 28 28 28 28 28 29 30 30 36 41 44 44 50 51 53 53 54 55 56 57 57 56 56 57 58 59 58 58 59 60 60 61 61 60 59 62 64 61 63 65 64 64 68 68 67 0 0 0 0 0
    0 0 0 0 0 0 0 0 0 0 0 0 0 0 0 0 0 0 0 0 0 0 0 0 0 0 0 0 0 0 0 0 0 0 0 0 0 0 0 0 0 0 0 0 0 0 0 0 0 0 0 0 0 0 0 0 0 0 0 0 0 0 0 0 0 0 0 0 0 13 13 12 12 10 9 0 0 0 0 0 0 0 0 0 -193 9 9 10 11 0 0 0 0 0 0 0 0 0 0 0 0 0 0 0 0 0 0 0 8 9 9 9 11 10 11 10 9 0 9 9 0 0 0 9 0 9 0 0 0 9 9 9 0 0 0 9 10 10 10 10 9 10 9 9 9 8 0 0 0 9 11 11 11 12 15 21 -193 -209 -209 -209 -209 -193 102 102 101 102 101 101 101 101 101 101 101 101 100 100 102 101 100 98 97 98 102 102 102 101 102 102 105 106 -193 -209 -177 -193 -193 71 75 84 87 90 93 95 99 94 95 96 97 96 99 100 100 95 98 99 102 103 108 -177 -177 -177 480 484 10 12 11 16 19 17 17 14 14 14 17 17 16 16 16 16 18 16 19 21 -193 -209 -193 -177 -177 -177 -193 62 67 69 69 70 71 71 74 72 73 72 73 80 89 90 101 114 -193 -193 26 28 29 28 29 29 28 30 30 31 36 42 46 46 52 52 54 53 54 56 56 57 57 57 57 57 59 60 58 59 60 61 61 61 61 60 59 62 63 61 62 64 64 64 68 69 67 0 0 0 0 0
    0 0 0 0 0 0 0 0 0 0 0 0 0 0 0 0 0 0 0 0 0 0 0 0 0 0 0 0 0 0 0 0 0 0 0 0 0 0 0 0 0 0 0 0 0 0 0 0 0 0 0 0 0 0 0 0 0 0 0 0 0 0 0 0 0 0 0 0 0 12 12 12 11 10 9 9 0 0 0 0 0 0 0 0 -193 9 0 10 11 0 0 0 0 0 0 0 0 0 0 0 0 0 0 0 0 0 0 9 9 9 10 9 11 10 11 10 9 9 9 9 0 0 0 9 9 10 9 9 9 10 10 10 0 0 0 9 9 9 9 9 9 9 9 9 0 0 0 0 0 9 10 11 11 11 14 20 -177 -209 -209 -209 -209 -193 102 102 102 102 101 100 101 100 101 101 101 100 99 100 101 100 100 97 97 98 103 102 102 101 103 103 106 106 -193 -209 -177 -193 -209 70 74 81 86 90 93 95 99 94 95 96 97 96 98 100 100 95 98 99 103 104 110 -193 -177 -177 -209 -209 10 12 11 17 18 16 16 14 13 14 16 16 16 17 17 17 19 17 19 21 23 -193 -209 -193 -177 -209 -193 -193 67 71 71 72 74 73 75 75 75 76 75 82 89 92 99 110 -193 -209 26 29 29 29 29 30 29 30 31 33 37 44 48 48 52 53 54 53 54 56 56 57 57 57 57 57 59 61 58 59 60 61 61 61 61 60 58 62 63 61 63 64 64 65 68 69 66 0 0 0 0 0
    0 0 0 0 0 0 0 0 0 0 0 0 0 0 0 0 0 0 0 0 0 0 0 0 0 0 0 0 0 0 0 0 0 0 0 0 0 0 0 0 0 0 0 0 0 0 0 0 0 0 0 0 0 0 0 0 0 0 0 0 0 0 0 0 0 0 0 0 0 11 11 11 10 10 0 0 0 0 0 0 0 0 0 0 -193 0 0 10 10 0 0 0 0 0 0 0 0 0 0 0 0 0 0 0 0 0 0 9 9 9 11 10 12 11 12 11 9 9 9 9 0 0 0 10 9 11 10 10 10 10 10 10 0 0 0 9 0 0 9 0 9 9 0 9 0 0 0 0 0 9 10 11 11 11 14 19 -193 -209 -209 -209 -209 -193 102 102 102 101 101 100 101 100 101 100 100 99 99 100 101 100 100 98 98 99 103 103 103 102 104 104 106 107 -193 -193 -177 -193 -209 71 74 80 86 90 93 95 99 94 95 96 97 96 99 100 99 96 98 100 104 105 114 -193 -193 -193 -209 -193 10 12 12 19 17 16 16 13 13 14 16 15 16 17 17 18 20 18 19 21 22 22 23 -209 -177 -193 -177 -177 67 72 73 74 76 75 77 79 78 82 76 84 92 97 99 106 -193 -193 27 30 31 31 30 31 30 31 33 35 38 46 49 48 52 53 54 53 54 56 56 57 57 57 57 57 59 61 58 59 60 60 61 61 61 59 58 62 62 61 64 65 65 66 68 68 66 0 0 0 0 0
    0 0 0 0 0 0 0 0 0 0 0 0 0 0 0 0 0 0 0 0 0 0 0 0 0 0 0 0 0 0 0 0 0 0 0 0 0 0 0 0 0 0 0 0 0 0 0 0 0 0 0 0 0 0 0 0 0 0 0 0 0 0 0 0 0 0 0 0 0 10 10 10 10 9 0 0 0 0 0 0 0 0 0 0 0 0 0 10 10 0 0 0 0 0 0 0 0 0 0 0 0 0 0 0 0 0 0 9 9 9 11 10 12 11 12 11 9 9 9 9 0 0 0 10 9 11 10 10 10 10 10 10 0 0 0 9 0 0 0 0 0 8 0 0 0 9 9 9 0 10 11 11 11 12 14 18 -209 -209 -209 -209 -209 -193 101 101 102 101 101 100 101 100 100 100 100 99 99 100 101 99 99 98 98 100 104 103 103 102 105 105 106 107 -193 -193 -193 -193 -209 69 74 82 87 90 93 95 98 94 94 96 97 96 99 100 99 96 98 101 105 108 118 -193 116 118 -193 -193 -193 11 12 21 19 18 17 15 14 15 17 16 17 18 18 19 20 18 19 21 21 21 24 -209 -209 -177 -177 -177 -193 72 74 76 79 79 82 85 83 84 80 84 91 93 94 100 99 95 -193 33 34 34 33 34 34 34 36 38 40 49 50 49 52 53 54 53 54 56 55 57 58 57 57 57 59 61 58 60 60 60 61 61 61 59 58 62 62 61 64 64 65 66 68 69 67 0 0 0 0 0
    0 0 0 0 0 0 0 0 0 0 0 0 0 0 0 0 0 0 0 0 0 0 0 0 0 0 0 0 0 0 0 0 0 0 0 0 0 0 0 0 0 0 0 0 0 0 0 0 0 0 0 0 0 0 0 0 0 0 0 0 0 0 0 0 0 0 0 0 0 9 9 9 0 0 0 0 0 0 0 0 0 0 0 0 0 0 0 9 10 0 9 0 0 0 0 0 0 0 0 0 0 9 9 0 0 0 0 10 9 10 12 10 13 11 11 11 9 9 0 9 0 0 0 10 9 10 10 10 9 10 10 10 0 9 0 9 0 0 9 9 9 9 0 9 0 9 9 9 0 10 11 11 11 12 14 19 -209 -209 -209 -209 -209 102 100 101 101 101 100 100 101 100 100 100 100 99 99 100 101 99 99 98 98 100 104 104 103 103 106 106 107 108 109 -209 -193 -193 -209 -209 -209 86 88 90 93 96 98 95 94 97 97 97 99 100 99 96 98 101 107 115 -193 -193 118 -193 122 60 63 -209 -209 -193 23 21 20 17 18 19 19 17 18 18 18 19 20 18 18 20 19 20 21 17 18 -209 -177 -177 -209 75 79 82 85 85 86 87 85 86 83 85 90 91 91 92 90 93 94 -193 38 37 36 36 38 38 39 40 42 51 51 50 52 53 55 53 54 56 55 57 58 57 57 57 59 62 58 60 60 60 61 61 61 60 59 62 62 62 64 64 65 66 68 68 68 0 0 0 0 0
    0 0 0 0 0 0 0 0 0 0 0 0 0 0 0 0 0 0 0 0 0 0 0 0 0 0 0 0 0 0 0 0 0 0 0 0 0 0 0 0 0 0 0 0 0 0 0 0 0 0 0 0 0 0 0 0 0 0 0 0 0 0 0 0 0 0 0 0 0 9 9 9 9 9 0 0 0 0 0 0 0 0 0 0 0 0 0 9 10 0 9 9 0 0 0 0 0 0 0 0 0 9 9 9 9 9 9 12 11 11 18 11 14 12 12 11 9 9 0 9 9 0 0 10 9 10 10 10 10 10 10 10 0 10 9 9 9 9 10 10 10 10 9 9 9 9 9 9 9 10 11 11 11 13 15 -193 -209 -209 -209 -209 -209 102 99 100 101 100 100 100 101 100 100 101 100 100 100 100 101 99 99 98 98 100 104 103 103 103 105 106 107 107 109 -193 -193 -209 -209 -209 -193 86 88 90 92 95 97 94 94 97 97 98 99 100 98 96 97 101 109 -193 -193 -193 -193 -193 -193 -193 62 62 -193 46 47 -209 22 21 21 21 21 20 20 18 19 19 20 18 18 19 19 18 19 14 15 -209 -209 -209 -209 78 84 85 87 87 88 89 86 87 85 87 90 91 92 92 90 92 93 98 -209 39 39 39 41 40 40 43 46 53 52 51 52 53 55 53 54 56 55 57 58 57 56 57 59 61 58 60 60 60 61 61 61 60 59 62 62 62 63 64 64 65 67 67 67 0 0 0 0 0
    0 0 0 0 0 0 0 0 0 0 0 0 0 0 0 0 0 0 0 0 0 0 0 0 0 0 0 0 0 0 0 0 0 0 0 0 0 0 0 0 0 0 0 0 0 0 0 0 0 0 0 0 0 0 0 0 0 0 0 0 0 0 0 0 0 0 0 0 0 9 10 10 9 9 0 0 0 0 0 0 0 0 0 9 0 9 0 9 10 0 10 9 0 0 10 0 9 0 0 0 0 10 9 9 10 10 9 15 13 13 25 13 16 14 13 13 10 10 9 10 10 0 0 10 0 9 9 9 9 9 10 10 9 10 10 10 10 10 11 11 11 12 10 10 9 10 10 10 9 11 11 12 11 14 18 -209 -193 -209 -209 -209 -209 102 98 100 100 100 99 100 101 100 100 101 100 100 100 101 101 98 99 97 98 100 103 103 103 102 105 106 106 107 108 -209 -209 -193 -209 -209 -209 -209 86 89 91 94 96 94 93 96 96 98 99 99 98 96 96 101 110 -193 -193 -209 542 550 551 -209 61 61 59 55 54 43 -209 26 28 -193 23 22 22 20 19 19 20 18 18 19 18 17 18 14 14 -193 -209 -209 -209 80 87 87 89 89 89 89 86 86 85 85 88 88 89 89 89 90 91 95 94 94 97 -209 -209 51 48 51 51 54 53 52 53 53 54 53 53 55 54 56 57 57 56 56 58 61 58 60 60 60 61 61 61 60 59 62 62 62 63 63 63 64 66 66 67 0 0 0 0 0
    0 0 0 0 0 0 0 0 0 0 0 0 0 0 0 0 0 0 0 0 0 0 0 0 0 0 0 0 0 0 0 0 0 0 0 0 0 0 0 0 0 0 0 0 0 0 0 0 0 0 0 0 0 0 0 0 0 0 0 0 0 0 0 0 0 0 0 0 0 12 12 12 10 10 0 0 -193 0 0 0 9 9 9 10 -193 9 9 9 9 0 11 9 0 9 12 -209 -193 9 9 0 -193 11 10 10 12 13 11 21 18 16 27 15 17 17 15 15 10 11 9 9 10 0 0 9 0 9 9 9 9 9 10 10 0 11 10 10 10 9 10 11 11 12 10 10 10 11 11 12 -193 18 -193 14 -193 -193 -209 -209 -209 -209 -193 -209 -209 -193 97 99 100 99 99 99 100 99 99 100 100 99 100 101 101 99 100 97 99 100 103 102 102 102 104 105 105 106 107 -209 -209 -193 -209 -209 -209 -209 84 88 91 94 96 94 93 96 96 99 99 99 98 96 97 102 110 -193 -193 530 542 551 551 -209 61 61 59 57 56 44 39 38 39 41 40 27 -193 21 20 20 21 19 19 19 18 18 21 16 16 -193 -209 -209 -209 -193 87 88 89 89 89 90 86 85 83 84 85 85 87 87 87 88 90 94 94 95 99 97 -209 -209 -209 -209 -209 -193 53 51 52 53 53 52 53 55 54 55 56 56 56 55 57 60 58 60 60 60 61 61 61 60 60 61 61 61 62 62 62 63 65 66 67 0 0 0 0 0
    0 0 0 0 0 0 0 0 0 0 0 0 0 0 0 0 0 0 0 0 0 0 0 0 0 0 0 0 0 0 0 0 0 0 0 0 0 0 0 0 0 0 0 0 0 0 0 0 0 0 0 0 0 0 0 0 0 0 0 0 0 0 0 0 0 0 0 0 0 16 15 14 12 12 9 -209 -209 -209 -209 -209 -209 -209 -193 11 -193 -209 -193 0 0 0 0 0 0 0 -209 -209 -209 -209 -209 -209 -209 -209 -209 13 16 19 20 24 23 21 30 -209 21 21 20 19 12 13 10 9 10 0 0 9 0 9 9 0 10 10 10 10 0 11 11 11 11 0 10 11 10 11 10 9 10 12 -193 -209 -209 -193 -209 -209 -193 51 -193 51 -209 329 341 -177 -209 -209 97 97 98 97 98 99 99 97 98 99 99 99 100 100 99 99 100 98 100 101 103 102 102 102 103 103 104 103 -209 -209 -209 -177 -193 -209 -209 -209 85 87 91 94 96 96 94 97 97 99 99 99 97 96 97 102 110 -177 -193 525 539 551 552 -193 60 61 59 55 53 47 -209 41 43 45 44 42 43 23 22 22 22 20 20 20 19 17 -209 -209 -209 -209 -209 -193 -209 83 87 88 89 89 88 89 83 80 78 79 81 83 85 87 88 88 91 97 97 99 101 100 102 -209 -209 -209 66 65 55 54 53 54 54 53 53 55 54 55 56 56 55 55 57 59 58 61 60 60 60 61 61 60 59 60 61 61 61 61 62 63 65 65 67 0 0 0 0 0
    0 0 0 0 0 0 0 0 0 0 0 0 0 0 0 0 0 0 0 0 0 0 0 0 0 0 0 0 0 0 0 0 0 0 0 0 0 0 0 0 0 0 0 0 0 0 0 0 0 0 0 0 0 0 0 0 0 0 0 0 0 0 0 0 0 0 0 0 0 -193 21 21 14 16 -193 -209 -209 -209 -209 42 44 44 -209 -209 -209 -209 -209 0 -209 0 -209 -209 -193 -209 -193 -193 -193 -209 -193 -209 44 43 42 42 -193 36 34 36 29 26 35 41 29 36 -193 -193 -209 23 -193 0 9 0 0 10 9 9 9 9 10 10 10 -193 -209 11 14 19 -193 -209 12 14 10 12 -209 -193 10 15 -209 -193 -193 46 -193 -193 50 51 48 50 -193 327 -177 -193 -209 -209 96 95 96 96 95 98 98 97 98 99 99 100 100 100 99 100 101 99 101 102 103 102 101 101 101 101 101 101 -193 -209 -209 -177 -193 -209 -193 -209 86 87 91 94 97 97 95 98 97 100 99 99 97 96 98 102 113 -177 -193 -177 537 550 551 -209 60 61 60 55 53 -209 -193 43 48 53 53 49 53 52 26 24 23 22 21 21 20 18 -209 -193 -209 -209 -209 -193 -209 85 87 89 90 89 88 89 78 75 74 76 77 80 83 86 88 87 91 97 98 100 102 99 101 96 92 92 -209 -209 -209 57 57 57 55 54 54 55 54 55 56 55 55 55 56 59 58 61 60 60 60 60 61 60 59 60 60 60 61 60 61 62 64 65 67 0 0 0 0 0
    0 0 0 0 0 0 0 0 0 0 0 0 0 0 0 0 0 0 0 0 0 0 0 0 0 0 0 0 0 0 0 0 0 0 0 0 0 0 0 0 0 0 0 0 0 0 0 0 0 0 0 0 0 0 0 0 0 0 0 0 0 0 0 0 0 0 0 0 0 43 -193 -193 -209 25 34 -209 -209 42 43 44 45 45 46 44 43 45 -209 -209 -209 -193 -209 -209 -209 49 -193 -193 -193 -193 46 48 46 45 44 44 43 42 41 42 41 36 39 43 41 42 44 44 42 41 42 -193 12 0 0 12 -193 -193 -193 -209 -209 -209 -193 -193 -209 -209 -193 30 38 41 42 -193 -193 42 44 44 -193 -193 49 52 -193 47 48 47 49 50 48 50 49 -193 -193 -209 -209 -209 95 93 95 95 95 98 98 97 98 99 100 100 101 101 99 100 101 100 102 102 103 102 101 101 101 101 99 99 -209 -209 -209 -209 -193 -209 -193 -193 87 88 91 94 97 97 95 98 96 100 100 99 97 98 100 103 114 -177 -209 -209 -209 549 550 -193 60 60 60 56 53 52 -193 48 53 57 58 56 58 62 -209 24 21 20 20 21 20 17 -209 -193 -193 -209 -209 -209 -209 85 87 88 90 89 84 73 74 72 72 74 75 77 79 85 88 86 91 97 95 99 99 94 96 92 91 93 99 101 -209 -209 64 65 56 54 53 55 53 55 55 55 55 55 56 59 58 61 60 60 60 60 60 60 60 60 60 60 61 60 61 61 63 64 68 0 0 0 0 0
    0 0 0 0 0 0 0 0 0 0 0 0 0 0 0 0 0 0 0 0 0 0 0 0 0 0 0 0 0 0 0 0 0 0 0 0 0 0 0 0 0 0 0 0 0 0 0 0 0 0 0 0 0 0 0 0 0 0 0 0 0 0 0 0 0 0 0 0 0 44 44 43 44 42 43 44 44 44 45 45 46 46 47 46 44 47 47 -193 -193 -209 44 -193 47 49 49 49 47 49 47 49 48 46 45 45 45 44 43 45 43 41 42 46 44 45 47 47 45 43 45 46 -209 10 11 -193 -193 -209 -193 -193 -193 -177 -209 -209 -209 29 40 38 41 42 43 45 45 44 45 46 46 47 50 52 46 48 48 47 49 50 48 49 48 50 51 -209 -209 -209 -209 92 93 93 93 98 98 98 98 99 100 100 101 100 99 100 101 98 101 101 102 101 100 99 100 99 97 96 -193 -193 -209 62 73 -209 -193 87 88 88 91 94 97 97 96 99 96 100 100 99 98 99 100 103 113 -177 -209 -209 -193 -193 -209 57 59 60 60 55 52 52 49 50 55 60 64 59 65 69 63 -209 20 19 20 21 21 19 -193 -193 -209 -209 -209 -209 85 86 87 87 89 87 77 72 72 71 72 72 73 75 76 81 -193 81 89 96 95 100 99 95 97 93 93 95 103 106 104 -209 -209 -209 -193 570 -193 -193 53 55 55 54 54 54 55 58 58 60 59 59 59 60 60 60 60 60 61 60 61 61 61 61 63 65 68 0 0 0 0 0
    0 0 0 0 0 0 0 0 0 0 0 0 0 0 0 0 0 0 0 0 0 0 0 0 0 0 0 0 0 0 0 0 0 0 0 0 0 0 0 0 0 0 0 0 0 0 0 0 0 0 0 0 0 0 0 0 0 0 0 0 0 0 0 0 0 0 0 0 0 46 46 46 47 44 46 47 46 46 47 46 47 47 48 48 46 49 48 48 48 48 47 47 48 49 51 50 49 50 48 50 49 48 48 47 46 46 45 46 45 43 45 49 46 49 50 50 49 47 48 49 -193 -209 21 22 -193 -209 -209 -193 -177 -177 -193 -193 40 40 41 40 43 43 44 46 46 45 46 47 47 47 51 52 46 49 49 48 50 50 48 49 47 50 50 55 -209 -209 -209 -209 -193 -193 -193 97 96 97 98 99 100 100 100 100 100 100 100 97 101 101 101 100 100 99 100 99 97 94 -193 -209 -209 66 71 -193 79 85 87 87 90 93 97 96 95 98 97 100 101 99 98 100 100 103 110 -177 -209 -193 -193 -193 -193 57 58 59 59 52 52 53 -193 52 55 63 70 66 69 71 66 -193 -193 18 20 22 22 20 25 -193 -193 -209 -209 -209 84 85 86 86 87 85 76 71 71 71 71 72 73 73 74 77 78 77 87 94 93 100 99 96 97 94 96 101 105 109 107 107 108 -209 -193 -193 829 -193 -193 -193 54 54 54 54 55 57 57 59 59 59 59 59 60 60 60 61 61 61 62 61 61 61 63 65 67 0 0 0 0 0
    0 0 0 0 0 0 0 0 0 0 0 0 0 0 0 0 0 0 0 0 0 0 0 0 0 0 0 0 0 0 0 0 0 0 0 0 0 0 0 0 0 0 0 0 0 0 0 0 0 0 0 0 0 0 0 0 0 0 0 0 0 0 0 0 0 0 0 0 0 46 46 46 47 45 46 48 46 46 48 47 48 47 49 49 47 50 49 49 50 50 49 49 49 50 51 51 51 51 49 50 50 49 49 48 48 46 46 48 47 47 49 51 49 51 52 51 50 49 49 50 44 -209 36 -193 -193 -193 -193 -209 -209 -209 43 43 42 42 42 43 46 45 46 48 47 46 48 48 48 48 51 53 48 50 49 48 50 50 49 49 47 50 50 53 54 -209 -209 -193 -209 628 -193 96 95 96 98 98 100 100 100 100 100 100 100 97 101 101 101 100 100 98 100 99 97 94 -193 -193 70 67 69 74 77 83 85 86 89 92 96 96 96 97 98 100 101 99 98 100 100 103 113 -193 -209 -209 -193 64 57 57 58 58 59 50 49 53 -209 -209 56 68 73 70 72 72 70 62 62 -193 20 22 23 22 27 -209 -209 -209 -209 -209 83 83 84 84 85 83 76 71 71 71 71 72 73 73 74 76 -193 -193 81 91 90 100 100 96 98 96 101 104 107 112 110 109 110 109 -193 -193 833 -193 -177 -177 53 53 54 54 55 57 57 59 59 59 59 59 61 60 60 61 62 61 62 61 62 61 62 65 66 0 0 0 0 0
    0 0 0 0 0 0 0 0 0 0 0 0 0 0 0 0 0 0 0 0 0 0 0 0 0 0 0 0 0 0 0 0 0 0 0 0 0 0 0 0 0 0 0 0 0 0 0 0 0 0 0 0 0 0 0 0 0 0 0 0 0 0 0 0 0 0 0 0 0 47 47 46 47 45 46 48 46 46 48 47 49 48 50 49 48 51 50 50 50 50 50 50 50 51 51 51 51 51 49 50 50 49 49 49 48 47 48 50 50 52 52 53 51 52 52 51 51 50 49 51 46 52 43 46 45 -193 46 45 45 45 45 45 44 45 45 48 50 48 49 50 49 49 50 50 49 49 52 53 49 51 50 49 50 50 49 50 47 50 49 52 53 -193 -193 53 -209 -193 -193 -209 -193 -193 99 97 99 99 100 99 101 100 100 97 101 101 101 100 100 98 100 99 97 94 -193 74 72 70 70 75 -193 84 86 87 90 94 100 99 98 97 98 99 100 98 97 99 100 103 115 -193 -209 68 67 64 58 59 60 59 60 45 46 51 -209 -209 57 70 75 73 73 73 72 -209 67 -193 20 23 24 23 29 -209 -209 -209 -209 -193 82 82 83 84 84 81 76 71 71 70 70 71 72 72 72 73 -209 -193 74 84 -209 101 -209 96 101 98 102 106 111 115 113 110 111 111 111 109 -193 -209 -177 -177 53 53 54 54 56 57 57 59 59 59 58 59 60 60 60 61 62 61 62 61 62 62 62 65 66 0 0 0 0 0
    0 0 0 0 0 0 0 0 0 0 0 0 0 0 0 0 0 0 0 0 0 0 0 0 0 0 0 0 0 0 0 0 0 0 0 0 0 0 0 0 0 0 0 0 0 0 0 0 0 0 0 0 0 0 0 0 0 0 0 0 0 0 0 0 0 0 0 0 0 47 47 46 47 45 46 49 47 46 49 48 50 49 50 50 49 51 51 50 50 50 50 50 51 52 51 52 52 51 50 51 50 49 49 49 49 47 49 51 51 53 52 53 51 52 52 52 51 51 49 52 47 54 49 52 47 49 48 47 47 47 46 47 46 49 48 52 52 51 51 51 51 50 51 50 50 50 51 53 49 52 50 50 51 51 50 50 47 50 49 51 53 51 52 53 55 -209 -209 -209 -209 -193 99 96 99 99 99 99 101 100 99 96 101 101 101 100 100 98 101 99 97 93 -193 74 72 70 71 76 -193 86 88 88 91 96 101 100 99 97 98 98 98 97 97 99 100 103 117 -193 -193 67 66 63 59 59 61 60 61 42 45 -209 -209 -209 -209 -193 79 75 74 74 73 -193 -193 -209 -193 24 25 25 -193 344 -209 -209 -209 82 82 83 84 84 83 80 75 71 71 70 70 70 71 -193 71 -193 -193 68 -209 -209 45 52 -209 -209 103 99 104 109 114 116 115 111 111 112 112 110 109 110 -193 -193 -193 53 54 55 56 58 58 59 59 59 58 59 60 60 60 61 62 61 62 61 62 62 63 66 66 0 0 0 0 0
    0 0 0 0 0 0 0 0 0 0 0 0 0 0 0 0 0 0 0 0 0 0 0 0 0 0 0 0 0 0 0 0 0 0 0 0 0 0 0 0 0 0 0 0 0 0 0 0 0 0 0 0 0 0 0 0 0 0 0 0 0 0 0 0 0 0 0 0 0 48 48 47 48 46 47 49 47 47 50 49 50 50 51 51 50 52 51 51 51 51 51 51 52 53 52 53 53 52 51 51 51 50 50 50 50 49 51 52 52 54 53 54 52 53 52 52 51 52 50 53 51 56 53 54 50 51 49 48 48 48 46 47 46 50 50 52 52 51 51 52 51 50 51 50 49 49 51 53 50 52 51 50 51 51 50 50 47 50 49 51 52 51 52 53 55 -193 -209 -209 -209 -177 -193 96 98 98 99 99 101 99 99 95 101 101 101 100 100 98 101 100 98 92 -193 73 71 -193 -193 76 84 88 89 90 92 96 100 99 99 97 98 98 98 98 97 98 100 103 116 -193 -193 67 -193 -193 59 60 62 61 62 57 53 59 -209 -209 67 72 82 75 75 75 -193 -193 -177 -177 -177 -209 -193 -193 -209 339 343 -193 -193 -193 83 84 84 84 83 79 75 71 71 70 70 70 71 70 70 -193 -193 61 -209 -209 43 48 56 -193 -209 93 103 110 116 116 115 112 112 114 112 111 110 111 111 -193 -193 54 54 55 56 57 58 58 58 58 58 59 60 60 60 61 62 61 63 62 63 63 63 66 66 0 0 0 0 0
    0 0 0 0 0 0 0 0 0 0 0 0 0 0 0 0 0 0 0 0 0 0 0 0 0 0 0 0 0 0 0 0 0 0 0 0 0 0 0 0 0 0 0 0 0 0 0 0 0 0 0 0 0 0 0 0 0 0 0 0 0 0 0 0 0 0 0 0 0 50 49 48 49 46 47 49 48 48 51 49 51 51 51 51 50 52 52 51 52 51 52 52 53 53 53 53 53 52 52 52 52 50 51 51 51 50 52 53 53 54 54 54 52 53 53 52 52 53 51 53 53 55 54 55 51 52 50 50 49 48 47 48 47 50 51 53 53 52 51 52 51 51 51 50 49 49 52 53 50 52 51 51 52 51 51 50 48 51 50 52 53 52 52 53 54 -193 -177 -177 -209 -193 -209 -193 99 99 99 99 102 99 99 95 100 101 100 100 100 97 101 100 98 -193 -193 -209 -209 -193 -209 78 85 89 90 90 92 97 100 99 99 97 98 99 99 98 97 98 100 103 112 92 -193 66 -193 829 60 61 62 62 62 57 58 59 58 67 63 70 80 75 75 -193 -193 -193 -177 -193 -193 -193 -209 50 62 -209 -193 -177 -193 -193 84 -193 85 84 82 78 76 71 71 70 70 70 71 69 69 71 68 -193 58 48 44 49 56 -193 -209 95 103 110 116 115 116 112 112 114 113 111 111 111 112 109 115 53 54 55 57 58 58 58 59 58 58 59 60 60 61 61 63 62 63 63 64 64 64 67 66 0 0 0 0 0
    0 0 0 0 0 0 0 0 0 0 0 0 0 0 0 0 0 0 0 0 0 0 0 0 0 0 0 0 0 0 0 0 0 0 0 0 0 0 0 0 0 0 0 0 0 0 0 0 0 0 0 0 0 0 0 0 0 0 0 0 0 0 0 0 0 0 0 0 0 51 50 49 50 48 48 50 49 49 52 51 52 52 52 52 51 53 53 52 53 52 53 53 54 55 54 54 54 53 53 52 52 51 51 51 51 51 53 53 53 54 54 54 53 53 53 52 52 53 51 54 53 55 53 54 52 52 51 51 50 49 48 49 48 51 52 53 53 52 52 52 51 51 51 50 50 51 53 54 51 53 52 52 52 52 51 51 49 52 52 52 53 52 53 53 54 -193 -177 -209 -209 -209 -209 -193 99 -177 99 100 103 99 99 96 100 100 99 99 100 96 102 101 100 -193 -193 -193 -193 70 -209 78 85 89 89 90 92 98 100 99 99 97 99 99 98 99 97 98 100 102 107 92 -193 66 828 829 60 61 62 62 62 57 57 57 57 62 61 69 77 74 75 -193 -193 -193 -193 -193 -193 67 68 55 66 -193 -209 -177 -193 -193 -193 338 -193 83 80 78 76 71 71 71 70 70 71 69 69 70 68 59 57 52 48 52 56 70 -177 -177 107 114 118 117 118 114 114 115 114 113 112 112 112 108 115 53 54 55 57 57 58 58 58 59 59 60 60 60 61 62 65 63 64 64 64 65 65 67 66 0 0 0 0 0
    0 0 0 0 0 0 0 0 0 0 0 0 0 0 0 0 0 0 0 0 0 0 0 0 0 0 0 0 0 0 0 0 0 0 0 0 0 0 0 0 0 0 0 0 0 0 0 0 0 0 0 0 0 0 0 0 0 0 0 0 0 0 0 0 0 0 0 0 0 52 52 50 51 50 50 51 51 50 53 52 54 53 53 53 52 53 53 53 54 53 54 55 56 57 57 56 56 54 54 53 53 51 52 52 52 51 53 53 53 54 54 54 53 54 54 53 53 54 52 54 55 55 53 54 53 53 52 52 51 50 49 51 50 52 53 54 53 53 52 53 51 51 52 51 51 52 53 54 52 54 53 53 53 52 52 51 49 53 53 53 54 53 53 53 54 -193 -177 -209 -209 -209 -209 96 98 -177 99 100 103 99 99 96 99 99 99 99 99 96 102 101 101 67 71 -193 70 69 71 76 -193 -193 87 90 92 98 100 99 99 97 98 99 98 98 96 97 99 100 103 92 -193 66 827 829 60 61 62 62 62 57 57 57 57 61 61 69 77 75 75 75 -193 -193 -193 -193 -193 66 66 55 64 -209 -209 -177 -193 -193 -193 338 -193 83 80 78 76 71 72 71 70 70 71 70 69 70 69 61 59 56 53 54 57 70 -209 -193 -177 117 120 119 119 115 115 116 115 114 113 112 112 108 115 54 54 54 57 57 58 58 58 59 59 60 60 60 61 61 65 63 64 64 64 65 65 67 66 0 0 0 0 0
    0 0 0 0 0 0 0 0 0 0 0 0 0 0 0 0 0 0 0 0 0 0 0 0 0 0 0 0 0 0 0 0 0 0 0 0 0 0 0 0 0 0 0 0 0 0 0 0 0 0 0 0 0 0 0 0 0 0 0 0 0 0 0 0 0 0 0 0 0 54 53 52 52 52 52 53 52 52 54 54 55 54 53 54 53 54 54 54 55 55 56 57 58 58 57 57 56 54 54 53 53 52 53 53 53 52 54 54 54 55 54 54 54 55 55 54 54 55 52 55 56 55 54 54 54 54 53 54 52 51 51 53 54 54 55 55 54 54 53 53 52 52 52 52 52 53 54 55 53 54 53 53 53 52 52 51 49 54 54 54 54 54 54 54 55 -193 -177 -193 -193 -209 -193 94 98 99 99 100 103 99 99 96 99 99 99 99 99 96 102 102 102 66 70 -209 -193 69 71 75 -193 -193 86 89 91 98 100 99 99 97 98 98 98 98 96 95 98 99 103 94 -193 65 -193 -193 60 60 61 61 61 57 57 57 58 63 62 69 77 75 75 75 75 74 -193 76 76 65 65 56 63 79 -209 -193 -193 -193 -193 -193 -193 -193 79 78 76 72 72 71 70 70 71 70 69 70 68 62 61 59 57 57 58 68 -209 -209 -177 118 -193 120 120 116 116 117 116 115 114 112 113 107 114 55 55 55 57 57 59 58 59 59 59 60 61 61 61 61 64 63 63 63 64 65 65 67 66 0 0 0 0 0
    0 0 0 0 0 0 0 0 0 0 0 0 0 0 0 0 0 0 0 0 0 0 0 0 0 0 0 0 0 0 0 0 0 0 0 0 0 0 0 0 0 0 0 0 0 0 0 0 0 0 0 0 0 0 0 0 0 0 0 0 0 0 0 0 0 0 0 0 0 54 53 52 53 54 53 54 54 54 55 55 55 55 54 54 53 54 54 54 56 55 57 57 58 58 58 57 57 55 55 54 54 53 54 54 54 54 55 55 55 55 55 55 54 55 55 54 54 55 52 55 56 55 54 55 55 54 54 55 54 53 54 56 58 56 58 57 55 55 54 54 54 53 53 53 52 54 54 56 54 55 54 54 53 53 53 52 50 54 55 54 55 55 55 55 56 -193 -177 -177 -193 -209 -193 92 97 99 99 100 102 99 99 96 99 98 98 98 99 96 102 101 102 66 71 -209 -193 68 72 -193 -193 -193 87 90 91 98 100 99 99 97 98 97 97 98 95 94 99 99 103 97 96 65 64 -193 59 60 61 61 61 57 58 58 59 65 63 70 77 75 75 75 75 75 75 76 76 66 65 58 64 74 -193 -209 -193 -193 -193 338 -193 -193 78 78 76 72 72 71 70 70 71 70 68 69 67 62 62 60 60 59 60 67 -209 -177 -177 -193 -193 121 121 117 117 118 -193 116 -193 -193 -193 107 113 56 56 56 58 58 60 58 60 60 60 61 61 61 62 61 64 62 63 63 63 65 64 66 65 0 0 0 0 0
    0 0 0 0 0 0 0 0 0 0 0 0 0 0 0 0 0 0 0 0 0 0 0 0 0 0 0 0 0 0 0 0 0 0 0 0 0 0 0 0 0 0 0 0 0 0 0 0 0 0 0 0 0 0 0 0 0 0 0 0 0 0 0 0 0 0 0 0 0 55 54 54 54 56 56 55 55 55 56 55 56 55 54 54 53 54 54 54 56 56 58 58 59 58 58 57 57 56 56 55 55 54 55 55 55 55 56 55 55 56 55 55 55 56 56 54 55 56 54 56 56 56 55 55 56 55 55 55 55 54 55 56 59 57 58 58 56 56 55 55 55 53 54 54 53 54 54 57 55 56 55 55 55 54 54 54 51 55 55 55 56 56 56 56 57 57 -177 -193 62 71 -209 92 96 99 100 100 103 99 99 97 99 97 98 98 99 95 101 101 101 67 71 -209 69 68 72 75 -193 85 88 91 91 99 100 99 99 98 98 97 98 98 95 94 99 98 101 98 98 66 65 63 59 60 60 60 61 57 58 58 59 66 64 70 78 75 76 76 76 75 75 76 77 65 64 58 63 75 -193 88 -193 -193 -193 -193 -193 338 -193 78 76 72 72 71 70 69 70 70 67 68 66 62 63 61 60 59 60 67 -209 -177 -193 119 131 123 122 118 118 118 -193 117 -193 -193 -193 107 114 57 57 57 59 58 60 59 60 60 60 61 61 61 62 61 64 62 63 63 64 65 65 66 65 0 0 0 0 0
    0 0 0 0 0 0 0 0 0 0 0 0 0 0 0 0 0 0 0 0 0 0 0 0 0 0 0 0 0 0 0 0 0 0 0 0 0 0 0 0 0 0 0 0 0 0 0 0 0 0 0 0 0 0 0 0 0 0 0 0 0 0 0 0 0 0 0 0 0 57 56 56 56 58 57 57 56 55 56 56 56 56 55 55 54 54 55 55 58 57 58 58 59 58 58 58 58 57 57 56 56 55 56 56 56 56 56 56 56 56 56 56 56 57 58 56 56 57 56 56 57 57 56 56 57 56 55 56 55 55 55 56 59 57 59 58 57 57 56 56 55 54 55 54 54 55 55 58 56 56 56 55 55 55 55 55 52 56 56 56 56 58 57 57 58 58 58 -193 62 71 -209 92 97 100 101 102 103 99 99 98 99 97 98 98 98 95 100 100 101 67 71 -209 66 66 71 73 79 85 88 92 92 99 101 99 99 99 98 98 99 99 96 94 99 97 98 98 96 67 66 64 60 60 60 60 60 57 58 58 59 65 63 70 78 75 76 76 76 -177 75 77 77 64 63 58 62 76 -193 -193 89 -193 -193 -193 -193 339 338 78 77 72 71 70 70 69 70 69 67 68 65 62 64 61 62 60 61 67 -209 -177 -177 120 131 124 123 118 118 119 118 117 -193 -193 -193 -193 -193 60 60 59 60 60 61 60 60 61 61 61 61 61 61 61 64 63 63 64 64 65 65 66 65 0 0 0 0 0
    0 0 0 0 0 0 0 0 0 0 0 0 0 0 0 0 0 0 0 0 0 0 0 0 0 0 0 0 0 0 0 0 0 0 0 0 0 0 0 0 0 0 0 0 0 0 0 0 0 0 0 0 0 0 0 0 0 0 0 0 0 0 0 0 0 0 0 0 0 58 57 57 57 59 58 58 57 56 57 56 57 56 55 56 55 56 58 57 60 58 59 59 59 59 59 58 58 57 58 57 58 57 57 57 57 56 57 57 56 57 57 57 57 58 60 57 57 59 57 57 57 57 57 57 57 57 56 56 56 56 56 56 60 58 59 59 59 58 58 57 57 55 56 56 55 56 56 59 56 57 56 56 55 55 56 55 52 56 57 57 57 59 58 58 58 58 58 58 62 70 -209 -209 98 102 104 103 104 101 100 99 100 98 98 97 99 96 100 100 101 -193 -193 -209 65 66 70 73 79 86 89 92 92 99 101 100 100 100 99 99 100 100 97 95 98 96 96 96 92 69 68 65 60 60 59 59 60 57 57 57 59 65 63 70 78 75 76 76 75 -177 75 76 76 63 62 58 62 -193 -209 -193 88 -193 83 -193 -193 339 338 77 77 71 71 70 69 68 69 68 66 67 65 63 64 61 62 61 61 66 70 -177 -209 -177 -177 124 124 119 119 119 118 117 -193 113 -193 107 114 -193 61 61 62 61 62 60 60 61 61 61 61 61 61 61 64 63 63 64 65 65 65 66 65 0 0 0 0 0
    0 0 0 0 0 0 0 0 0 0 0 0 0 0 0 0 0 0 0 0 0 0 0 0 0 0 0 0 0 0 0 0 0 0 0 0 0 0 0 0 0 0 0 0 0 0 0 0 0 0 0 0 0 0 0 0 0 0 0 0 0 0 0 0 0 0 0 0 0 59 58 58 58 61 59 58 58 57 58 57 58 58 57 58 58 58 60 59 61 59 60 59 60 59 59 58 59 58 59 58 59 58 58 58 58 58 58 58 57 57 58 58 57 59 60 57 58 59 57 57 58 57 57 57 57 57 56 57 56 56 57 58 61 59 60 60 60 59 59 59 58 56 57 57 56 56 57 59 57 57 57 57 57 57 57 57 54 57 59 59 59 60 60 59 59 59 59 59 62 70 -209 -209 99 103 105 104 104 102 101 101 100 98 97 97 99 96 99 100 100 -193 71 -209 65 65 70 72 80 86 89 92 92 99 102 101 101 101 100 100 101 101 98 96 98 96 94 94 91 -193 69 66 60 59 59 59 59 57 57 57 61 65 64 70 78 75 76 75 75 75 75 76 75 63 62 59 63 71 -209 78 88 82 82 83 -193 338 -193 77 76 71 71 70 69 68 69 68 67 67 65 63 64 62 62 61 62 66 70 -209 -209 -177 -177 125 125 119 119 119 118 117 -193 113 113 107 114 -193 63 63 64 63 64 61 61 62 61 62 61 61 61 61 63 63 63 64 65 65 65 66 65 0 0 0 0 0
    0 0 0 0 0 0 0 0 0 0 0 0 0 0 0 0 0 0 0 0 0 0 0 0 0 0 0 0 0 0 0 0 0 0 0 0 0 0 0 0 0 0 0 0 0 0 0 0 0 0 0 0 0 0 0 0 0 0 0 0 0 0 0 0 0 0 0 0 0 64 62 61 60 64 61 60 60 60 -193 60 -193 63 61 63 66 -193 64 61 64 60 61 60 60 60 60 59 60 59 60 59 61 60 60 60 60 60 60 61 60 61 62 62 61 64 65 -193 59 61 58 57 58 58 57 57 58 57 56 57 56 57 58 60 63 60 61 61 60 60 59 59 58 57 57 57 57 57 58 60 59 58 58 58 58 58 59 58 57 59 62 62 60 62 62 60 61 61 60 60 62 70 -209 -209 99 104 106 104 104 102 101 101 100 98 97 96 98 96 98 99 99 -193 71 70 63 64 69 72 81 87 90 93 93 100 102 101 101 101 101 101 101 101 98 97 98 96 94 94 91 -193 70 66 60 59 59 59 60 58 60 60 67 68 67 71 77 75 75 75 75 -177 75 75 75 63 62 61 65 71 -193 83 88 83 83 84 -193 338 338 77 76 71 70 69 69 68 69 68 68 67 66 63 65 63 63 62 62 66 70 -209 -177 -177 -177 125 125 119 118 119 118 117 -193 113 113 107 113 -193 63 64 64 64 63 61 61 63 62 62 61 62 62 62 63 63 64 64 66 65 65 66 65 0 0 0 0 0
    0 0 0 0 0 0 0 0 0 0 0 0 0 0 0 0 0 0 0 0 0 0 0 0 0 0 0 0 0 0 0 0 0 0 0 0 0 0 0 0 0 0 0 0 0 0 0 0 0 0 0 0 0 0 0 0 0 0 0 0 0 0 0 0 0 0 0 0 0 67 66 65 63 68 65 62 63 -193 -193 -193 -209 -193 72 73 -193 -209 -193 66 68 61 63 61 62 61 61 61 63 61 62 61 64 62 63 63 64 65 64 67 68 70 72 73 74 74 74 -193 -209 73 63 58 58 59 58 58 60 58 57 58 58 60 60 62 64 61 61 61 61 60 60 59 58 57 57 -193 -193 57 59 61 60 59 59 59 59 60 61 59 59 62 66 67 63 65 65 62 62 62 62 61 64 71 -193 -209 98 103 105 104 104 102 101 101 100 98 98 97 99 96 98 99 99 -193 71 70 64 65 70 75 87 89 91 93 94 100 102 101 101 101 101 102 102 101 98 97 98 96 94 94 91 -193 71 66 61 59 59 60 63 62 70 70 72 71 70 72 78 75 75 74 -177 -193 74 75 75 65 63 62 67 72 78 86 90 84 85 -193 337 337 338 -193 -193 71 70 68 69 68 68 68 68 68 66 63 66 63 64 63 63 66 70 -209 -177 -177 -177 124 125 118 118 118 117 116 115 113 113 107 113 -193 64 64 63 64 63 62 62 63 63 63 62 64 63 64 63 63 65 65 67 66 66 66 66 0 0 0 0 0
    0 0 0 0 0 0 0 0 0 0 0 0 0 0 0 0 0 0 0 0 0 0 0 0 0 0 0 0 0 0 0 0 0 0 0 0 0 0 0 0 0 0 0 0 0 0 0 0 0 0 0 0 0 0 0 0 0 0 0 0 0 0 0 0 0 0 0 0 0 70 68 68 68 70 69 66 68 -209 -193 -209 76 77 77 78 79 -193 -193 72 73 63 66 62 64 64 65 65 68 66 66 64 67 67 66 67 68 69 69 71 72 74 74 76 77 77 76 -193 76 76 75 -193 60 61 61 63 66 65 60 62 71 68 64 66 65 61 62 62 62 61 60 59 59 57 58 -193 -193 58 61 62 62 62 61 62 61 62 64 62 62 68 70 71 68 68 68 65 65 66 -193 -193 67 73 83 -209 97 102 104 103 103 102 101 101 100 99 98 97 99 96 98 100 99 -193 74 76 69 69 72 84 90 91 92 94 94 100 102 101 100 101 102 102 102 101 99 98 98 96 94 94 91 92 -209 66 62 61 61 63 69 70 75 78 77 75 72 72 79 75 75 74 -177 -177 74 75 75 68 67 66 72 80 85 87 90 86 87 -193 336 337 337 -193 -177 -193 70 68 69 68 68 67 67 67 66 63 67 64 65 63 65 67 71 -193 -177 -177 -177 123 124 118 117 118 117 116 114 113 113 107 113 -193 64 64 64 65 63 64 62 63 65 65 64 66 65 67 62 64 66 66 67 65 65 66 66 0 0 0 0 0
    0 0 0 0 0 0 0 0 0 0 0 0 0 0 0 0 0 0 0 0 0 0 0 0 0 0 0 0 0 0 0 0 0 0 0 0 0 0 0 0 0 0 0 0 0 0 0 0 0 0 0 0 0 0 0 0 0 0 0 0 0 0 0 0 0 0 0 0 0 72 72 72 71 73 72 72 73 77 78 78 82 82 82 82 83 83 79 77 78 -193 70 67 69 70 70 72 72 72 70 69 70 71 69 70 71 73 73 74 75 77 76 79 80 79 79 78 77 78 76 -193 72 71 70 73 73 74 73 73 75 74 69 71 66 62 62 63 62 61 61 60 59 58 -193 -193 -177 -209 65 66 66 66 64 66 65 66 67 66 68 72 73 74 71 71 72 69 69 -193 -193 -193 -193 75 85 -209 95 101 103 102 102 102 102 101 100 100 99 98 100 97 97 99 96 84 79 86 -193 72 79 89 91 92 93 95 95 99 101 101 100 101 102 102 101 101 99 98 98 96 94 93 90 91 88 -193 66 66 66 69 73 78 80 84 83 80 75 76 82 76 75 75 -177 74 75 76 76 71 71 70 77 85 86 88 90 87 87 -193 336 336 337 -193 -177 -193 -193 68 69 68 68 67 68 68 67 63 69 66 67 63 65 68 72 -193 -177 121 -193 123 123 117 117 117 116 115 113 113 113 107 112 -193 64 64 65 66 64 66 63 64 66 66 67 67 66 68 63 66 68 67 68 65 66 66 66 0 0 0 0 0
    0 0 0 0 0 0 0 0 0 0 0 0 0 0 0 0 0 0 0 0 0 0 0 0 0 0 0 0 0 0 0 0 0 0 0 0 0 0 0 0 0 0 0 0 0 0 0 0 0 0 0 0 0 0 0 0 0 0 0 0 0 0 0 0 0 0 0 0 0 75 74 74 73 75 75 76 76 82 83 83 85 85 84 84 84 84 82 81 82 75 73 -193 -209 75 75 76 76 76 74 73 72 -193 72 73 75 77 76 77 78 81 78 82 82 81 81 79 79 80 78 77 75 75 74 77 77 78 77 77 79 78 74 75 68 64 64 64 63 61 61 60 59 -193 -193 -193 -193 -193 -193 70 69 -193 69 69 69 69 70 -193 72 74 75 76 75 74 75 72 -193 -209 -209 -193 -193 78 86 -209 93 100 102 101 102 103 102 102 99 101 99 98 100 97 95 98 91 83 80 84 78 76 83 90 91 92 93 95 96 99 101 101 100 102 102 102 101 101 99 98 97 96 93 93 89 90 87 -193 69 68 68 70 75 83 83 85 84 83 79 80 84 77 76 76 75 75 75 76 78 73 76 74 83 87 87 88 89 87 88 89 -193 -177 -193 -193 -193 -193 71 68 69 69 69 68 69 69 69 65 71 70 68 64 65 68 72 85 -177 -177 -209 121 121 117 116 117 116 115 112 112 113 107 112 113 64 64 64 65 63 66 63 64 65 66 67 66 66 69 65 67 69 67 69 66 67 68 67 0 0 0 0 0
    0 0 0 0 0 0 0 0 0 0 0 0 0 0 0 0 0 0 0 0 0 0 0 0 0 0 0 0 0 0 0 0 0 0 0 0 0 0 0 0 0 0 0 0 0 0 0 0 0 0 0 0 0 0 0 0 0 0 0 0 0 0 0 0 0 0 0 0 0 77 77 77 76 78 77 79 79 84 84 84 86 85 85 85 84 84 82 82 83 77 77 80 78 80 79 78 79 79 76 76 74 78 75 76 79 81 80 81 81 83 80 84 84 83 82 81 81 82 80 81 79 81 78 82 81 82 81 81 82 81 77 78 71 68 68 67 66 64 63 62 60 -209 -209 -209 -209 -209 -193 -193 -193 -209 -193 -193 -193 71 -193 -209 75 76 78 78 78 77 78 75 75 75 -193 -193 -193 81 86 -209 93 98 101 101 101 103 102 102 99 101 98 97 99 96 92 94 87 84 82 83 81 80 84 90 90 91 93 95 96 98 101 100 99 101 102 102 101 101 99 98 97 95 93 92 89 90 87 -193 71 70 70 72 79 86 85 86 86 86 83 84 86 79 77 77 76 75 76 77 79 74 80 77 85 88 87 88 89 87 89 90 -193 -193 -193 82 75 72 71 68 69 69 70 69 70 70 70 66 73 72 70 67 67 69 74 86 -209 -177 -193 119 120 116 116 116 115 114 111 112 112 107 111 111 68 65 65 66 64 67 64 65 67 67 68 66 66 69 67 69 69 68 70 66 69 70 68 0 0 0 0 0
    0 0 0 0 0 0 0 0 0 0 0 0 0 0 0 0 0 0 0 0 0 0 0 0 0 0 0 0 0 0 0 0 0 0 0 0 0 0 0 0 0 0 0 0 0 0 0 0 0 0 0 0 0 0 0 0 0 0 0 0 0 0 0 0 0 0 0 0 0 81 80 81 81 81 81 81 82 85 85 85 86 85 85 85 85 84 83 83 84 80 81 84 82 83 81 80 81 81 79 78 76 82 77 79 83 83 83 83 83 84 81 85 84 84 83 83 83 83 82 85 84 85 83 85 84 84 84 83 83 83 80 80 74 72 72 69 70 67 67 68 -209 -209 -209 -209 -209 -209 86 84 81 81 76 78 -193 -193 -193 -193 77 79 81 81 81 80 81 79 79 78 81 -209 -193 82 86 -193 93 97 100 100 100 102 101 101 98 100 98 96 98 94 91 92 86 85 83 85 84 84 86 90 90 91 92 94 95 97 100 99 97 100 102 101 100 99 98 97 97 96 94 93 90 90 89 -193 73 72 72 77 83 87 85 87 86 87 85 86 87 82 80 80 78 77 76 78 80 75 84 80 86 88 87 88 89 88 89 91 89 -193 86 84 76 72 71 68 70 70 71 70 71 71 71 68 74 77 72 70 71 71 78 87 -209 -177 117 118 119 115 115 116 114 113 110 112 112 106 110 109 -209 -193 69 69 69 -193 68 68 69 70 71 68 67 70 69 71 71 70 71 68 71 74 71 0 0 0 0 0
    0 0 0 0 0 0 0 0 0 0 0 0 0 0 0 0 0 0 0 0 0 0 0 0 0 0 0 0 0 0 0 0 0 0 0 0 0 0 0 0 0 0 0 0 0 0 0 0 0 0 0 0 0 0 0 0 0 0 0 0 0 0 0 0 0 0 0 0 0 85 84 84 84 84 83 84 84 86 86 86 87 86 85 86 85 85 85 85 85 83 85 86 85 85 83 83 83 84 82 83 80 85 81 82 85 85 84 84 84 85 81 85 85 84 84 84 84 84 84 86 86 87 85 86 85 85 85 84 84 84 82 82 76 75 75 72 74 -209 -209 -209 -209 -209 -209 88 90 88 88 86 85 84 81 83 -193 77 79 78 80 82 83 82 83 82 83 82 82 81 83 83 84 84 86 -193 92 94 98 98 99 101 101 101 96 99 97 95 95 92 89 90 86 85 84 86 86 87 87 90 90 91 92 93 94 96 98 97 96 98 101 100 99 98 97 96 97 96 95 94 91 93 91 91 78 77 77 82 85 87 86 86 87 87 86 87 87 84 83 83 83 80 79 83 83 78 87 85 88 89 88 89 90 89 90 92 90 90 88 86 77 73 72 68 70 71 71 70 72 72 72 71 76 86 82 78 87 86 87 92 104 119 115 116 118 114 114 115 114 113 110 112 112 106 109 108 92 92 -193 -209 -209 -209 -209 71 72 72 72 69 68 70 70 72 73 71 72 71 74 77 75 0 0 0 0 0
    0 0 0 0 0 0 0 0 0 0 0 0 0 0 0 0 0 0 0 0 0 0 0 0 0 0 0 0 0 0 0 0 0 0 0 0 0 0 0 0 0 0 0 0 0 0 0 0 0 0 0 0 0 0 0 0 0 0 0 0 0 0 0 0 0 0 0 0 0 86 85 86 86 86 85 85 86 88 87 87 87 86 86 86 86 86 86 86 86 85 86 87 86 86 84 84 85 85 85 85 84 86 84 85 86 85 85 84 84 85 81 85 84 83 84 84 84 85 85 87 87 89 86 87 86 86 86 85 85 84 83 84 79 83 83 76 84 85 -193 -193 90 90 89 89 91 89 89 88 87 87 85 86 85 81 83 81 82 83 83 83 84 83 84 84 84 83 85 85 86 85 87 -193 92 93 95 96 97 100 99 99 94 98 96 95 94 92 88 89 86 86 85 87 87 87 87 90 90 91 92 93 94 94 97 96 95 97 100 99 97 97 97 96 97 96 95 94 92 95 93 92 85 82 81 84 86 86 85 86 87 87 87 87 88 85 85 86 86 85 85 87 86 84 89 88 89 90 89 89 91 90 91 93 92 91 90 89 81 74 72 68 71 72 72 71 73 73 75 74 80 89 90 89 91 92 92 97 103 117 113 114 117 114 114 115 113 112 109 111 112 106 108 107 93 93 91 93 91 91 -209 -193 73 74 74 71 70 71 71 73 74 72 74 72 76 79 79 0 0 0 0 0
    0 0 0 0 0 0 0 0 0 0 0 0 0 0 0 0 0 0 0 0 0 0 0 0 0 0 0 0 0 0 0 0 0 0 0 0 0 0 0 0 0 0 0 0 0 0 0 0 0 0 0 0 0 0 0 0 0 0 0 0 0 0 0 0 0 0 0 0 0 89 87 87 88 88 87 87 87 89 88 88 88 87 87 87 87 87 86 87 87 86 87 88 87 87 86 86 87 87 87 88 86 88 86 86 87 86 85 85 85 86 82 85 85 84 85 85 85 86 86 88 89 90 88 88 87 87 87 86 86 85 85 86 83 87 87 85 88 89 89 90 92 91 91 90 92 90 90 89 89 89 88 88 88 85 86 85 84 84 84 84 85 85 85 85 86 85 86 86 87 87 87 92 92 92 94 94 95 100 99 99 94 97 96 97 95 93 89 90 87 87 86 87 87 88 88 90 90 91 92 93 93 94 97 95 95 96 99 98 97 96 97 96 97 96 96 94 92 95 93 93 86 84 83 85 86 86 86 87 88 88 88 89 89 88 89 89 90 89 89 90 90 89 90 90 90 91 90 90 91 91 92 93 92 92 91 90 -209 78 74 69 71 73 74 72 74 76 81 83 86 91 92 92 94 94 95 99 103 117 112 113 117 114 114 115 113 113 109 112 112 106 108 107 92 93 92 94 92 92 91 -209 -209 -193 -209 -209 -193 71 72 73 -193 72 72 71 75 79 80 0 0 0 0 0
    0 0 0 0 0 0 0 0 0 0 0 0 0 0 0 0 0 0 0 0 0 0 0 0 0 0 0 0 0 0 0 0 0 0 0 0 0 0 0 0 0 0 0 0 0 0 0 0 0 0 0 0 0 0 0 0 0 0 0 0 0 0 0 0 0 0 0 0 0 90 89 89 90 89 88 89 89 90 89 89 89 88 87 88 87 87 87 87 87 86 88 89 88 87 88 87 90 90 90 90 89 89 -193 88 88 87 86 86 86 87 85 87 87 87 87 87 87 87 86 89 90 91 88 89 87 87 88 87 87 86 86 87 85 89 89 87 89 90 90 91 92 93 92 91 93 91 90 90 90 90 89 89 89 87 87 86 86 85 85 85 86 86 86 86 87 86 87 87 -193 -193 88 92 92 92 94 95 95 101 99 99 95 97 96 96 95 93 89 91 87 87 87 87 87 88 88 90 90 91 92 92 93 94 96 95 95 96 99 98 96 96 97 96 97 96 96 94 92 94 93 93 88 86 84 86 87 87 86 87 89 89 89 90 90 90 91 92 92 91 92 92 92 91 91 90 90 91 90 90 91 91 92 93 92 92 91 91 -193 86 75 71 72 75 76 75 79 84 87 89 89 92 94 94 96 96 98 100 103 116 111 112 117 114 114 115 113 113 109 112 112 106 108 107 91 91 91 95 94 93 92 100 103 106 104 105 106 -209 -209 -209 -209 74 -193 71 75 83 84 0 0 0 0 0</data></disparity>
</opencv_storage>
