<?xml version="1.0"?>
<opencv_storage>
<gps_time_stamp>35341</gps_time_stamp>
<gps_x>-1.2222294807434082e+001</gps_x>
<gps_y>1.1452517509460449e+000</gps_y>
<gps_z>-3.0695307254791260e+000</gps_z>
<image_time_stamp>23263</image_time_stamp>
<disparity type_id="opencv-matrix">
  <rows>80</rows>
  <cols>320</cols>
  <dt>s</dt>
  <data>
    0 0 0 0 0 0 0 0 0 0 0 0 0 0 0 0 0 0 0 0 0 0 0 0 0 0 0 0 0 0 0 0 0 0 0 0 0 0 0 0 0 0 0 0 0 0 0 0 0 0 0 0 0 0 0 0 0 0 0 0 0 0 0 0 0 0 0 0 0 221 223 222 223 224 223 223 224 224 224 223 223 222 223 224 223 223 223 222 222 224 223 223 222 222 222 221 222 222 223 222 223 223 223 224 224 222 223 221 222 221 220 220 219 218 218 217 217 216 217 218 -193 -193 221 224 223 225 223 223 223 225 224 224 221 222 220 221 221 221 220 221 221 222 222 222 222 224 222 222 222 221 221 222 222 222 220 220 220 222 220 221 220 221 221 222 222 225 222 224 222 223 222 222 222 223 221 224 222 225 224 224 226 224 225 224 223 224 223 224 224 222 223 223 222 224 224 226 224 224 224 223 223 223 222 220 220 220 221 219 220 219 219 219 220 220 220 219 221 222 222 222 228 227 224 224 226 224 225 225 224 223 223 224 224 222 223 222 223 224 223 222 224 224 225 225 225 224 224 225 224 225 224 225 223 224 223 223 223 223 222 222 220 220 219 219 219 220 220 221 222 224 224 224 227 224 225 228 223 224 223 225 223 221 223 222 218 221 220 220 221 221 221 222 222 222 222 222 223 221 223 223 223 225 224 225 227 225 225 224 226 225 225 225 226 225 228 0 0 0 0 0
    0 0 0 0 0 0 0 0 0 0 0 0 0 0 0 0 0 0 0 0 0 0 0 0 0 0 0 0 0 0 0 0 0 0 0 0 0 0 0 0 0 0 0 0 0 0 0 0 0 0 0 0 0 0 0 0 0 0 0 0 0 0 0 0 0 0 0 0 0 221 222 222 223 224 223 223 224 224 224 223 223 222 223 224 224 223 224 222 223 224 224 224 223 222 222 221 222 222 222 222 222 222 222 222 223 222 222 221 221 220 220 220 219 218 218 217 217 216 217 218 -193 -193 221 223 222 224 222 222 222 224 223 224 221 222 220 221 221 221 220 221 221 222 222 222 222 224 222 222 222 221 222 223 223 223 221 221 220 222 220 221 220 221 221 222 222 225 222 224 222 223 222 222 222 223 221 224 222 225 224 224 226 224 225 224 223 224 223 224 224 222 223 222 222 223 223 225 223 223 223 222 222 222 221 220 220 219 220 219 220 219 219 220 220 220 220 219 222 223 222 222 228 226 223 224 225 223 224 224 224 222 223 224 224 222 223 222 222 224 223 222 224 222 224 224 224 224 223 224 224 224 225 225 223 224 224 223 223 223 222 222 220 220 219 219 219 219 220 220 222 224 224 224 228 225 225 229 224 224 223 225 223 221 223 222 218 221 221 220 221 222 222 222 221 221 221 221 222 221 222 222 223 224 224 226 227 225 225 224 226 224 225 224 225 224 227 0 0 0 0 0
    0 0 0 0 0 0 0 0 0 0 0 0 0 0 0 0 0 0 0 0 0 0 0 0 0 0 0 0 0 0 0 0 0 0 0 0 0 0 0 0 0 0 0 0 0 0 0 0 0 0 0 0 0 0 0 0 0 0 0 0 0 0 0 0 0 0 0 0 0 222 222 222 223 224 223 223 224 223 224 223 223 223 223 224 224 224 224 222 223 224 223 223 223 222 222 221 222 222 222 222 222 222 222 222 222 221 222 220 221 220 219 220 219 219 218 218 218 217 218 219 220 219 221 224 223 224 223 223 222 224 223 224 221 222 220 221 221 221 220 221 220 221 221 222 222 223 221 222 222 221 222 223 223 223 222 223 221 223 220 221 220 221 221 223 221 224 222 224 222 223 222 222 222 223 222 224 222 224 223 223 226 224 225 224 223 224 223 224 223 222 223 222 221 223 222 225 222 223 223 222 222 221 221 220 219 219 220 219 220 220 220 220 221 220 221 220 222 223 222 222 227 225 223 223 225 223 224 224 223 222 223 224 224 222 224 222 222 223 222 221 223 222 222 223 223 223 223 224 224 224 224 224 223 224 223 222 222 222 221 221 220 220 219 219 218 218 219 219 220 222 221 221 228 225 225 229 224 224 223 225 224 221 223 223 218 221 222 221 222 223 222 222 221 221 221 221 222 220 221 221 221 223 224 225 227 225 225 224 226 225 224 224 224 224 228 0 0 0 0 0
    0 0 0 0 0 0 0 0 0 0 0 0 0 0 0 0 0 0 0 0 0 0 0 0 0 0 0 0 0 0 0 0 0 0 0 0 0 0 0 0 0 0 0 0 0 0 0 0 0 0 0 0 0 0 0 0 0 0 0 0 0 0 0 0 0 0 0 0 0 222 222 222 222 223 222 222 223 222 223 222 223 222 222 224 224 224 224 222 223 224 223 223 223 222 222 221 222 222 222 222 222 222 222 222 222 221 221 220 220 219 219 219 219 218 218 218 218 217 218 219 -193 -193 221 223 222 224 223 223 223 223 223 224 222 222 220 221 220 221 220 221 220 221 221 222 222 223 221 222 222 221 221 223 223 223 221 223 221 223 220 220 219 221 221 223 221 224 222 224 223 224 223 223 222 224 222 223 222 224 223 223 225 223 225 224 223 224 223 224 223 222 223 221 222 223 222 225 223 224 223 222 222 221 220 219 219 219 219 219 219 220 220 220 221 221 221 220 222 225 222 222 226 224 222 223 224 222 223 223 223 222 223 224 224 222 224 222 222 224 222 221 222 221 222 222 222 223 222 224 224 223 223 223 221 222 221 220 220 220 220 220 219 219 219 218 217 217 217 218 219 221 220 220 227 224 225 228 224 224 223 225 224 222 223 223 219 222 223 222 223 223 223 223 222 222 222 221 222 220 221 220 220 222 223 225 226 225 225 224 226 226 225 225 225 225 229 0 0 0 0 0
    0 0 0 0 0 0 0 0 0 0 0 0 0 0 0 0 0 0 0 0 0 0 0 0 0 0 0 0 0 0 0 0 0 0 0 0 0 0 0 0 0 0 0 0 0 0 0 0 0 0 0 0 0 0 0 0 0 0 0 0 0 0 0 0 0 0 0 0 0 222 222 222 222 222 222 222 222 221 222 221 222 222 222 223 223 223 223 222 222 223 223 223 222 222 222 221 222 222 222 222 221 222 221 221 222 221 221 219 220 219 219 219 219 218 218 217 218 217 218 219 -193 -193 221 223 222 224 223 223 223 223 224 225 222 223 220 221 221 221 220 221 220 222 222 222 222 223 221 222 222 222 222 223 223 223 221 223 221 222 220 220 219 220 220 223 221 224 222 224 223 224 223 223 222 224 222 223 222 224 222 223 224 223 225 224 223 224 223 224 223 223 223 221 222 224 222 225 223 223 223 221 221 220 219 218 218 218 219 218 218 218 220 220 221 220 221 220 222 225 222 222 226 223 222 223 224 222 223 223 223 221 223 224 223 222 224 222 223 224 222 221 222 221 221 222 221 222 222 224 224 223 224 223 222 223 222 220 220 220 220 219 219 219 218 218 217 217 217 218 219 222 221 222 228 225 226 228 224 224 224 225 224 222 223 223 219 223 224 223 224 224 223 223 222 222 222 221 222 220 220 220 219 220 222 224 226 224 225 224 227 227 226 226 226 227 231 0 0 0 0 0
    0 0 0 0 0 0 0 0 0 0 0 0 0 0 0 0 0 0 0 0 0 0 0 0 0 0 0 0 0 0 0 0 0 0 0 0 0 0 0 0 0 0 0 0 0 0 0 0 0 0 0 0 0 0 0 0 0 0 0 0 0 0 0 0 0 0 0 0 0 223 222 222 222 222 221 221 222 221 222 221 223 222 222 224 223 223 223 221 222 222 222 223 222 221 222 221 222 222 222 222 221 222 221 221 221 221 220 219 220 219 218 218 219 218 218 217 217 217 218 219 -193 -193 221 223 222 224 223 224 223 224 224 225 223 223 221 222 222 222 220 221 221 222 222 222 221 223 221 222 222 222 222 223 224 223 221 223 221 222 219 219 218 219 220 223 221 224 222 224 224 224 224 223 222 224 222 223 221 224 222 222 224 223 225 223 223 224 222 223 223 222 223 221 222 223 221 224 222 221 221 221 221 219 218 218 218 218 218 218 218 218 219 220 221 220 220 220 222 224 222 222 225 223 222 224 224 223 223 223 223 222 223 224 223 222 223 222 222 223 221 220 221 221 221 222 221 222 222 224 224 224 225 223 222 223 222 220 220 220 220 219 218 218 218 218 217 217 217 218 219 222 222 224 228 226 226 229 225 225 224 225 224 222 224 224 220 223 224 223 224 224 223 223 222 222 222 222 222 220 220 220 219 219 221 223 224 223 225 224 227 226 227 226 226 227 230 0 0 0 0 0
    0 0 0 0 0 0 0 0 0 0 0 0 0 0 0 0 0 0 0 0 0 0 0 0 0 0 0 0 0 0 0 0 0 0 0 0 0 0 0 0 0 0 0 0 0 0 0 0 0 0 0 0 0 0 0 0 0 0 0 0 0 0 0 0 0 0 0 0 0 223 223 222 222 222 222 221 222 221 222 221 224 222 223 224 223 223 223 221 222 221 222 223 221 222 222 222 223 223 222 222 221 223 221 222 221 221 220 219 220 220 218 219 219 219 218 218 218 218 218 220 221 -193 221 223 222 224 223 224 223 223 223 224 222 222 221 222 221 222 220 221 221 221 222 221 221 222 221 222 222 222 222 223 223 223 222 223 221 222 220 220 219 219 221 224 221 225 223 225 224 224 224 223 222 224 222 223 221 224 222 223 224 223 225 223 223 224 222 224 223 223 223 221 223 223 220 225 221 221 222 221 222 220 219 219 219 219 219 218 218 218 219 220 221 221 220 221 222 224 222 223 225 223 222 224 224 223 223 223 222 221 223 224 223 223 223 222 221 221 221 220 220 220 220 221 220 221 221 223 223 224 225 223 222 222 221 220 221 221 220 219 218 218 219 219 219 219 219 219 221 223 223 224 229 226 226 229 225 225 225 225 224 222 224 224 220 222 223 223 224 224 223 223 222 222 222 222 222 220 220 220 219 220 221 222 224 223 225 223 226 225 226 227 226 228 230 0 0 0 0 0
    0 0 0 0 0 0 0 0 0 0 0 0 0 0 0 0 0 0 0 0 0 0 0 0 0 0 0 0 0 0 0 0 0 0 0 0 0 0 0 0 0 0 0 0 0 0 0 0 0 0 0 0 0 0 0 0 0 0 0 0 0 0 0 0 0 0 0 0 0 223 222 222 222 222 222 221 222 221 222 221 224 222 222 223 223 223 223 221 221 221 221 222 221 222 222 222 223 223 222 222 221 223 221 222 221 221 221 220 220 220 218 219 220 219 219 218 219 218 219 220 222 220 221 223 222 224 223 224 223 223 223 224 222 222 221 221 221 221 220 221 220 221 222 221 221 221 220 222 222 222 222 222 223 223 222 224 222 223 221 221 220 220 222 224 221 225 222 224 224 224 224 223 222 224 221 223 221 225 222 223 223 224 225 223 223 225 222 224 223 223 223 221 223 223 220 224 221 221 221 221 222 221 220 220 220 220 220 219 219 219 220 221 222 221 221 222 224 225 222 225 225 222 222 223 223 222 223 223 222 221 222 224 223 223 224 223 222 221 220 220 220 220 219 220 219 220 220 221 221 223 223 223 222 222 222 221 221 221 221 220 219 219 221 220 220 221 220 219 222 223 224 224 229 226 226 229 225 225 225 225 224 222 224 224 220 223 223 223 224 224 224 224 223 223 223 222 222 -193 -193 220 219 220 221 222 223 222 224 222 226 225 227 227 227 229 231 0 0 0 0 0
    0 0 0 0 0 0 0 0 0 0 0 0 0 0 0 0 0 0 0 0 0 0 0 0 0 0 0 0 0 0 0 0 0 0 0 0 0 0 0 0 0 0 0 0 0 0 0 0 0 0 0 0 0 0 0 0 0 0 0 0 0 0 0 0 0 0 0 0 0 223 222 222 222 221 222 221 222 221 222 221 224 223 223 223 223 222 222 221 222 221 221 223 221 222 222 222 223 222 222 222 221 223 221 222 222 221 221 220 220 221 218 219 220 220 219 219 219 219 219 221 222 220 221 223 222 224 223 224 223 223 223 224 222 221 220 221 220 221 220 221 220 221 222 221 220 221 220 222 221 222 222 222 222 222 221 223 221 223 221 220 220 220 222 224 221 225 222 224 223 224 224 223 222 224 221 223 221 225 223 223 224 224 225 223 223 224 222 223 223 223 222 221 223 223 221 224 221 220 220 220 221 221 220 220 220 220 221 221 221 220 222 222 223 222 222 224 225 226 223 226 224 222 222 223 222 222 222 223 221 221 222 224 223 224 225 224 223 222 220 220 220 220 219 219 219 220 220 221 221 222 223 223 223 222 222 221 221 222 221 221 220 220 222 220 221 224 222 221 223 225 226 227 230 227 226 229 225 225 225 225 224 222 224 224 219 222 223 224 225 225 225 225 224 224 223 223 223 -193 -193 220 -193 219 221 222 223 221 223 221 226 225 227 228 227 229 232 0 0 0 0 0
    0 0 0 0 0 0 0 0 0 0 0 0 0 0 0 0 0 0 0 0 0 0 0 0 0 0 0 0 0 0 0 0 0 0 0 0 0 0 0 0 0 0 0 0 0 0 0 0 0 0 0 0 0 0 0 0 0 0 0 0 0 0 0 0 0 0 0 0 0 223 222 222 222 221 222 221 222 221 222 221 225 223 223 223 223 222 222 222 222 221 221 223 221 223 222 222 223 222 222 222 221 223 221 222 222 221 221 220 220 221 218 219 221 220 220 220 220 220 220 222 223 220 222 223 222 224 223 224 223 223 223 224 222 221 220 221 220 221 220 220 219 220 221 221 220 220 220 221 221 222 222 222 222 222 221 223 221 223 220 220 220 220 222 224 221 224 222 224 223 223 224 223 222 224 221 223 222 226 223 223 225 224 225 223 224 224 222 223 223 222 222 222 223 223 222 224 223 221 220 220 222 221 221 220 221 221 221 222 221 221 222 222 223 222 222 223 224 225 222 225 223 222 221 222 222 222 222 223 221 221 222 224 223 224 224 225 223 223 220 221 220 220 219 220 219 220 219 222 221 223 223 223 223 221 222 -193 221 221 221 221 220 220 222 221 223 226 226 224 227 228 228 229 230 227 226 229 225 225 224 224 224 222 224 224 220 223 224 225 226 226 225 225 224 224 224 223 223 -193 -193 220 -193 -193 220 221 222 221 222 221 226 226 228 229 229 230 233 0 0 0 0 0
    0 0 0 0 0 0 0 0 0 0 0 0 0 0 0 0 0 0 0 0 0 0 0 0 0 0 0 0 0 0 0 0 0 0 0 0 0 0 0 0 0 0 0 0 0 0 0 0 0 0 0 0 0 0 0 0 0 0 0 0 0 0 0 0 0 0 0 0 0 223 222 222 222 221 221 220 222 221 221 220 224 222 222 223 222 221 222 222 222 221 221 223 221 222 222 222 222 222 222 222 221 223 221 223 222 221 221 220 221 221 219 219 220 220 220 220 220 220 220 222 223 221 222 223 222 224 223 224 223 222 223 223 222 222 221 221 220 221 220 220 219 220 221 220 220 220 220 222 221 223 222 222 223 223 221 223 222 223 221 220 220 220 222 223 221 224 222 224 223 224 224 223 222 224 221 223 222 226 223 224 226 225 225 224 224 224 222 224 223 222 222 221 222 222 222 224 223 221 221 221 223 222 221 221 221 221 221 222 222 221 222 222 222 222 222 223 223 224 222 225 224 222 221 222 222 222 222 222 221 221 222 224 223 224 224 225 222 223 220 221 220 220 220 220 220 220 220 224 221 223 -193 -193 -193 -193 -193 -193 221 221 222 221 220 220 223 222 225 227 228 226 228 228 228 228 230 227 226 229 225 225 224 224 224 223 224 224 220 223 225 226 227 226 225 225 224 224 224 223 223 -193 -193 220 -193 -193 220 221 223 221 223 221 226 227 230 230 230 231 234 0 0 0 0 0
    0 0 0 0 0 0 0 0 0 0 0 0 0 0 0 0 0 0 0 0 0 0 0 0 0 0 0 0 0 0 0 0 0 0 0 0 0 0 0 0 0 0 0 0 0 0 0 0 0 0 0 0 0 0 0 0 0 0 0 0 0 0 0 0 0 0 0 0 0 223 222 222 222 221 221 221 222 221 221 220 223 221 222 223 222 221 222 222 222 221 221 223 221 223 222 222 222 222 222 222 221 223 221 223 222 221 222 221 222 222 219 219 221 220 220 220 220 220 219 222 223 220 222 222 222 224 223 224 223 222 222 223 221 221 221 221 221 221 220 220 220 221 222 221 221 221 220 222 222 223 223 222 223 223 221 222 221 222 221 220 221 221 222 223 221 224 222 224 223 224 224 223 222 224 221 222 222 226 223 224 226 225 225 224 225 224 223 223 223 222 222 221 221 221 222 223 222 221 221 221 223 222 222 222 221 221 222 222 222 221 222 222 222 222 222 223 224 225 222 226 224 222 221 222 222 222 222 222 221 221 222 224 223 224 223 -193 222 222 220 221 220 220 220 220 220 221 220 225 222 224 -193 -193 -193 -193 -193 221 222 222 223 222 222 222 226 225 228 229 229 228 229 229 228 227 229 226 226 228 225 224 223 224 224 223 224 224 220 223 225 226 227 226 225 225 224 224 224 223 223 -193 -193 220 -193 -193 220 221 224 222 223 221 226 227 231 231 231 231 234 0 0 0 0 0
    0 0 0 0 0 0 0 0 0 0 0 0 0 0 0 0 0 0 0 0 0 0 0 0 0 0 0 0 0 0 0 0 0 0 0 0 0 0 0 0 0 0 0 0 0 0 0 0 0 0 0 0 0 0 0 0 0 0 0 0 0 0 0 0 0 0 0 0 0 222 222 222 222 222 222 221 223 222 221 220 223 221 222 223 222 221 222 223 223 221 221 223 221 224 222 223 223 222 223 222 221 223 221 223 222 221 222 221 222 223 220 219 222 220 221 220 220 220 219 223 223 221 222 222 222 224 223 223 222 222 222 223 221 221 221 221 221 222 220 221 220 222 222 221 221 221 221 222 223 223 223 222 223 223 220 221 221 222 221 221 221 220 222 223 222 225 222 225 224 224 224 223 223 224 222 222 222 226 223 224 226 226 226 225 225 224 223 223 223 222 221 221 220 221 221 222 223 221 222 222 224 223 223 223 222 222 223 222 223 222 223 223 222 222 222 224 226 225 223 227 226 224 223 223 223 223 223 224 222 222 223 224 225 224 224 224 222 223 221 222 221 220 221 221 221 222 222 227 223 226 227 227 227 225 227 224 224 225 226 224 222 223 227 225 229 229 229 228 228 229 228 226 228 225 225 228 224 223 222 223 224 222 223 223 220 223 225 227 227 226 225 225 224 225 225 223 223 221 221 222 -209 221 223 224 227 224 226 222 227 228 231 232 231 231 234 0 0 0 0 0
    0 0 0 0 0 0 0 0 0 0 0 0 0 0 0 0 0 0 0 0 0 0 0 0 0 0 0 0 0 0 0 0 0 0 0 0 0 0 0 0 0 0 0 0 0 0 0 0 0 0 0 0 0 0 0 0 0 0 0 0 0 0 0 0 0 0 0 0 0 222 222 222 222 222 222 222 224 222 221 220 223 222 222 223 222 221 222 223 224 221 222 224 222 225 222 224 223 222 223 223 222 223 222 223 222 222 223 222 223 224 220 220 222 221 221 221 221 221 220 224 224 222 222 223 222 224 223 223 222 222 222 224 222 222 222 222 222 223 221 222 221 222 223 221 221 222 221 222 222 223 223 223 224 223 221 222 222 223 221 221 222 221 222 223 223 226 224 226 224 225 225 224 224 224 223 224 222 227 224 226 228 227 227 226 226 225 223 224 224 222 222 222 221 222 223 224 226 222 223 224 227 226 225 226 225 225 226 225 225 224 225 225 224 225 225 227 228 226 226 229 227 225 225 225 225 225 225 225 222 223 225 225 226 226 226 226 224 224 222 223 223 221 222 223 222 224 225 230 227 229 230 229 229 229 -209 -193 -193 -193 228 227 225 224 226 224 229 229 228 227 227 229 227 226 227 224 225 227 223 223 222 223 224 223 223 224 220 224 226 227 227 226 226 226 225 226 226 224 225 223 223 -209 -209 -193 227 229 231 227 228 225 229 229 232 233 232 231 234 0 0 0 0 0
    0 0 0 0 0 0 0 0 0 0 0 0 0 0 0 0 0 0 0 0 0 0 0 0 0 0 0 0 0 0 0 0 0 0 0 0 0 0 0 0 0 0 0 0 0 0 0 0 0 0 0 0 0 0 0 0 0 0 0 0 0 0 0 0 0 0 0 0 0 221 222 222 223 222 223 223 225 224 222 222 -193 224 224 224 223 222 225 226 226 225 225 227 224 226 223 225 224 223 223 224 223 224 224 226 225 226 226 225 226 227 223 222 224 223 223 224 224 224 222 228 228 227 227 227 226 227 226 225 224 225 225 227 225 225 225 225 226 227 223 225 225 227 226 224 224 224 223 225 224 225 226 226 227 227 227 228 226 226 222 223 224 223 224 225 225 228 226 228 226 227 227 226 226 226 225 226 225 228 226 227 230 229 228 228 228 227 225 226 226 224 223 224 223 225 227 227 229 225 226 227 229 229 228 228 228 229 229 228 228 227 228 228 227 228 228 229 229 227 228 230 228 227 226 226 226 226 226 226 224 225 226 227 228 -193 -193 -193 -193 227 224 226 -193 222 224 225 225 227 228 232 230 231 232 231 230 231 -209 -193 272 -193 -193 228 226 224 224 223 228 227 225 224 225 228 227 226 227 224 224 227 224 224 223 224 225 223 224 224 221 225 227 227 227 226 226 227 226 227 227 225 227 225 227 -209 -209 -209 -209 -193 238 -209 -209 -209 -209 -209 249 248 -193 232 238 0 0 0 0 0
    0 0 0 0 0 0 0 0 0 0 0 0 0 0 0 0 0 0 0 0 0 0 0 0 0 0 0 0 0 0 0 0 0 0 0 0 0 0 0 0 0 0 0 0 0 0 0 0 0 0 0 0 0 0 0 0 0 0 0 0 0 0 0 0 0 0 0 0 0 222 222 223 224 224 225 226 228 227 226 227 229 229 227 227 226 227 228 229 229 229 228 228 227 228 225 227 226 225 225 226 226 227 226 229 228 229 229 228 229 230 227 226 227 225 226 227 228 228 225 230 230 228 228 228 228 228 228 227 225 228 227 229 228 228 227 227 229 229 226 229 231 232 230 230 229 228 227 229 227 227 229 229 230 230 -193 -193 230 229 224 224 226 225 226 226 227 229 228 229 227 228 229 228 228 228 227 227 227 230 228 229 231 231 230 230 230 228 228 228 227 226 226 227 226 228 230 -193 231 230 228 230 -193 231 231 231 231 -193 -193 231 230 229 230 229 229 230 229 230 230 229 230 231 230 228 227 227 228 228 227 227 225 226 228 228 228 -193 -193 -193 -193 -193 -193 -193 -193 -193 226 -193 -193 -193 -193 -193 231 232 233 232 231 -209 -193 -209 270 270 -209 229 227 224 223 222 227 227 224 223 224 227 226 226 226 223 224 227 224 224 223 224 224 224 224 224 221 226 228 227 227 227 226 228 226 228 228 226 228 228 231 -209 -209 -193 234 237 243 -209 -209 -193 -193 -193 253 253 256 -209 243 0 0 0 0 0
    0 0 0 0 0 0 0 0 0 0 0 0 0 0 0 0 0 0 0 0 0 0 0 0 0 0 0 0 0 0 0 0 0 0 0 0 0 0 0 0 0 0 0 0 0 0 0 0 0 0 0 0 0 0 0 0 0 0 0 0 0 0 0 0 0 0 0 0 0 -193 -209 224 226 227 -193 -193 -193 231 231 -209 -209 234 230 230 229 229 231 231 231 232 229 229 228 229 227 228 227 227 227 228 228 228 228 230 229 -193 230 229 231 231 230 228 228 227 228 228 230 229 228 231 230 229 229 229 229 229 229 228 227 230 229 230 229 229 229 229 231 231 229 231 235 234 233 233 233 -193 -193 -193 -193 229 -193 232 232 -193 -209 -193 -193 -193 227 226 228 227 227 228 229 230 230 231 229 229 230 230 230 230 229 229 -193 232 231 230 233 232 232 232 232 230 230 230 229 228 229 229 228 230 -193 -193 -193 232 230 -193 -193 -193 -193 -193 -193 -209 -209 -193 230 229 230 229 229 230 230 230 231 230 230 231 231 228 228 228 229 228 228 228 226 226 -193 228 -193 -193 -193 -193 -193 -193 225 -193 -193 -193 -193 -193 -193 -193 -209 -193 -193 233 234 234 233 -209 108 -209 -193 268 -209 230 228 225 223 223 228 227 224 223 224 227 226 226 226 223 224 226 224 224 223 224 225 224 225 226 223 227 229 227 228 227 226 228 226 227 228 227 229 229 232 233 234 235 235 239 245 -209 -193 -193 -193 -193 -193 -193 -193 -209 245 0 0 0 0 0
    0 0 0 0 0 0 0 0 0 0 0 0 0 0 0 0 0 0 0 0 0 0 0 0 0 0 0 0 0 0 0 0 0 0 0 0 0 0 0 0 0 0 0 0 0 0 0 0 0 0 0 0 0 0 0 0 0 0 0 0 0 0 0 0 0 0 0 0 0 -209 -209 -209 -193 -209 -209 -209 -209 -209 -193 -193 -209 -193 -209 234 -193 231 233 235 235 236 232 231 230 231 229 229 228 229 228 -193 -193 230 230 -193 -193 -193 -209 -209 234 236 232 232 230 229 230 230 231 230 229 232 231 230 229 229 230 229 230 229 227 231 230 231 231 231 231 230 232 232 231 233 237 236 235 235 235 233 232 -193 -209 230 -209 -193 -209 -209 -193 -193 -193 -209 -193 227 -209 -193 -193 -193 230 -193 231 232 230 230 231 231 230 230 230 230 -193 233 233 231 234 233 233 233 232 231 231 230 230 229 230 229 -193 231 -193 -209 -209 -209 231 -193 234 234 233 234 233 -193 -209 -193 231 230 230 230 229 230 230 230 -193 229 229 231 231 229 229 229 230 229 229 229 227 227 -193 -193 -193 85 -193 85 85 -193 -193 -193 -193 -193 -193 80 -193 -193 77 -193 -193 234 235 235 234 -209 -193 -209 -209 -193 -193 -209 229 224 221 223 227 226 223 222 222 226 226 227 226 223 225 226 224 224 223 225 225 225 226 227 226 -193 -209 -209 -193 -209 -193 -209 -209 -209 228 226 231 230 233 235 236 236 236 240 246 -209 -193 -193 -193 -193 -193 -193 -209 -209 -193 0 0 0 0 0
    0 0 0 0 0 0 0 0 0 0 0 0 0 0 0 0 0 0 0 0 0 0 0 0 0 0 0 0 0 0 0 0 0 0 0 0 0 0 0 0 0 0 0 0 0 0 0 0 0 0 0 0 0 0 0 0 0 0 0 0 0 0 0 0 0 0 0 0 0 -209 -209 -193 -209 -193 -193 -193 -177 -177 -193 -193 -193 -193 -193 -193 -193 233 236 238 237 239 -193 -193 232 233 -193 231 230 -193 229 -193 -193 231 231 233 -209 -193 -209 -209 236 242 237 234 232 231 231 231 232 232 231 233 232 -193 -193 230 230 230 230 230 228 231 231 231 231 232 232 232 233 233 233 234 239 237 236 236 235 234 -193 -193 -209 231 -209 -209 -209 -209 -209 -193 -209 -177 -193 -193 -209 -193 -193 -193 -193 -177 -193 -193 -193 231 -193 -193 231 -193 230 -193 -193 -209 -193 231 234 234 233 234 233 232 232 231 231 230 230 -193 -193 -193 -193 -193 -193 -193 -193 -193 235 235 235 -193 235 235 -193 -193 -193 -193 -193 -177 -193 -209 -209 -209 390 -193 -209 -209 -209 230 230 231 232 230 230 230 228 -193 -193 -193 -193 84 86 85 84 -193 -193 -193 -177 -177 -193 80 77 76 77 -193 -193 234 236 236 234 -209 -209 -209 -209 -209 -209 -177 -209 -193 221 223 227 225 222 220 221 225 226 227 226 224 225 226 225 224 224 226 -193 226 226 228 -209 -209 -209 -209 -209 -209 130 -209 -193 -209 -209 226 234 -209 236 239 239 237 237 241 246 -209 -209 -193 -193 -193 259 -193 -209 -209 -193 0 0 0 0 0
    0 0 0 0 0 0 0 0 0 0 0 0 0 0 0 0 0 0 0 0 0 0 0 0 0 0 0 0 0 0 0 0 0 0 0 0 0 0 0 0 0 0 0 0 0 0 0 0 0 0 0 0 0 0 0 0 0 0 0 0 0 0 0 0 0 0 0 0 0 82 -193 77 77 83 -193 -193 81 -177 -193 -193 -193 -193 -193 -193 -193 -193 236 238 238 241 -193 -193 -193 -193 -209 231 -193 -193 -193 -193 -193 232 232 234 -209 -193 -193 -193 238 245 241 237 234 232 233 232 233 233 232 234 232 -193 -193 -193 -193 231 231 231 229 232 231 232 232 233 233 232 234 234 233 235 241 237 236 -193 -193 235 -209 -209 -209 231 -193 -193 -209 -209 567 566 -177 -193 -193 -193 -193 -193 -193 -193 -177 -177 -177 -193 -193 -193 -193 -193 -193 -177 -209 -209 -193 -209 -209 231 -193 234 -193 235 -193 -193 233 233 233 -193 232 -193 -193 234 236 -193 -193 -193 -193 -209 -193 -193 -193 -193 -193 -193 -193 -193 -193 -193 -193 -193 391 -193 -193 -209 -209 -193 552 553 553 -193 -193 -193 233 232 232 231 -193 -193 -193 -193 -193 84 85 85 84 83 -193 85 85 84 79 81 78 78 78 80 -193 -193 -193 237 -193 -209 -209 -209 -209 -209 -209 -177 -193 -209 -193 222 226 223 220 219 219 225 226 228 227 225 225 226 225 225 225 -209 -209 -209 -209 -209 -209 -209 -209 -209 -209 -209 -193 -209 -209 -209 -209 -209 -209 -209 238 241 241 238 238 241 246 -209 -193 -193 256 256 258 259 -209 -209 -193 0 0 0 0 0
    0 0 0 0 0 0 0 0 0 0 0 0 0 0 0 0 0 0 0 0 0 0 0 0 0 0 0 0 0 0 0 0 0 0 0 0 0 0 0 0 0 0 0 0 0 0 0 0 0 0 0 0 0 0 0 0 0 0 0 0 0 0 0 0 0 0 0 0 0 -193 -193 -193 77 -209 -209 -193 80 -177 81 -193 -193 -193 77 -193 78 -209 -193 238 239 -193 -193 -193 -193 -193 -209 -193 -193 -209 -209 -209 -209 234 233 236 -193 -193 -193 -193 242 246 245 242 237 236 237 234 235 234 233 234 -193 -193 -177 -193 -193 231 -193 232 -193 233 -177 -177 -177 -177 -177 -177 233 234 234 235 -193 -193 -193 -177 -193 -193 -209 -209 -209 -209 -193 -193 -209 -209 -177 -177 567 -193 -193 -193 723 719 719 720 719 718 722 -193 -193 -193 -193 -193 -177 -177 -193 -193 -193 -193 -193 -209 -193 -193 -193 236 -193 -193 235 236 235 -193 -177 -177 -193 -177 238 -193 -209 -209 -209 398 403 402 402 404 405 -193 -193 -193 -193 -177 -193 -193 -193 -193 -209 -209 -209 551 552 553 553 -209 -209 235 235 233 234 -193 -193 -193 84 -193 -193 84 85 85 84 83 -193 85 85 85 80 81 78 78 79 81 -193 -193 -193 -193 -209 -209 -209 -209 -209 -193 -193 109 -193 -209 -209 220 222 219 -209 213 215 222 228 230 228 227 227 228 -193 -209 -209 -193 -193 -193 -209 -209 -209 -209 -209 -209 -209 -209 -209 -209 -209 -193 -209 -209 -209 -209 241 244 243 240 240 243 247 -209 -193 260 258 259 260 -193 -209 -209 -209 0 0 0 0 0
    0 0 0 0 0 0 0 0 0 0 0 0 0 0 0 0 0 0 0 0 0 0 0 0 0 0 0 0 0 0 0 0 0 0 0 0 0 0 0 0 0 0 0 0 0 0 0 0 0 0 0 0 0 0 0 0 0 0 0 0 0 0 0 0 0 0 0 0 0 -209 -209 -209 -193 -209 -209 -209 79 80 82 84 82 77 77 77 77 -193 -193 -193 -193 -193 84 83 83 85 -209 -209 -193 -193 -209 -193 -209 -209 -193 -193 -193 -193 -209 -209 245 248 247 245 243 243 243 237 239 237 235 -193 -193 -193 -177 -177 -193 -193 -209 -193 -193 234 -177 -177 -177 -177 -177 -177 234 235 234 236 -193 -193 -177 -193 -193 -193 -193 -209 -193 -209 -209 -193 -209 -209 -193 -177 -193 -193 720 -193 723 719 719 721 719 719 723 724 -177 -193 -209 -177 -177 -177 -193 -193 -193 -193 -193 -209 -193 -193 -193 237 -193 236 237 238 237 -177 -177 -177 -177 -177 -177 -193 -193 -193 391 397 400 400 401 403 404 404 -193 -193 -193 -177 -193 -193 -209 -209 -209 -209 -193 550 -193 -209 -209 -209 -209 -193 -193 -193 -193 -209 -193 84 84 -193 -193 83 85 84 84 83 83 85 86 86 -193 83 80 -193 80 81 -193 -193 -193 -193 -209 -209 -209 -209 -209 -209 -209 103 100 -177 -209 -193 -209 213 -209 206 211 -209 229 233 232 231 231 232 233 -209 -209 -209 -193 -193 -209 -209 -209 -209 -209 -209 -209 298 296 295 294 294 293 -193 -209 -209 244 246 245 242 243 245 -209 -209 257 262 262 262 262 -193 -209 -209 -209 0 0 0 0 0
    0 0 0 0 0 0 0 0 0 0 0 0 0 0 0 0 0 0 0 0 0 0 0 0 0 0 0 0 0 0 0 0 0 0 0 0 0 0 0 0 0 0 0 0 0 0 0 0 0 0 0 0 0 0 0 0 0 0 0 0 0 0 0 0 0 0 0 0 0 -209 -209 -209 -209 -209 -209 -209 -193 80 82 85 83 78 77 -193 77 -193 -193 -193 79 84 85 84 83 85 89 -193 -193 -193 -193 -193 -209 -193 -193 -193 -193 -193 -209 -193 -209 -209 -193 -193 -193 245 245 239 242 240 237 -193 -193 -193 -177 -177 -177 -193 -209 -193 -193 -193 236 -177 -177 -177 -177 -177 235 236 -209 -209 -209 -193 -193 558 561 563 565 567 -177 -209 570 -193 -209 -209 -193 -193 -193 723 722 -193 -193 721 721 723 721 721 724 -193 -193 -193 -209 -193 -177 -177 -193 -193 -193 -193 -193 -209 -193 -193 -193 -193 -193 237 238 239 -177 -177 -177 -177 -177 -177 -193 -193 -177 392 392 396 399 399 401 404 405 404 -193 -193 -193 -177 -193 -193 -209 -209 -209 -209 -209 551 553 -209 -209 -209 -209 -209 -209 -193 85 86 -193 84 -193 -193 -209 82 -193 83 83 80 82 83 85 87 -193 81 -193 -193 -193 -193 -193 -209 74 -209 -209 -209 -209 -209 -209 -209 -209 -209 -193 -209 -209 -193 -209 -209 -209 -209 309 -193 -209 -193 -193 237 237 236 237 240 -209 -209 -193 -193 -209 -209 -209 281 292 -193 296 296 295 294 293 293 293 291 284 285 240 244 244 -193 -193 -193 -209 -209 -209 -193 -209 -209 -193 -193 -209 -209 -209 0 0 0 0 0
    0 0 0 0 0 0 0 0 0 0 0 0 0 0 0 0 0 0 0 0 0 0 0 0 0 0 0 0 0 0 0 0 0 0 0 0 0 0 0 0 0 0 0 0 0 0 0 0 0 0 0 0 0 0 0 0 0 0 0 0 0 0 0 0 0 0 0 0 0 -209 -209 -193 -209 -209 -209 -193 -193 80 82 85 83 78 -193 -193 -193 -193 -193 -193 78 84 84 84 83 85 89 90 -193 -193 -209 -209 -209 -193 -209 85 80 -193 -209 -193 -209 -209 -209 -193 -177 -193 -209 236 240 236 235 -193 -209 -209 -177 -177 -177 -177 -209 -209 -193 -209 -209 -177 -177 236 234 232 234 237 -209 -209 -193 -193 -193 -193 560 561 564 -177 -177 -209 -193 -193 -193 -193 -209 -193 726 725 725 -193 -193 724 725 726 -193 -193 -209 -193 -209 -209 -209 -193 -193 -193 -193 -193 -193 -193 560 -193 563 -193 -193 -193 -193 -193 237 239 -193 -193 -193 -193 -193 -209 -209 392 -193 -177 393 395 401 398 402 405 -193 -193 -177 -177 563 -193 -193 -209 -209 293 296 294 295 295 295 294 294 295 -209 -193 293 -193 -193 -193 -193 294 294 294 295 295 295 294 295 295 296 297 296 296 294 293 291 286 285 287 286 -193 -209 293 291 -193 294 295 -209 -193 292 294 294 297 294 -209 -209 -193 301 302 301 301 299 302 304 302 300 301 -193 301 -209 -209 -209 -193 291 293 292 291 295 300 296 296 295 294 294 294 293 291 285 288 -193 -209 -193 291 294 294 296 299 299 -193 -193 -193 -209 -193 -193 -209 294 0 0 0 0 0
    0 0 0 0 0 0 0 0 0 0 0 0 0 0 0 0 0 0 0 0 0 0 0 0 0 0 0 0 0 0 0 0 0 0 0 0 0 0 0 0 0 0 0 0 0 0 0 0 0 0 0 0 0 0 0 0 0 0 0 0 0 0 0 0 0 0 0 0 0 -193 -193 -209 -209 -209 -209 -209 -209 -209 -193 -193 -193 -193 -193 -193 -209 -209 -193 -209 -193 83 84 84 83 85 90 89 -193 -209 -209 -209 -209 90 -193 -193 -209 -209 -209 -209 -209 -209 -209 -193 -209 -193 -209 -193 235 226 -209 -193 -209 -193 75 75 75 75 -209 -209 -209 -209 -209 -209 -193 -193 -193 -209 233 -193 -209 -209 -209 -209 -209 -209 -193 -193 -193 -193 -193 -193 287 288 -193 -193 -193 -209 -193 727 -209 -209 -209 -193 727 -193 -193 -209 -193 -193 -209 -209 -209 75 77 80 79 -193 81 -193 562 -209 -193 -193 -193 -193 -193 -193 235 -193 -209 -209 -209 -209 -209 296 296 -193 -193 -209 297 297 294 292 -193 -193 298 -193 -209 293 293 294 296 295 296 294 296 295 295 295 295 295 295 295 295 292 295 295 298 298 298 296 295 295 296 296 296 296 296 297 298 299 298 297 296 295 293 289 289 291 290 -193 291 293 293 294 294 295 295 294 293 294 295 297 294 -193 -209 297 300 300 299 300 299 301 304 302 301 301 302 302 301 301 -193 -209 -193 298 297 295 296 299 297 296 295 295 294 294 294 292 286 290 286 286 292 292 294 294 296 298 299 -209 298 -193 298 298 298 298 298 0 0 0 0 0
    0 0 0 0 0 0 0 0 0 0 0 0 0 0 0 0 0 0 0 0 0 0 0 0 0 0 0 0 0 0 0 0 0 0 0 0 0 0 0 0 0 0 0 0 0 0 0 0 0 0 0 0 0 0 0 0 0 0 0 0 0 0 0 0 0 0 0 0 0 294 294 295 295 293 296 -209 -209 -209 252 -209 -209 -209 -209 -209 -209 -209 -209 -193 -209 -209 83 83 83 84 -209 -209 -209 -209 -209 -209 90 91 93 90 -209 -209 -209 -209 -209 -209 -209 -209 -209 -209 -209 -209 -209 -193 289 291 293 -209 76 75 76 -193 298 299 300 299 297 297 -193 -193 -193 -209 -209 -193 297 297 299 299 299 299 299 298 297 296 296 294 293 292 292 292 294 295 296 -193 -193 295 -209 -209 737 -193 -209 -193 -209 -209 -209 -209 -209 -209 -193 932 931 932 931 -193 303 304 306 305 304 302 300 300 300 298 298 299 298 298 298 298 297 296 296 297 297 298 296 294 296 296 298 297 296 293 293 294 295 294 295 294 295 294 295 295 294 295 295 295 295 292 295 295 298 298 298 296 296 296 297 297 297 297 298 298 299 299 298 298 296 296 294 291 291 292 291 -193 292 293 293 294 294 295 295 295 294 295 296 297 294 295 294 296 298 298 297 298 298 300 303 301 302 301 302 302 301 302 300 299 298 299 299 298 298 300 297 297 295 295 295 294 294 293 288 291 288 289 294 293 295 296 -193 -193 -193 -193 -193 299 -193 299 298 298 298 0 0 0 0 0
    0 0 0 0 0 0 0 0 0 0 0 0 0 0 0 0 0 0 0 0 0 0 0 0 0 0 0 0 0 0 0 0 0 0 0 0 0 0 0 0 0 0 0 0 0 0 0 0 0 0 0 0 0 0 0 0 0 0 0 0 0 0 0 0 0 0 0 0 0 296 296 296 297 296 298 297 298 299 301 302 -209 -209 -209 289 292 291 294 294 294 293 293 294 -193 -193 296 -193 295 295 297 -193 293 295 -193 -193 292 293 294 295 295 297 -193 296 -193 -209 297 297 295 293 293 293 294 296 -193 -209 -193 297 298 298 299 298 296 295 295 294 294 294 294 295 296 297 300 299 299 299 299 298 298 297 297 295 294 293 293 293 295 295 296 -193 -193 295 296 -193 -209 -209 -209 295 -193 -193 -209 -209 -209 -209 -193 -177 -177 -177 -177 -193 304 304 305 305 304 302 300 299 299 297 297 298 298 297 297 297 297 296 296 297 297 297 296 295 297 297 298 297 296 294 294 295 295 295 295 294 296 295 295 295 295 295 295 295 296 293 296 296 298 298 298 297 297 297 298 297 297 297 298 298 299 299 298 298 296 297 296 294 294 293 293 295 294 294 294 294 295 295 295 295 294 295 296 296 294 295 294 295 296 297 297 297 298 300 302 301 302 301 301 301 301 302 300 299 299 299 299 298 298 299 297 297 296 295 295 295 294 294 290 292 289 292 295 294 296 297 -193 -193 -193 -193 -193 -193 -193 -193 298 297 298 0 0 0 0 0
    0 0 0 0 0 0 0 0 0 0 0 0 0 0 0 0 0 0 0 0 0 0 0 0 0 0 0 0 0 0 0 0 0 0 0 0 0 0 0 0 0 0 0 0 0 0 0 0 0 0 0 0 0 0 0 0 0 0 0 0 0 0 0 0 0 0 0 0 0 296 296 297 297 297 299 298 299 300 301 301 297 296 294 292 294 293 295 295 294 295 294 295 296 294 296 296 297 297 298 298 296 297 296 296 294 294 295 296 296 297 297 297 297 297 298 297 296 295 295 294 295 297 297 295 -193 297 297 297 297 296 294 294 294 293 293 293 294 295 297 297 300 299 299 299 299 298 298 297 297 295 294 294 293 294 295 295 296 296 296 296 297 298 297 295 296 295 296 298 299 296 296 296 -209 -209 -209 -209 -193 -193 302 302 303 303 302 300 299 299 299 297 297 298 298 297 297 297 297 296 297 297 297 297 296 295 296 296 296 296 295 293 294 295 295 294 294 293 295 295 295 295 295 295 295 295 296 294 296 296 298 298 298 297 297 297 298 297 297 297 297 297 298 298 298 297 297 298 298 296 297 296 295 296 296 295 295 295 295 296 295 296 295 296 296 296 295 295 295 295 296 296 296 297 298 299 301 300 301 300 301 300 301 301 299 299 299 299 299 298 298 298 296 297 296 295 295 295 294 294 291 292 290 292 295 295 296 297 -193 -193 -193 -193 298 -193 -193 -193 298 297 297 0 0 0 0 0
    0 0 0 0 0 0 0 0 0 0 0 0 0 0 0 0 0 0 0 0 0 0 0 0 0 0 0 0 0 0 0 0 0 0 0 0 0 0 0 0 0 0 0 0 0 0 0 0 0 0 0 0 0 0 0 0 0 0 0 0 0 0 0 0 0 0 0 0 0 297 297 297 297 297 298 297 299 299 300 301 298 296 295 293 294 294 295 295 295 295 295 295 296 294 296 296 297 297 297 298 297 297 297 298 296 296 297 297 297 297 297 297 297 297 298 297 296 295 294 294 296 297 297 295 297 297 297 296 296 295 294 293 294 292 292 293 293 295 297 297 300 299 299 299 299 298 298 297 297 295 294 294 294 294 296 296 297 298 297 298 297 299 298 296 297 296 296 297 297 296 296 295 297 296 298 299 299 299 301 301 301 301 301 299 298 298 298 297 297 298 297 297 296 297 297 296 297 297 297 296 296 295 295 295 295 295 294 293 294 294 295 294 294 294 295 295 295 295 294 294 294 294 295 292 295 295 296 297 297 297 297 297 297 297 297 297 297 297 297 297 297 297 297 298 299 298 298 297 297 297 297 296 295 295 296 296 296 296 296 296 296 296 295 295 295 295 295 295 295 296 297 299 300 299 300 300 300 300 300 300 299 299 299 299 299 298 298 297 296 296 295 295 294 294 294 293 291 292 290 292 294 295 296 297 300 299 300 298 298 -193 -193 -193 298 297 298 0 0 0 0 0
    0 0 0 0 0 0 0 0 0 0 0 0 0 0 0 0 0 0 0 0 0 0 0 0 0 0 0 0 0 0 0 0 0 0 0 0 0 0 0 0 0 0 0 0 0 0 0 0 0 0 0 0 0 0 0 0 0 0 0 0 0 0 0 0 0 0 0 0 0 297 297 297 297 297 298 297 298 297 298 298 297 296 295 293 295 294 295 295 295 295 295 295 297 295 296 296 297 297 297 297 297 297 298 298 297 297 298 298 298 298 298 298 297 297 298 297 296 294 294 294 295 296 296 295 296 296 296 296 295 295 294 293 294 292 292 293 293 295 297 297 299 298 298 298 298 298 298 297 297 295 295 295 295 295 297 297 298 298 298 299 298 299 298 296 297 296 295 296 296 296 296 296 297 297 299 300 300 300 302 301 301 301 300 299 298 297 297 296 297 297 297 296 295 296 296 296 296 296 296 296 296 295 295 295 294 295 294 294 294 295 295 295 295 294 296 295 295 295 294 294 294 294 295 291 295 294 295 296 296 296 297 297 297 297 297 297 297 297 297 297 297 296 297 298 299 298 299 298 298 297 297 296 295 295 295 295 295 296 295 296 296 297 296 295 295 295 295 295 295 295 296 298 299 299 300 300 301 301 301 301 299 299 300 299 299 298 298 297 296 296 295 295 294 294 294 293 292 292 291 293 294 295 296 297 299 299 300 299 298 298 -193 -193 298 297 297 0 0 0 0 0
    0 0 0 0 0 0 0 0 0 0 0 0 0 0 0 0 0 0 0 0 0 0 0 0 0 0 0 0 0 0 0 0 0 0 0 0 0 0 0 0 0 0 0 0 0 0 0 0 0 0 0 0 0 0 0 0 0 0 0 0 0 0 0 0 0 0 0 0 0 297 297 297 297 297 298 297 298 297 298 298 298 297 296 294 296 294 296 295 295 296 296 295 296 295 296 296 297 297 297 297 298 297 298 299 298 298 299 299 299 299 299 299 298 298 298 297 296 294 294 294 295 296 296 295 296 296 297 296 296 295 295 294 294 293 293 293 294 295 297 297 300 298 298 298 298 299 298 298 298 296 296 296 296 297 297 297 298 298 298 299 298 299 297 296 297 296 295 296 296 296 296 296 298 298 299 300 300 301 302 301 301 300 300 299 298 297 297 296 297 297 297 296 295 296 296 296 296 296 296 295 296 295 295 295 293 294 294 294 295 295 296 296 296 296 297 295 295 295 295 294 294 294 295 291 295 294 295 296 296 296 297 297 297 297 296 297 297 297 297 297 297 297 297 298 299 299 299 299 298 298 297 296 296 295 295 295 295 296 296 297 297 297 296 296 295 295 295 295 295 295 296 297 299 298 300 300 301 301 301 300 300 299 300 300 299 299 298 297 296 296 295 295 294 295 294 293 293 293 292 293 294 295 296 297 299 299 300 299 299 299 298 298 298 297 297 0 0 0 0 0
    0 0 0 0 0 0 0 0 0 0 0 0 0 0 0 0 0 0 0 0 0 0 0 0 0 0 0 0 0 0 0 0 0 0 0 0 0 0 0 0 0 0 0 0 0 0 0 0 0 0 0 0 0 0 0 0 0 0 0 0 0 0 0 0 0 0 0 0 0 297 297 297 297 297 298 296 298 297 298 297 298 297 296 295 296 294 296 295 296 296 296 295 297 296 296 297 297 297 297 296 298 297 298 299 298 298 299 300 299 300 300 299 299 298 298 297 296 294 293 293 294 295 296 295 296 297 297 297 296 295 295 294 294 293 292 293 293 295 296 297 300 298 298 298 299 299 299 298 298 297 297 298 297 298 298 297 297 297 298 299 298 298 297 296 297 296 295 296 296 296 297 297 298 298 299 300 300 300 301 300 299 299 299 298 297 297 296 296 296 297 297 296 295 296 296 296 297 297 296 296 296 296 295 295 293 294 294 295 295 296 296 297 296 296 297 296 295 295 295 294 294 294 295 291 296 295 295 296 296 297 297 297 297 296 297 297 297 297 297 297 297 297 297 298 299 298 299 298 298 297 297 296 296 295 295 295 295 296 296 297 297 297 296 296 296 295 295 295 295 294 296 297 298 298 299 300 301 301 301 301 300 300 300 300 300 299 299 298 296 296 295 295 295 295 294 293 293 292 291 293 293 293 294 296 298 299 299 299 299 299 298 298 298 297 297 0 0 0 0 0
    0 0 0 0 0 0 0 0 0 0 0 0 0 0 0 0 0 0 0 0 0 0 0 0 0 0 0 0 0 0 0 0 0 0 0 0 0 0 0 0 0 0 0 0 0 0 0 0 0 0 0 0 0 0 0 0 0 0 0 0 0 0 0 0 0 0 0 0 0 297 297 297 297 297 298 296 298 296 298 297 298 297 296 295 296 294 296 295 296 296 296 296 297 296 297 297 297 297 296 296 297 297 298 299 298 298 299 300 299 300 299 299 298 298 298 296 295 293 292 292 293 294 295 294 297 297 297 297 296 295 294 293 294 293 292 293 293 295 296 296 300 298 298 299 299 299 299 299 299 297 298 299 298 299 299 299 299 298 299 299 298 297 297 296 296 295 295 295 296 296 297 297 298 298 300 301 300 300 300 300 299 298 298 297 296 296 295 295 295 296 296 295 294 296 296 296 297 297 297 296 296 296 295 295 293 294 294 295 296 296 296 297 296 297 298 296 295 295 295 295 295 295 296 291 297 296 296 296 297 297 297 297 297 297 297 297 297 297 297 296 296 296 297 298 298 298 298 298 298 297 297 296 297 295 296 295 295 296 297 297 298 297 297 296 296 295 295 294 294 294 294 295 297 297 298 300 300 301 301 301 300 300 300 300 299 299 298 297 296 296 295 295 295 295 294 293 292 292 291 292 293 293 293 295 296 298 299 298 298 298 298 298 298 297 297 0 0 0 0 0
    0 0 0 0 0 0 0 0 0 0 0 0 0 0 0 0 0 0 0 0 0 0 0 0 0 0 0 0 0 0 0 0 0 0 0 0 0 0 0 0 0 0 0 0 0 0 0 0 0 0 0 0 0 0 0 0 0 0 0 0 0 0 0 0 0 0 0 0 0 297 297 297 297 297 297 295 297 296 298 298 298 297 296 295 296 295 296 295 296 296 297 296 297 296 297 297 297 297 296 296 298 298 299 300 299 299 300 300 300 300 299 299 298 298 298 296 294 293 291 291 292 293 294 293 296 297 296 296 295 294 293 292 293 293 291 292 292 294 295 296 300 299 298 299 300 300 300 300 300 297 299 300 299 300 300 301 300 299 299 299 298 297 296 295 295 294 294 294 295 295 296 296 298 298 299 300 299 299 299 299 298 298 298 297 296 295 294 294 294 295 295 295 294 295 296 296 297 297 297 296 296 296 295 295 294 294 -193 -193 -193 -193 -193 297 296 297 299 296 296 296 295 295 295 296 296 291 297 296 295 296 297 298 298 298 298 297 297 297 296 297 296 296 295 295 296 297 298 299 299 299 298 298 298 297 297 295 296 295 295 296 296 297 297 297 296 296 296 295 294 294 294 293 293 293 294 295 297 299 300 300 300 300 299 299 300 299 298 297 297 296 295 295 294 294 294 294 294 293 292 292 291 292 293 292 292 294 295 296 297 296 297 297 297 297 297 295 297 0 0 0 0 0
    0 0 0 0 0 0 0 0 0 0 0 0 0 0 0 0 0 0 0 0 0 0 0 0 0 0 0 0 0 0 0 0 0 0 0 0 0 0 0 0 0 0 0 0 0 0 0 0 0 0 0 0 0 0 0 0 0 0 0 0 0 0 0 0 0 0 0 0 0 296 296 296 295 296 297 294 297 297 299 298 299 298 297 295 296 295 296 296 296 296 297 295 297 296 296 296 297 296 296 295 298 298 299 300 298 298 300 300 300 300 299 299 299 299 299 296 294 293 292 292 293 293 294 293 296 297 296 296 295 294 293 293 293 293 292 292 292 294 294 296 299 298 298 299 300 300 299 300 300 297 299 300 299 300 301 303 302 301 301 300 299 297 296 295 295 294 293 294 294 294 294 295 297 296 298 299 298 298 298 298 297 297 297 296 295 295 293 294 293 294 294 294 294 295 296 296 297 297 297 296 296 296 295 295 294 295 -193 -193 -193 297 -193 297 297 297 300 296 296 296 295 295 295 296 296 289 296 295 295 295 296 297 296 297 296 296 296 296 295 295 295 295 295 295 296 297 298 298 299 299 299 298 298 297 297 -193 296 294 294 294 295 295 296 296 296 296 296 295 295 294 294 293 293 293 293 294 296 299 299 299 299 299 298 299 299 298 297 296 296 295 294 294 294 294 294 294 294 293 292 292 291 292 293 292 292 293 295 296 296 296 297 297 296 297 297 295 297 0 0 0 0 0
    0 0 0 0 0 0 0 0 0 0 0 0 0 0 0 0 0 0 0 0 0 0 0 0 0 0 0 0 0 0 0 0 0 0 0 0 0 0 0 0 0 0 0 0 0 0 0 0 0 0 0 0 0 0 0 0 0 0 0 0 0 0 0 0 0 0 0 0 0 296 296 296 295 295 296 292 297 296 298 297 298 297 297 295 296 295 296 296 296 296 297 295 297 295 296 296 296 296 296 295 298 298 -193 300 299 299 300 300 300 300 300 300 299 300 299 296 294 293 292 293 293 293 294 294 295 297 296 296 296 295 294 294 293 294 293 293 293 294 294 295 298 298 297 298 299 299 299 299 299 297 298 299 298 300 301 303 302 302 302 300 300 298 297 295 295 295 294 294 294 294 295 295 297 296 297 298 297 297 297 -193 297 296 296 295 295 295 293 293 293 294 295 295 295 296 296 296 297 297 297 296 295 296 294 294 294 295 -193 -193 -193 297 297 297 297 296 299 295 295 295 295 294 294 295 295 288 295 295 295 295 296 297 296 296 296 295 295 295 294 295 294 295 295 295 296 297 298 298 299 299 299 298 298 297 -193 -193 -209 293 293 293 -193 295 295 296 296 296 297 296 295 295 295 295 295 295 294 294 296 299 299 299 299 298 298 298 299 298 297 296 296 295 295 295 294 294 294 294 294 293 292 292 291 292 293 292 291 293 294 295 296 297 298 298 298 299 299 297 300 0 0 0 0 0
    0 0 0 0 0 0 0 0 0 0 0 0 0 0 0 0 0 0 0 0 0 0 0 0 0 0 0 0 0 0 0 0 0 0 0 0 0 0 0 0 0 0 0 0 0 0 0 0 0 0 0 0 0 0 0 0 0 0 0 0 0 0 0 0 0 0 0 0 0 295 296 295 294 295 295 291 297 296 297 296 297 296 296 295 296 295 296 295 295 295 296 295 296 295 296 295 295 295 296 295 298 299 300 299 299 299 300 300 301 301 300 300 300 301 299 296 294 293 292 292 293 293 293 293 295 297 296 296 296 295 295 294 294 294 293 293 293 294 294 295 298 297 297 298 298 299 298 299 299 295 298 298 298 300 301 302 301 302 302 300 300 298 297 296 296 296 295 295 295 295 295 294 297 295 297 297 296 297 296 -193 296 296 296 295 295 295 293 293 293 294 294 295 295 295 296 296 296 296 296 296 294 295 293 293 294 295 296 296 296 297 297 297 297 296 298 295 295 295 294 294 293 294 294 288 295 295 295 295 296 297 296 296 296 295 295 295 294 295 295 295 296 296 297 297 298 298 298 298 298 297 297 296 -193 -193 -193 293 293 293 -193 -193 295 295 296 296 297 297 296 296 296 295 296 295 294 294 297 300 300 300 300 299 299 299 299 299 297 297 296 296 295 295 295 294 294 295 294 293 291 292 292 292 293 291 291 292 294 295 296 296 297 297 298 301 300 297 301 0 0 0 0 0
    0 0 0 0 0 0 0 0 0 0 0 0 0 0 0 0 0 0 0 0 0 0 0 0 0 0 0 0 0 0 0 0 0 0 0 0 0 0 0 0 0 0 0 0 0 0 0 0 0 0 0 0 0 0 0 0 0 0 0 0 0 0 0 0 0 0 0 0 0 295 295 295 294 294 295 291 297 296 298 297 297 296 296 295 296 294 295 295 295 294 -193 294 295 294 295 295 295 295 296 296 298 298 299 299 298 298 299 299 299 300 300 300 300 300 298 296 294 293 293 293 293 293 293 294 295 297 296 296 297 296 295 294 293 294 293 293 293 294 294 295 297 297 297 298 298 298 298 298 299 293 297 297 297 299 299 301 300 300 300 299 299 298 297 296 296 296 295 295 295 295 295 294 296 295 296 -193 296 296 296 295 296 295 295 295 295 295 294 295 295 295 295 296 296 296 296 296 296 296 296 296 295 295 293 294 295 296 296 297 297 297 297 297 297 296 298 295 295 295 294 294 293 294 293 288 295 295 296 295 296 297 296 297 296 296 295 296 295 296 296 297 297 297 298 298 298 298 -193 -193 298 297 297 296 -193 -193 -193 293 294 294 -193 -193 296 295 297 297 298 298 297 296 296 295 296 294 294 295 296 298 299 299 300 299 299 299 299 298 297 297 297 296 296 295 295 294 295 295 295 293 291 292 292 293 293 291 291 292 292 294 294 295 -193 296 298 304 302 297 301 0 0 0 0 0
    0 0 0 0 0 0 0 0 0 0 0 0 0 0 0 0 0 0 0 0 0 0 0 0 0 0 0 0 0 0 0 0 0 0 0 0 0 0 0 0 0 0 0 0 0 0 0 0 0 0 0 0 0 0 0 0 0 0 0 0 0 0 0 0 0 0 0 0 0 294 295 295 294 294 295 292 297 297 298 297 296 296 296 295 296 294 295 294 295 294 -193 293 294 294 294 294 -193 294 295 295 298 298 298 298 298 297 299 298 299 299 299 299 299 299 298 296 294 294 293 293 293 293 294 295 295 297 296 296 296 296 294 294 292 293 293 293 293 294 294 295 298 297 297 298 298 298 297 298 298 291 296 295 293 297 298 299 299 300 300 298 299 297 296 296 296 296 295 295 295 295 295 294 296 295 296 -193 295 295 295 295 295 294 295 294 -193 295 295 295 296 297 297 297 297 296 297 297 297 297 297 297 296 296 295 295 296 296 297 296 296 296 296 296 296 296 297 294 295 294 294 294 293 293 293 289 295 295 296 295 296 298 297 297 297 296 296 296 296 296 297 298 298 298 298 298 298 298 -193 -193 297 296 297 296 -193 -193 -193 -193 295 295 -209 -193 297 295 297 297 298 298 297 297 296 295 296 294 294 295 295 295 296 297 298 298 298 298 298 297 297 297 297 297 296 296 295 295 295 295 295 294 291 293 292 294 294 292 291 292 292 294 -193 -193 -209 -209 296 -193 302 297 -193 0 0 0 0 0
    0 0 0 0 0 0 0 0 0 0 0 0 0 0 0 0 0 0 0 0 0 0 0 0 0 0 0 0 0 0 0 0 0 0 0 0 0 0 0 0 0 0 0 0 0 0 0 0 0 0 0 0 0 0 0 0 0 0 0 0 0 0 0 0 0 0 0 0 0 294 294 295 294 294 295 292 297 296 297 296 295 295 294 294 295 294 -193 -193 294 293 -193 293 294 293 293 293 -193 -193 295 295 298 298 298 298 297 297 298 297 298 298 298 298 298 298 298 296 295 294 294 294 294 294 295 295 295 296 295 296 295 294 293 293 292 293 293 293 293 294 294 295 298 297 296 297 297 297 296 296 297 289 294 293 290 295 297 299 299 300 300 298 299 297 296 296 296 296 295 295 295 295 295 294 -193 295 295 -193 295 295 295 295 295 294 295 295 -193 295 295 295 296 296 297 297 297 296 297 297 297 297 297 298 296 296 296 296 296 296 296 296 296 296 295 295 295 295 296 294 294 294 294 294 293 293 293 290 295 295 295 295 296 298 297 298 298 297 297 298 298 297 298 298 298 297 297 297 296 297 296 296 296 295 296 296 -193 -193 296 295 295 295 297 297 297 296 297 296 297 297 297 296 296 295 295 294 294 294 294 294 295 296 297 297 297 297 297 297 297 296 297 297 296 296 296 295 295 295 295 294 292 293 293 294 294 293 292 293 293 -193 -193 -193 -209 -209 -209 -209 -209 -209 -209 0 0 0 0 0
    0 0 0 0 0 0 0 0 0 0 0 0 0 0 0 0 0 0 0 0 0 0 0 0 0 0 0 0 0 0 0 0 0 0 0 0 0 0 0 0 0 0 0 0 0 0 0 0 0 0 0 0 0 0 0 0 0 0 0 0 0 0 0 0 0 0 0 0 0 293 293 294 293 294 295 292 296 295 296 295 295 294 294 294 295 294 -193 293 294 293 294 292 293 292 292 292 -193 -193 -193 -193 -193 -209 298 298 297 297 298 297 298 298 298 298 298 298 297 296 295 295 295 294 295 295 295 295 295 296 295 295 294 294 293 292 291 293 293 293 293 294 294 294 297 296 295 296 296 296 295 295 296 288 295 293 291 296 297 299 299 300 299 298 299 297 296 296 295 295 295 295 295 295 295 -193 -193 294 295 296 -193 295 295 295 296 294 295 295 296 296 295 295 296 296 296 296 297 296 297 297 297 297 297 297 296 295 296 296 296 296 296 296 296 296 295 295 294 295 296 293 294 294 294 294 293 293 293 291 294 294 295 295 296 297 297 298 298 299 298 299 299 299 298 298 297 297 297 297 296 297 296 296 296 295 295 295 296 296 296 294 295 295 296 297 297 296 296 296 297 297 297 296 296 295 296 295 295 295 295 295 295 295 296 296 296 -193 296 297 296 296 297 296 296 296 295 295 295 295 295 294 292 294 294 296 296 295 -193 -193 -209 -209 -209 -209 26 -209 -209 -209 -209 -209 -209 0 0 0 0 0
    0 0 0 0 0 0 0 0 0 0 0 0 0 0 0 0 0 0 0 0 0 0 0 0 0 0 0 0 0 0 0 0 0 0 0 0 0 0 0 0 0 0 0 0 0 0 0 0 0 0 0 0 0 0 0 0 0 0 0 0 0 0 0 0 0 0 0 0 0 293 293 294 293 293 295 292 295 295 295 295 295 294 294 294 295 294 295 293 293 292 293 291 291 290 291 291 292 -193 -193 -193 -193 -193 299 298 298 297 298 297 298 298 298 297 297 297 296 296 295 295 295 295 295 295 295 295 295 296 295 295 294 294 293 292 291 292 293 292 293 294 294 294 296 295 295 295 295 295 294 294 294 288 295 293 291 294 296 298 299 299 299 298 299 297 297 297 296 296 295 295 295 294 294 -193 -193 294 294 295 -193 296 296 296 296 295 295 296 296 296 295 295 296 296 297 296 297 295 297 297 297 296 296 296 -209 295 -209 -193 296 296 296 296 -209 296 295 295 295 295 296 293 293 294 293 293 293 292 293 291 294 294 294 295 296 297 297 298 299 299 298 299 299 300 299 299 298 297 296 297 296 297 296 296 296 295 296 296 297 296 295 294 295 295 296 296 297 295 296 296 297 297 297 297 296 295 297 296 295 295 295 294 295 294 295 296 295 296 296 297 296 296 297 297 296 296 295 295 295 295 295 294 292 294 294 296 296 296 -209 -209 -209 -209 -209 -209 -209 -209 -209 -209 -209 -209 -209 0 0 0 0 0
    0 0 0 0 0 0 0 0 0 0 0 0 0 0 0 0 0 0 0 0 0 0 0 0 0 0 0 0 0 0 0 0 0 0 0 0 0 0 0 0 0 0 0 0 0 0 0 0 0 0 0 0 0 0 0 0 0 0 0 0 0 0 0 0 0 0 0 0 0 293 293 294 293 293 295 292 295 294 295 294 294 294 294 294 295 294 -193 294 294 293 293 291 291 290 291 291 292 292 -193 295 298 298 299 298 298 298 298 297 297 297 297 296 296 296 296 296 295 295 295 295 295 295 295 295 295 296 295 295 294 294 293 293 292 293 293 293 294 295 294 294 296 294 294 294 295 294 294 293 294 288 295 293 291 293 295 298 298 299 298 299 299 299 299 299 298 298 297 297 -193 -193 -193 -193 -193 294 294 296 296 296 296 296 296 295 295 296 296 296 296 296 297 296 297 295 296 294 295 295 296 294 294 295 -193 295 -193 -193 295 295 -193 297 -209 296 296 295 295 295 295 293 293 293 293 293 292 292 293 291 294 294 294 294 295 297 297 298 298 298 298 299 299 300 299 298 298 297 297 297 296 297 295 295 295 295 296 296 297 296 296 295 296 295 296 296 297 296 297 296 297 298 298 298 298 297 298 297 296 296 295 294 294 293 295 295 295 295 296 296 297 297 298 297 296 296 296 295 295 295 295 293 292 294 294 296 295 295 -193 -209 -209 -209 -209 -209 -209 -209 -209 -209 -209 -209 -209 0 0 0 0 0
    0 0 0 0 0 0 0 0 0 0 0 0 0 0 0 0 0 0 0 0 0 0 0 0 0 0 0 0 0 0 0 0 0 0 0 0 0 0 0 0 0 0 0 0 0 0 0 0 0 0 0 0 0 0 0 0 0 0 0 0 0 0 0 0 0 0 0 0 0 293 293 293 293 293 295 292 295 294 294 294 294 294 294 294 295 294 -193 -193 294 293 293 292 292 291 291 291 292 293 295 296 298 299 299 298 298 298 298 297 297 296 295 295 295 296 296 296 295 295 295 295 295 295 295 295 295 296 295 295 295 294 294 294 293 294 294 294 295 296 295 295 296 294 294 294 294 294 293 293 294 289 295 294 293 294 296 298 298 299 298 299 299 299 299 299 298 298 297 298 297 -193 295 294 294 295 296 297 297 296 296 295 296 295 295 295 296 295 296 296 297 296 296 294 294 293 294 293 293 293 292 293 294 293 295 295 294 295 -193 296 -193 296 295 295 295 295 295 293 294 294 293 294 293 292 293 292 294 294 294 294 295 297 297 298 298 298 298 299 299 299 299 298 298 297 297 297 296 296 295 294 294 294 295 296 297 296 296 296 296 296 297 297 297 296 297 297 297 298 298 298 298 297 298 297 296 296 295 294 294 293 294 294 294 294 294 295 296 297 298 298 296 296 296 295 295 295 295 293 292 294 293 294 294 293 -193 -193 -209 -193 -209 -209 -209 -209 -209 -209 -209 -209 -209 0 0 0 0 0
    0 0 0 0 0 0 0 0 0 0 0 0 0 0 0 0 0 0 0 0 0 0 0 0 0 0 0 0 0 0 0 0 0 0 0 0 0 0 0 0 0 0 0 0 0 0 0 0 0 0 0 0 0 0 0 0 0 0 0 0 0 0 0 0 0 0 0 0 0 293 294 294 294 293 295 293 295 294 294 294 294 294 294 294 -193 -193 -193 -193 294 294 294 293 292 291 292 292 291 292 294 295 298 299 299 299 298 298 298 297 297 296 295 295 295 295 296 296 296 295 295 295 296 295 296 295 295 296 295 295 294 294 294 294 293 294 294 294 295 296 295 295 296 293 293 294 294 293 293 293 294 290 296 296 295 295 296 298 298 298 297 298 298 299 299 299 298 298 -193 297 296 296 295 294 295 296 297 297 297 295 295 295 295 294 295 295 295 295 295 296 296 295 295 294 293 292 293 292 292 292 292 293 294 293 295 295 294 295 -193 296 296 295 295 295 294 295 295 294 294 294 294 294 293 293 294 293 294 293 293 294 294 296 297 297 297 297 297 298 298 298 298 297 297 297 296 296 295 295 295 294 294 294 295 296 297 297 297 297 297 297 298 297 298 296 297 297 297 297 297 297 297 296 297 296 296 296 295 294 294 293 294 294 294 294 293 294 295 297 298 297 295 296 295 295 295 295 295 293 291 294 293 293 293 293 293 -193 -193 294 293 -193 -209 -209 -209 -193 -209 -209 -209 0 0 0 0 0
    0 0 0 0 0 0 0 0 0 0 0 0 0 0 0 0 0 0 0 0 0 0 0 0 0 0 0 0 0 0 0 0 0 0 0 0 0 0 0 0 0 0 0 0 0 0 0 0 0 0 0 0 0 0 0 0 0 0 0 0 0 0 0 0 0 0 0 0 0 294 294 294 294 293 295 293 294 293 294 294 294 294 294 294 -193 -193 -193 -209 295 -193 294 294 292 292 292 292 291 291 293 294 296 298 298 298 298 297 298 296 296 295 293 294 295 295 297 296 296 295 295 295 296 295 296 295 295 296 295 295 294 294 294 294 293 294 294 294 295 295 295 295 296 293 293 293 294 293 293 293 294 291 297 298 296 296 297 298 297 297 297 298 298 298 298 298 297 297 297 297 296 296 295 295 295 297 297 297 296 295 294 294 294 293 294 294 294 294 294 295 295 294 295 293 293 292 293 293 292 293 293 294 295 295 297 295 295 295 296 296 296 295 295 294 294 295 295 295 295 295 295 295 294 294 294 294 294 292 292 293 293 294 296 296 296 296 296 297 297 297 298 297 297 297 296 296 296 296 295 293 293 294 295 296 298 298 298 298 298 298 299 298 298 296 297 297 297 297 297 296 297 296 297 296 296 296 296 295 295 294 294 294 294 293 293 293 294 295 296 296 295 295 295 294 294 294 294 292 291 294 292 293 293 293 293 293 -193 294 293 -193 -209 -209 -209 298 -209 -209 -209 0 0 0 0 0
    0 0 0 0 0 0 0 0 0 0 0 0 0 0 0 0 0 0 0 0 0 0 0 0 0 0 0 0 0 0 0 0 0 0 0 0 0 0 0 0 0 0 0 0 0 0 0 0 0 0 0 0 0 0 0 0 0 0 0 0 0 0 0 0 0 0 0 0 0 294 294 294 294 293 295 292 294 293 294 294 294 294 295 295 -193 -193 -193 -193 295 -193 295 294 293 292 292 291 290 291 292 293 295 297 297 297 297 297 297 296 295 295 292 293 293 294 297 296 296 295 296 295 296 295 295 294 294 295 295 294 294 294 294 295 294 294 294 294 295 295 295 295 295 292 292 292 293 292 292 293 294 290 297 298 297 297 299 301 298 298 297 299 298 299 298 298 297 296 297 296 295 295 294 295 296 298 297 297 297 295 295 294 294 293 294 294 293 294 293 294 294 294 295 293 293 293 293 294 293 293 293 293 295 -193 297 296 295 295 296 297 296 296 295 295 295 295 296 296 296 296 296 296 295 295 295 294 294 292 292 293 293 294 295 294 295 295 295 295 295 295 296 295 296 295 295 296 295 295 295 294 294 294 295 297 297 298 298 298 298 298 299 298 298 296 296 296 296 296 297 296 297 296 297 296 297 297 296 295 295 294 294 293 293 293 293 294 294 295 296 296 294 295 295 294 294 294 294 292 291 294 292 293 293 294 293 293 294 294 293 295 294 -193 297 298 298 -193 -193 0 0 0 0 0
    0 0 0 0 0 0 0 0 0 0 0 0 0 0 0 0 0 0 0 0 0 0 0 0 0 0 0 0 0 0 0 0 0 0 0 0 0 0 0 0 0 0 0 0 0 0 0 0 0 0 0 0 0 0 0 0 0 0 0 0 0 0 0 0 0 0 0 0 0 294 294 293 294 293 295 292 294 293 294 294 295 294 295 295 -209 -193 -193 -193 295 -193 295 294 293 292 292 291 290 292 293 294 296 298 298 297 297 297 297 296 295 295 292 293 294 294 297 296 297 296 296 295 296 295 294 293 294 294 295 294 294 295 295 296 295 295 295 295 296 296 295 295 295 292 292 292 292 292 292 293 294 290 298 299 297 298 300 300 298 297 297 298 298 298 298 297 296 296 296 296 295 295 294 295 297 299 298 297 297 296 295 295 295 294 294 294 293 294 293 294 294 294 295 293 293 294 293 294 293 293 291 291 293 -193 296 296 295 295 296 297 296 296 296 295 295 296 297 296 297 297 296 296 295 295 295 295 294 293 293 293 294 294 295 294 295 295 294 294 294 295 295 295 295 295 295 296 295 295 295 294 294 294 294 296 296 297 297 297 297 296 297 297 297 296 296 296 296 296 297 297 297 297 298 297 297 296 296 295 295 293 294 293 294 294 294 294 295 296 296 296 295 295 295 294 294 294 294 292 290 294 292 292 293 293 293 293 294 293 293 295 294 297 298 299 299 297 296 0 0 0 0 0
    0 0 0 0 0 0 0 0 0 0 0 0 0 0 0 0 0 0 0 0 0 0 0 0 0 0 0 0 0 0 0 0 0 0 0 0 0 0 0 0 0 0 0 0 0 0 0 0 0 0 0 0 0 0 0 0 0 0 0 0 0 0 0 0 0 0 0 0 0 294 294 293 293 293 295 291 293 293 293 294 295 294 295 295 296 -193 -193 -193 -193 -193 295 295 294 293 293 293 291 292 293 295 296 298 298 297 297 296 297 296 295 295 292 292 293 294 297 296 296 295 295 295 295 295 294 294 294 294 295 294 295 295 295 296 295 295 295 295 296 296 295 295 295 291 291 291 292 291 292 293 294 290 298 299 297 298 299 299 297 296 -193 -193 -193 297 297 296 296 296 296 297 295 295 295 296 297 299 298 298 297 296 295 295 295 294 294 294 294 294 293 294 294 294 295 293 294 294 293 294 292 293 290 291 293 294 295 295 295 295 297 297 296 296 296 296 296 296 297 296 297 297 296 296 295 295 295 295 294 293 293 294 294 294 295 294 294 294 294 293 293 294 295 295 295 295 294 295 295 295 294 293 293 293 294 296 296 296 297 296 297 296 297 297 296 296 296 296 296 296 297 296 297 297 298 297 297 297 297 295 295 293 294 293 294 293 294 294 295 296 297 296 295 295 295 294 294 293 293 291 289 293 291 291 292 293 293 293 294 292 292 294 293 -193 298 -193 298 296 296 0 0 0 0 0
    0 0 0 0 0 0 0 0 0 0 0 0 0 0 0 0 0 0 0 0 0 0 0 0 0 0 0 0 0 0 0 0 0 0 0 0 0 0 0 0 0 0 0 0 0 0 0 0 0 0 0 0 0 0 0 0 0 0 0 0 0 0 0 0 0 0 0 0 0 294 294 293 293 293 295 290 292 292 293 294 294 294 295 295 296 -209 -193 -209 -193 -209 296 296 295 295 294 294 293 294 294 296 296 298 297 297 297 296 297 295 295 295 292 291 293 292 296 295 295 294 294 294 295 294 294 293 294 294 295 294 295 295 295 296 295 296 295 295 296 296 295 295 295 291 291 291 292 291 292 293 293 289 297 299 297 297 298 298 297 295 296 -193 -193 -193 297 296 296 295 296 296 295 295 295 296 298 299 299 299 297 -193 296 295 295 294 294 294 294 294 293 294 294 294 295 294 294 294 293 294 292 293 290 291 293 294 294 295 295 295 296 296 296 296 295 295 295 295 296 296 297 297 297 296 296 295 296 296 295 294 294 294 294 294 295 294 294 294 293 292 292 292 294 294 294 294 293 294 295 295 294 293 292 294 294 297 -193 -193 297 297 297 297 297 297 296 295 296 296 296 296 297 296 297 297 298 297 298 298 297 295 295 293 294 293 294 293 294 294 295 297 297 296 295 295 295 294 294 293 293 291 288 293 291 291 292 292 292 292 293 291 290 292 291 -193 296 -193 -209 295 295 0 0 0 0 0
    0 0 0 0 0 0 0 0 0 0 0 0 0 0 0 0 0 0 0 0 0 0 0 0 0 0 0 0 0 0 0 0 0 0 0 0 0 0 0 0 0 0 0 0 0 0 0 0 0 0 0 0 0 0 0 0 0 0 0 0 0 0 0 0 0 0 0 0 0 294 294 293 293 293 295 290 292 292 292 293 294 294 294 295 295 -193 296 -209 -193 -209 297 -193 295 296 295 295 293 294 294 296 296 297 297 296 296 296 296 295 294 295 292 292 293 292 295 294 295 294 293 294 295 295 295 294 295 295 296 295 295 295 295 296 295 296 295 295 296 296 295 295 295 292 291 291 292 291 292 293 294 288 298 299 298 297 298 298 296 294 295 296 296 296 296 295 295 295 296 296 295 295 295 297 298 299 299 299 -193 -193 296 295 295 294 294 294 294 294 293 294 294 294 295 293 293 294 293 294 292 293 291 292 293 294 295 296 296 296 296 296 295 295 295 294 294 294 295 296 297 297 297 297 296 296 296 296 296 294 295 295 295 294 294 294 294 293 293 292 292 290 293 293 294 294 292 293 294 294 295 -193 293 294 295 298 -193 -193 298 297 298 298 298 297 296 295 295 295 294 295 295 295 296 296 297 296 297 298 297 295 295 294 295 293 294 293 294 294 295 297 297 296 295 295 295 294 294 293 293 291 289 293 291 291 292 292 292 292 292 290 288 290 289 289 293 295 294 294 294 0 0 0 0 0
    0 0 0 0 0 0 0 0 0 0 0 0 0 0 0 0 0 0 0 0 0 0 0 0 0 0 0 0 0 0 0 0 0 0 0 0 0 0 0 0 0 0 0 0 0 0 0 0 0 0 0 0 0 0 0 0 0 0 0 0 0 0 0 0 0 0 0 0 0 294 294 293 294 294 295 291 292 293 292 293 294 294 294 295 295 295 296 -193 296 0 -256 -1 1355 296 295 295 293 294 294 296 295 297 297 296 296 295 295 295 294 295 293 291 293 292 295 294 294 293 293 293 294 294 294 294 294 294 296 295 295 296 295 296 295 296 295 295 295 295 295 295 295 291 291 291 291 291 292 293 294 289 298 299 298 297 298 297 296 294 295 295 295 295 295 294 295 294 296 295 296 296 296 296 297 298 298 298 -193 -193 295 295 295 294 294 294 293 294 293 294 294 294 294 293 293 294 293 294 293 293 291 293 293 295 295 296 296 295 295 296 295 294 294 294 293 293 295 296 297 297 297 297 297 296 297 297 296 295 295 295 295 295 295 294 294 293 293 292 292 290 293 293 294 294 293 294 294 294 -193 -193 -193 295 296 298 -193 -193 298 298 298 299 298 297 296 296 295 294 294 294 294 294 295 295 296 296 297 298 298 296 296 295 295 294 294 294 294 295 296 297 297 296 295 295 295 294 294 293 293 292 289 293 291 292 293 293 293 293 293 291 289 291 290 289 291 294 294 294 294 0 0 0 0 0
    0 0 0 0 0 0 0 0 0 0 0 0 0 0 0 0 0 0 0 0 0 0 0 0 0 0 0 0 0 0 0 0 0 0 0 0 0 0 0 0 0 0 0 0 0 0 0 0 0 0 0 0 0 0 0 0 0 0 0 0 0 0 0 0 0 0 0 0 0 294 294 294 294 294 296 293 293 293 293 293 294 293 294 294 295 295 295 296 295 296 296 -209 295 295 294 295 293 295 294 296 295 296 297 295 296 295 295 295 294 295 294 292 294 292 295 294 294 293 292 292 294 294 294 293 294 294 295 295 295 295 295 295 295 295 295 294 295 295 294 295 295 292 291 291 291 292 293 294 294 290 298 299 298 298 298 297 296 294 294 295 295 295 294 294 295 294 295 295 295 295 295 295 296 296 -209 297 -193 -193 295 294 294 294 294 294 292 293 292 293 293 294 294 293 294 295 294 295 294 294 293 294 294 295 -193 296 296 295 295 295 295 294 293 293 293 293 295 295 296 297 297 297 296 296 296 296 296 296 296 297 296 295 295 294 294 294 294 292 292 291 293 293 294 294 293 294 294 -193 -193 -193 -193 296 -209 299 -193 -193 298 298 298 299 298 298 297 297 295 295 294 294 294 294 294 294 295 295 297 297 297 295 296 295 296 295 295 294 -193 295 296 296 297 296 295 295 294 293 293 293 292 292 289 294 292 294 294 -193 -193 295 295 292 290 292 290 289 290 294 294 294 294 0 0 0 0 0
    0 0 0 0 0 0 0 0 0 0 0 0 0 0 0 0 0 0 0 0 0 0 0 0 0 0 0 0 0 0 0 0 0 0 0 0 0 0 0 0 0 0 0 0 0 0 0 0 0 0 0 0 0 0 0 0 0 0 0 0 0 0 0 0 0 0 0 0 0 295 295 294 295 295 296 294 293 294 293 294 294 293 294 294 294 294 295 296 295 295 296 -209 295 295 295 -209 294 -193 295 297 295 295 296 295 295 295 294 294 294 295 295 292 295 294 296 295 294 293 292 292 293 293 294 293 293 293 294 294 294 294 294 295 295 295 295 294 295 295 294 295 295 292 292 292 292 293 294 294 294 291 297 298 298 297 298 296 295 294 294 295 295 294 294 294 295 294 295 294 294 294 294 295 295 295 -193 296 -193 -193 295 295 294 294 294 294 292 293 292 293 293 294 294 294 294 295 295 297 296 296 294 295 296 296 297 297 296 296 295 295 295 294 294 294 293 294 295 296 296 296 297 297 296 296 296 296 297 297 297 297 297 296 295 295 294 294 293 292 292 290 293 293 293 293 292 294 -193 -193 -193 -193 -193 296 -209 299 -193 -193 298 298 298 298 298 298 297 297 296 295 295 295 295 294 294 294 294 295 296 296 295 294 295 -193 -193 294 294 294 -193 295 296 296 297 296 295 295 294 293 293 293 292 291 288 293 291 295 295 -193 -193 295 295 293 292 292 291 290 289 293 294 294 294 0 0 0 0 0
    0 0 0 0 0 0 0 0 0 0 0 0 0 0 0 0 0 0 0 0 0 0 0 0 0 0 0 0 0 0 0 0 0 0 0 0 0 0 0 0 0 0 0 0 0 0 0 0 0 0 0 0 0 0 0 0 0 0 0 0 0 0 0 0 0 0 0 0 0 295 295 295 295 295 296 295 294 295 294 294 294 294 293 294 294 294 295 296 295 -193 296 -209 -193 -209 -193 -209 -193 -193 295 297 295 295 296 294 295 294 294 294 293 295 295 293 297 296 297 296 295 295 293 293 294 294 294 293 293 293 293 294 294 294 294 295 295 295 295 295 295 295 295 295 295 293 293 293 293 294 295 295 295 291 296 296 296 296 297 295 294 293 293 294 293 293 293 293 294 293 294 293 294 294 294 294 295 295 -209 -193 -193 295 -193 295 295 294 294 294 293 293 292 293 293 294 293 293 294 295 295 296 295 295 294 295 295 296 297 297 296 296 295 295 295 295 294 294 293 294 295 295 296 295 296 296 295 295 296 296 297 297 297 298 297 296 296 294 294 293 293 291 292 289 292 292 293 293 292 293 294 294 -193 -193 -193 296 -209 298 -193 -209 297 297 298 298 297 297 297 297 295 295 294 295 295 294 294 293 293 294 295 295 294 293 294 293 294 293 294 294 -193 295 296 297 298 297 295 295 294 293 293 293 292 291 288 293 291 295 295 296 297 296 295 292 292 291 291 289 289 292 293 294 294 0 0 0 0 0
    0 0 0 0 0 0 0 0 0 0 0 0 0 0 0 0 0 0 0 0 0 0 0 0 0 0 0 0 0 0 0 0 0 0 0 0 0 0 0 0 0 0 0 0 0 0 0 0 0 0 0 0 0 0 0 0 0 0 0 0 0 0 0 0 0 0 0 0 0 295 295 295 295 295 296 295 294 294 293 294 293 293 293 294 294 294 295 -193 -193 -193 -193 -209 -193 -209 -193 -209 -193 -193 295 296 295 295 296 294 295 295 294 295 294 295 296 295 298 297 298 297 295 295 294 294 294 294 294 293 293 293 293 294 294 293 294 294 295 295 295 295 295 295 295 295 296 294 294 294 294 295 295 295 295 292 295 296 295 295 295 293 293 292 292 293 291 291 291 292 293 292 293 293 294 294 294 294 295 295 -209 -209 -193 296 -193 295 295 294 294 294 293 293 292 293 292 293 292 292 292 294 294 295 294 295 294 295 295 296 297 297 296 296 295 296 295 295 294 293 293 294 295 295 295 295 295 296 295 295 296 296 297 298 298 298 298 -193 -193 295 -193 294 294 292 292 291 294 293 294 294 293 293 293 293 294 -193 293 295 -209 -193 -209 -209 -193 -193 298 298 297 297 296 297 296 295 294 294 295 294 293 292 292 292 294 294 294 292 293 292 293 293 294 293 295 295 -193 297 298 298 296 295 294 293 293 292 292 291 287 293 292 295 295 296 298 298 -193 293 293 291 293 290 288 291 292 293 293 0 0 0 0 0
    0 0 0 0 0 0 0 0 0 0 0 0 0 0 0 0 0 0 0 0 0 0 0 0 0 0 0 0 0 0 0 0 0 0 0 0 0 0 0 0 0 0 0 0 0 0 0 0 0 0 0 0 0 0 0 0 0 0 0 0 0 0 0 0 0 0 0 0 0 296 295 296 295 296 296 296 294 294 293 293 293 293 292 293 293 293 294 295 -193 -209 -193 -209 -193 -209 -193 -209 -193 -193 294 295 295 294 296 294 294 294 294 295 294 295 296 295 298 297 297 296 295 295 293 293 294 293 294 293 293 294 293 293 294 292 293 292 294 294 294 294 294 294 294 294 296 295 295 294 295 295 296 295 295 293 294 295 295 294 294 292 293 292 292 292 290 291 291 292 292 291 293 293 294 294 294 294 295 295 -209 -193 -193 295 -193 295 294 294 294 293 292 293 291 292 291 292 291 291 291 293 293 294 294 295 294 296 296 297 297 297 296 296 295 296 295 294 293 293 293 293 295 295 295 294 295 295 295 295 296 296 297 298 298 299 298 -193 -193 -193 -193 -193 294 293 293 291 294 293 294 294 293 293 294 294 -193 -193 294 -193 -209 -193 -193 -209 -193 298 298 299 298 297 296 297 296 295 294 294 295 294 293 292 292 292 294 295 294 292 293 293 294 294 294 294 295 -209 -193 -193 299 299 295 295 294 293 292 292 292 291 288 293 293 296 296 297 298 298 -193 294 296 294 296 296 293 293 294 295 295 0 0 0 0 0
    0 0 0 0 0 0 0 0 0 0 0 0 0 0 0 0 0 0 0 0 0 0 0 0 0 0 0 0 0 0 0 0 0 0 0 0 0 0 0 0 0 0 0 0 0 0 0 0 0 0 0 0 0 0 0 0 0 0 0 0 0 0 0 0 0 0 0 0 0 297 296 297 296 297 297 297 294 295 294 294 293 293 292 293 293 293 294 295 295 -209 -193 -209 -193 -193 -193 -193 -193 -193 293 295 294 294 295 294 294 294 294 294 294 295 296 295 297 297 297 297 295 295 293 293 294 293 294 293 292 293 293 293 294 292 293 291 293 293 294 293 293 293 293 293 295 295 295 295 295 295 296 296 296 294 293 295 294 294 294 293 293 292 292 292 289 291 291 292 292 291 292 292 294 293 293 294 294 294 295 295 294 294 294 294 294 293 293 293 292 292 291 292 290 292 290 291 291 293 293 295 295 296 295 296 297 297 297 297 295 295 295 296 295 294 293 293 293 294 295 296 295 294 295 296 296 296 297 297 297 298 299 300 298 -193 -193 -193 -193 -193 -193 293 293 292 294 293 294 294 294 294 -193 -193 -193 -209 -193 -193 -209 -193 -193 -209 -193 298 298 299 298 297 296 297 296 295 295 295 296 295 295 293 293 293 294 295 295 292 294 293 294 294 296 -193 -193 -209 -193 -193 299 -193 296 295 294 293 292 293 293 293 290 295 296 298 298 300 300 300 298 -193 297 295 297 297 294 295 296 296 297 0 0 0 0 0
    0 0 0 0 0 0 0 0 0 0 0 0 0 0 0 0 0 0 0 0 0 0 0 0 0 0 0 0 0 0 0 0 0 0 0 0 0 0 0 0 0 0 0 0 0 0 0 0 0 0 0 0 0 0 0 0 0 0 0 0 0 0 0 0 0 0 0 0 0 298 297 297 297 297 297 298 295 295 294 294 294 294 293 293 293 293 294 294 295 295 295 -193 294 293 293 292 292 293 293 294 294 293 294 293 293 293 293 293 293 294 296 295 298 298 299 299 -193 296 294 294 295 294 294 292 292 293 293 293 294 293 293 292 293 294 294 293 293 292 293 292 295 295 295 296 296 296 296 296 296 295 294 295 294 294 294 293 293 293 292 293 289 291 290 292 292 291 292 292 293 293 293 293 294 294 294 294 293 294 294 294 293 293 292 292 291 292 290 291 290 291 290 291 292 294 295 296 296 298 297 298 298 298 299 298 296 296 296 297 296 295 294 294 294 295 296 296 296 295 296 296 296 296 297 297 296 297 298 299 298 -193 -193 -193 -193 -193 -193 295 295 294 295 294 -193 294 295 294 -193 -193 -193 -209 -193 300 -193 302 -193 -209 -193 298 298 299 298 297 297 297 297 296 296 296 297 297 297 297 297 -193 -209 302 311 -209 -193 -193 298 297 298 298 299 300 300 300 303 307 -193 297 296 295 294 295 295 295 293 297 299 300 301 303 303 303 300 300 299 298 300 298 295 296 297 298 299 0 0 0 0 0
    0 0 0 0 0 0 0 0 0 0 0 0 0 0 0 0 0 0 0 0 0 0 0 0 0 0 0 0 0 0 0 0 0 0 0 0 0 0 0 0 0 0 0 0 0 0 0 0 0 0 0 0 0 0 0 0 0 0 0 0 0 0 0 0 0 0 0 0 0 298 297 297 297 297 297 297 295 295 294 294 294 294 293 294 294 293 294 294 294 294 294 294 -193 291 291 291 291 293 292 293 293 292 294 293 293 293 293 294 294 294 297 296 299 300 299 299 296 296 295 294 294 293 293 292 291 292 291 293 293 293 294 292 294 294 294 294 294 293 292 292 295 296 296 296 296 296 296 297 296 296 294 295 294 294 293 293 293 293 293 294 290 292 290 292 293 292 292 292 293 292 292 293 293 293 293 293 293 293 293 294 293 293 292 292 291 292 290 292 290 291 290 292 293 296 -209 -193 298 299 299 300 300 300 299 298 296 298 296 298 298 297 296 296 296 297 297 297 296 295 296 297 297 296 298 298 297 298 299 300 299 -193 -193 -193 -193 -193 -193 -193 296 297 297 295 -209 295 296 295 -193 -193 -193 -209 299 303 302 303 -193 -193 -193 299 299 299 298 297 297 298 298 296 296 296 298 297 298 297 298 305 305 307 311 310 308 301 302 299 299 299 302 303 302 303 306 310 309 301 299 -193 295 -193 295 296 295 299 300 301 302 304 304 303 301 300 300 299 302 300 297 298 298 299 301 0 0 0 0 0
    0 0 0 0 0 0 0 0 0 0 0 0 0 0 0 0 0 0 0 0 0 0 0 0 0 0 0 0 0 0 0 0 0 0 0 0 0 0 0 0 0 0 0 0 0 0 0 0 0 0 0 0 0 0 0 0 0 0 0 0 0 0 0 0 0 0 0 0 0 298 297 297 297 297 297 297 294 295 295 295 294 294 294 294 294 294 294 295 295 294 294 294 -193 291 292 291 291 293 293 293 293 292 294 293 293 293 293 294 295 295 297 298 300 301 300 299 297 297 296 295 295 294 293 292 292 292 291 292 294 294 295 294 295 295 296 296 295 294 293 292 296 296 297 297 297 297 297 297 297 296 294 295 294 294 293 293 293 294 294 294 291 293 291 293 293 291 292 291 292 291 291 292 292 292 294 293 293 294 294 294 293 294 293 292 291 292 290 292 290 291 290 292 294 -209 -193 -209 298 300 301 302 303 302 302 299 298 300 298 299 299 298 297 297 297 298 298 298 297 296 296 297 297 297 299 299 298 299 300 301 299 -193 -193 -193 -193 -193 -193 -209 -193 297 297 -193 -209 -209 -193 -209 -193 -209 293 -209 301 306 302 303 -193 -193 -209 298 298 298 297 297 297 297 297 296 295 296 298 297 297 295 299 311 306 308 312 312 310 306 306 301 299 301 303 304 303 304 307 310 311 306 304 -193 -193 -209 -209 -209 297 302 305 306 307 307 307 307 306 306 304 301 304 302 301 300 300 300 301 0 0 0 0 0
    0 0 0 0 0 0 0 0 0 0 0 0 0 0 0 0 0 0 0 0 0 0 0 0 0 0 0 0 0 0 0 0 0 0 0 0 0 0 0 0 0 0 0 0 0 0 0 0 0 0 0 0 0 0 0 0 0 0 0 0 0 0 0 0 0 0 0 0 0 298 297 297 297 297 297 297 294 295 295 295 295 295 295 295 294 -193 -209 -209 -209 -209 -209 296 -209 294 294 293 293 294 294 294 294 293 294 293 293 294 294 295 295 296 298 299 301 301 300 299 297 298 297 -209 -209 -209 -209 -209 -209 -209 -193 -193 -193 294 295 294 295 296 297 297 297 296 294 294 296 297 297 297 297 297 297 297 297 296 294 295 293 293 292 292 292 293 293 293 290 293 291 292 292 291 292 290 292 291 291 293 293 293 -193 294 294 295 295 295 294 294 293 292 291 292 290 292 290 291 290 292 294 -209 -193 -209 298 300 302 303 304 305 303 301 300 303 300 301 300 299 298 298 298 299 298 299 298 297 296 297 298 297 299 299 298 299 299 300 299 -193 -193 -193 -193 129 -209 -209 -209 -193 297 -209 -209 -209 -209 -209 -209 -209 -209 -193 301 303 302 -193 -193 -209 -209 299 298 298 -209 297 296 297 296 295 294 294 297 297 297 295 301 313 308 309 313 313 311 309 309 304 300 302 304 304 303 305 307 310 311 309 308 -193 -209 -177 -177 -193 -209 305 308 309 309 309 309 310 309 309 308 307 307 304 302 302 299 299 301 0 0 0 0 0
    0 0 0 0 0 0 0 0 0 0 0 0 0 0 0 0 0 0 0 0 0 0 0 0 0 0 0 0 0 0 0 0 0 0 0 0 0 0 0 0 0 0 0 0 0 0 0 0 0 0 0 0 0 0 0 0 0 0 0 0 0 0 0 0 0 0 0 0 0 300 299 299 298 298 297 297 294 295 295 295 295 296 -193 -193 -193 -193 -209 -209 -209 -209 -209 296 295 295 294 293 293 293 294 294 294 293 294 293 294 295 -193 296 296 297 298 299 301 301 300 299 -193 -193 -209 -209 -209 -209 -209 -209 -209 -209 -209 -209 -209 -209 -209 -193 295 296 297 298 298 297 295 294 297 297 297 297 297 296 296 297 297 295 293 295 292 292 291 291 291 292 292 293 290 293 290 291 292 290 291 290 292 291 290 293 293 -193 -193 -193 295 296 296 296 294 295 293 293 292 292 290 292 291 291 290 293 294 -209 -209 -209 -193 -193 301 302 -193 306 303 301 302 -193 302 303 301 300 299 300 299 299 298 299 298 297 297 298 298 298 300 -193 298 298 299 301 -193 -209 -193 -209 -209 -193 -209 -209 -209 -193 -209 -209 -209 -209 -209 -193 -209 -209 -209 -209 -209 304 -193 -193 -209 -193 -209 299 299 299 -209 296 295 296 295 295 -193 294 -209 -209 -209 -193 305 314 309 310 313 313 311 310 310 306 301 305 306 305 304 306 307 310 312 311 311 -193 -209 727 727 -209 -209 311 310 311 311 311 311 312 312 312 311 313 311 308 304 303 300 300 301 0 0 0 0 0
    0 0 0 0 0 0 0 0 0 0 0 0 0 0 0 0 0 0 0 0 0 0 0 0 0 0 0 0 0 0 0 0 0 0 0 0 0 0 0 0 0 0 0 0 0 0 0 0 0 0 0 0 0 0 0 0 0 0 0 0 0 0 0 0 0 0 0 0 0 302 301 300 299 299 298 297 295 295 296 296 295 296 -193 -209 -193 -177 -193 -209 -209 -209 -209 295 294 294 293 292 293 293 294 294 294 293 294 294 295 295 -193 297 298 299 299 300 301 302 300 -193 -209 -209 -209 -209 -209 -209 -209 -209 -209 -209 -209 -209 -209 -209 -209 -209 296 297 298 298 298 297 296 295 297 297 297 297 296 296 296 297 297 294 293 294 292 292 291 291 291 292 292 293 290 293 292 292 292 291 291 290 292 290 289 292 292 296 -193 297 295 296 296 296 295 296 -209 -193 293 293 291 293 292 292 290 293 295 -209 -209 -193 -209 -193 -193 303 -193 -193 304 -193 -193 -193 -193 -193 301 301 300 300 299 300 299 301 300 300 299 299 300 300 301 -193 299 299 300 -193 -209 -209 -209 -209 -209 -209 -209 -209 -209 -193 -209 -209 -209 -209 -209 -193 -209 -209 -209 -209 -209 -209 -209 -209 -209 -209 -209 300 300 301 -209 -193 296 297 296 296 -209 -209 -209 -209 -209 -209 307 -209 -193 310 312 313 311 310 310 308 302 307 -209 -193 -193 -193 -193 309 312 312 312 313 -209 -209 -209 -209 327 322 -193 317 323 312 315 317 317 318 318 319 314 310 310 307 301 301 304 0 0 0 0 0
    0 0 0 0 0 0 0 0 0 0 0 0 0 0 0 0 0 0 0 0 0 0 0 0 0 0 0 0 0 0 0 0 0 0 0 0 0 0 0 0 0 0 0 0 0 0 0 0 0 0 0 0 0 0 0 0 0 0 0 0 0 0 0 0 0 0 0 0 0 304 303 301 300 300 299 298 296 296 296 297 296 297 -193 -209 -193 813 -193 -209 -209 -209 -209 296 296 297 295 293 295 295 296 296 295 294 294 293 294 295 -209 297 298 300 300 301 303 303 301 -193 -193 -209 -193 -209 -209 -209 -209 -209 -209 -209 -209 -209 -209 -209 -209 -209 297 298 298 298 299 297 295 294 297 296 296 296 296 296 296 297 297 294 293 295 292 292 291 292 292 293 293 294 292 295 294 293 293 291 292 290 291 288 287 291 290 292 -209 -209 292 294 295 -193 -209 -209 -209 -209 294 -193 292 294 -193 292 291 294 -209 -209 -193 -193 -209 -209 -193 305 -209 -193 -209 -209 -193 -193 -193 -193 -209 302 -193 -193 -193 301 299 302 301 302 300 300 302 -193 -193 -193 -209 -209 300 -209 -209 -209 -209 -209 -209 -209 -209 -209 -209 -193 -209 -209 -209 -209 -209 -193 -209 -209 -209 -209 -209 -193 -225 -225 -225 -225 -209 -209 -209 -209 -209 -209 -193 -193 297 -209 -209 -209 -209 -209 -209 -209 308 -209 -209 310 312 313 312 310 310 309 302 -209 -209 -193 -193 -193 -209 309 312 312 313 313 315 -209 -209 326 328 327 320 323 328 321 319 325 325 326 326 326 325 314 316 308 303 302 304 0 0 0 0 0
    0 0 0 0 0 0 0 0 0 0 0 0 0 0 0 0 0 0 0 0 0 0 0 0 0 0 0 0 0 0 0 0 0 0 0 0 0 0 0 0 0 0 0 0 0 0 0 0 0 0 0 0 0 0 0 0 0 0 0 0 0 0 0 0 0 0 0 0 0 304 303 301 300 300 299 298 297 297 298 302 299 303 304 -193 -193 -177 -193 -209 -193 -209 -193 298 298 300 299 296 298 298 299 298 296 295 293 -193 -193 296 -209 298 301 303 301 304 306 306 304 -193 -193 -193 -193 -209 -209 -209 -209 -209 -209 -193 -209 -209 -209 -209 -209 -193 299 300 300 300 300 298 295 295 297 296 296 296 296 296 296 297 297 294 294 295 293 292 291 292 293 293 294 294 293 297 296 295 294 292 293 291 291 287 286 289 -193 -209 -209 -209 289 291 -193 -209 -209 -209 625 -209 -209 -209 292 -193 -209 -209 -193 295 -209 -209 -209 -193 -209 -209 -209 307 -209 -193 -209 -193 -193 -193 -209 -209 -193 -193 -193 -193 -193 301 300 303 -193 -193 300 301 -193 -193 -193 -209 -193 -193 -209 -209 -209 -209 -209 -193 -209 -209 -209 -209 -209 -193 -209 -193 -193 -193 -225 -225 -225 -225 -225 -225 -225 -225 -225 -225 -225 -225 -225 -225 -225 -225 -225 -209 -209 -209 -209 -209 -209 -209 -209 -209 -209 -209 -209 -209 -209 -193 313 313 312 310 311 -209 -209 -209 -209 88 -177 -209 -209 -209 311 312 313 314 316 -209 -193 326 328 328 326 325 328 323 320 325 326 326 326 326 326 321 325 314 -209 -209 -209 0 0 0 0 0
    0 0 0 0 0 0 0 0 0 0 0 0 0 0 0 0 0 0 0 0 0 0 0 0 0 0 0 0 0 0 0 0 0 0 0 0 0 0 0 0 0 0 0 0 0 0 0 0 0 0 0 0 0 0 0 0 0 0 0 0 0 0 0 0 0 0 0 0 0 305 304 301 300 300 299 297 295 296 299 307 303 308 309 -209 -209 819 -193 -193 -209 -209 -209 -193 299 300 299 296 298 299 300 299 297 297 294 -193 298 299 -193 302 305 306 304 307 308 307 305 -193 -193 -193 -193 -193 -209 -209 -209 -209 -209 831 -209 -209 -209 -209 -209 304 302 302 302 303 302 301 297 296 297 297 297 297 297 297 297 298 298 295 296 296 294 293 292 293 294 294 295 296 295 298 -209 -193 -193 293 -193 291 292 -193 287 -193 -209 -209 -209 -209 -209 -209 -209 -209 -193 -193 622 -225 -225 -225 -225 -225 -225 -225 -193 -209 -209 -209 -209 -193 -209 -209 -209 -209 -209 -209 -209 -209 -209 -193 -193 -209 -209 -209 -193 860 -193 -209 -193 -193 -193 -209 -209 -193 -209 -209 -193 -193 869 -193 -209 -193 -209 -193 -193 -193 -209 -225 -225 -209 -225 -225 -225 -225 -225 -225 -225 -225 -225 -225 -225 -225 -225 -225 -225 -225 -225 -225 -225 -225 -225 -225 -225 -225 -209 -209 -209 -209 -209 -209 -209 -209 -209 -209 -209 -209 -209 -209 -209 -193 -209 -209 -209 -209 -209 -209 -209 -209 -209 85 -209 -209 -209 311 313 314 317 -209 326 327 329 329 328 327 328 324 322 326 327 327 327 328 327 325 328 -193 328 336 332 0 0 0 0 0
    0 0 0 0 0 0 0 0 0 0 0 0 0 0 0 0 0 0 0 0 0 0 0 0 0 0 0 0 0 0 0 0 0 0 0 0 0 0 0 0 0 0 0 0 0 0 0 0 0 0 0 0 0 0 0 0 0 0 0 0 0 0 0 0 0 0 0 0 0 307 306 303 301 300 299 297 295 297 303 312 310 312 312 316 -209 821 826 -177 -209 -209 -209 -193 -193 302 302 298 301 302 303 302 299 300 299 301 306 -177 305 306 307 308 305 306 308 307 303 -193 -193 -193 -209 -193 -209 579 583 -209 -209 830 -209 -209 -193 -193 -177 -193 302 303 303 304 303 303 -225 297 299 298 297 298 298 298 298 300 301 297 303 304 294 294 294 293 295 296 297 -193 -193 301 -193 -193 -209 -209 -209 -193 -193 -193 -193 -193 -193 -209 -209 -209 -209 -193 -193 -209 628 -193 -225 -225 -225 -225 -225 -225 -225 -225 -225 -193 515 -225 408 419 -209 -225 -225 -225 -225 -225 -225 -225 -225 781 -193 -209 -225 -225 -225 -225 -225 -225 -225 -225 -225 -225 -225 -225 -225 -225 -225 -193 -193 -193 -225 -225 -225 -225 -225 -225 -225 -225 -225 -225 -225 -225 -225 -225 -225 -225 -225 -225 -225 -225 -225 -225 -225 -225 -225 -225 -225 -225 -225 -225 -225 -225 -225 -225 -225 -225 -225 -225 -209 -209 -209 -209 -209 -209 -209 -209 -209 -209 -209 -209 -209 -209 -209 -177 -209 -209 -193 -209 -209 74 79 81 -209 -209 314 -209 321 -209 328 329 330 330 330 330 331 329 327 330 331 330 330 330 329 327 329 -193 328 337 329 0 0 0 0 0
    0 0 0 0 0 0 0 0 0 0 0 0 0 0 0 0 0 0 0 0 0 0 0 0 0 0 0 0 0 0 0 0 0 0 0 0 0 0 0 0 0 0 0 0 0 0 0 0 0 0 0 0 0 0 0 0 0 0 0 0 0 0 0 0 0 0 0 0 0 309 309 306 302 301 301 297 297 298 310 319 315 316 319 324 -193 823 827 -177 -209 -209 109 -193 -193 -177 304 300 302 305 305 305 302 305 305 308 311 310 309 310 310 310 307 307 308 307 305 -193 -193 -193 -209 -193 -209 579 -193 -225 -225 -225 -225 -225 648 -193 909 913 -193 -193 303 304 -225 -225 -225 -225 -225 300 299 301 301 302 302 -193 -209 603 -209 -209 -209 -193 296 296 298 297 300 -209 302 306 -209 -225 -225 -209 -209 677 -193 -193 -193 -193 -209 -209 -209 -225 -225 -225 -225 -225 -225 -225 -225 -225 -225 -225 -225 -225 -225 -225 -225 -225 -225 -225 -225 -225 -225 -225 -225 -225 -225 -225 -225 -225 -225 -225 -225 -225 -225 -225 -225 -225 -225 -225 -225 -225 -225 -225 -225 -225 -225 -225 -225 -225 -225 -225 -225 -225 -225 -225 -225 -225 -225 -225 -225 -225 -225 -225 -225 -225 -225 -225 -225 -225 -225 -225 -225 -225 -225 -225 -225 -225 -225 -225 -225 -225 -225 -225 -225 -225 -225 -225 -225 -225 -225 -209 -209 -209 -209 -209 -209 -209 -209 -209 -209 -209 -209 -209 -209 -209 -209 -177 -177 -177 -193 -177 -177 -177 -209 -209 -209 -209 -209 334 330 330 331 331 332 331 332 329 328 331 332 331 331 330 330 329 330 -193 329 342 -209 0 0 0 0 0
    0 0 0 0 0 0 0 0 0 0 0 0 0 0 0 0 0 0 0 0 0 0 0 0 0 0 0 0 0 0 0 0 0 0 0 0 0 0 0 0 0 0 0 0 0 0 0 0 0 0 0 0 0 0 0 0 0 0 0 0 0 0 0 0 0 0 0 0 0 311 311 309 305 304 303 298 299 299 312 324 323 320 323 326 328 -193 -177 -193 -209 -193 111 -193 -193 305 -225 -225 300 303 305 304 302 -193 -193 -193 -209 -209 -193 310 311 311 308 307 309 -193 -193 -209 -209 -209 -193 -193 141 -225 -225 -225 -225 -225 -225 -225 -225 -225 -225 -225 -225 -225 -225 -225 -225 -225 -225 -225 -225 -225 -225 -225 -225 -225 -209 -193 620 -225 -225 -225 -225 -225 -225 -225 -225 -225 -225 -225 -225 -225 -225 -225 -225 -225 -225 -225 -225 -225 -225 -225 -225 -225 -225 -225 -225 -225 -225 -225 -225 -225 -225 -225 -225 -225 -225 -225 -225 -225 -225 -225 -225 -225 -225 -225 -225 -225 -225 -225 -225 -225 -225 -225 -225 -225 -225 -225 -225 -225 -225 -225 -225 -225 -225 -225 -225 -225 -225 -225 -225 -225 -225 -225 -225 -225 -225 -225 -225 -225 -225 -225 -225 -225 -225 -225 -225 -225 -225 -225 -225 -225 -225 -225 -225 -225 -225 -225 -225 -225 -225 -225 -225 -225 -225 -225 -225 -225 -225 -225 -225 -225 -225 -225 -225 -209 -209 -209 -209 -209 -209 -209 -209 -209 -209 -209 -209 -209 -177 -193 -177 -193 -177 -177 -177 -177 -177 -209 -209 -209 -209 -209 -209 -209 330 329 330 330 332 331 332 330 329 335 335 334 335 334 332 330 334 336 334 347 348 0 0 0 0 0
    0 0 0 0 0 0 0 0 0 0 0 0 0 0 0 0 0 0 0 0 0 0 0 0 0 0 0 0 0 0 0 0 0 0 0 0 0 0 0 0 0 0 0 0 0 0 0 0 0 0 0 0 0 0 0 0 0 0 0 0 0 0 0 0 0 0 0 0 0 312 312 310 308 308 308 300 301 301 314 327 330 328 327 328 330 -193 827 -225 -225 -225 -225 -225 -225 -225 -225 -225 -225 -225 -225 -225 -225 -225 -225 -225 -225 -225 -225 -225 -225 -225 -225 -193 -209 769 769 773 -193 -225 -225 -225 -225 -225 -225 -225 -225 -225 -225 -225 -225 -225 -225 -225 -225 -225 -225 -225 -225 -225 -225 -225 -225 -225 -225 -225 -225 -225 -225 -225 -225 -225 -225 -225 -225 -225 -225 -225 -225 -225 -225 -225 -225 -225 -225 -225 -225 -225 -225 -225 -225 -225 -225 -225 -225 -225 -225 -225 -225 -225 -225 -225 -225 -225 -225 -225 -225 -225 -225 -225 -225 -225 -225 -225 -225 -225 -225 -225 -225 -225 -225 -225 -225 -225 -225 -225 -225 -225 -225 -225 -225 -225 -225 -225 -225 -225 -225 -225 -225 -225 -225 -225 -225 -225 -225 -225 -225 -225 -225 -225 -225 -225 -225 -225 -225 -225 -225 -225 -225 -225 -225 -225 -225 -225 -225 -225 -225 -225 -225 -225 -225 -225 -225 -225 -225 -225 -225 -225 -225 -225 -225 -225 -225 -225 -225 -225 -225 -225 -209 -209 -209 -209 -209 -209 -209 -209 -209 -209 -209 -209 -209 -209 -209 -209 -177 -177 -177 -177 -177 -209 -209 -209 -209 -209 -209 -209 -209 327 329 330 330 330 331 330 330 336 337 335 337 338 336 332 339 -209 -193 353 354 0 0 0 0 0
    0 0 0 0 0 0 0 0 0 0 0 0 0 0 0 0 0 0 0 0 0 0 0 0 0 0 0 0 0 0 0 0 0 0 0 0 0 0 0 0 0 0 0 0 0 0 0 0 0 0 0 0 0 0 0 0 0 0 0 0 0 0 0 0 0 0 0 0 0 316 315 313 311 311 -225 -225 303 304 315 328 332 331 328 329 -225 -225 -225 -225 -225 -225 -225 -225 -225 -225 -225 -225 -225 -225 -225 -225 -225 -225 -225 -225 -225 -225 -225 -225 -225 -225 -225 -225 -225 -225 -225 -225 -225 -225 -225 -225 -225 -225 -225 -225 -225 -225 -225 -225 -225 -225 -225 -225 -225 -225 -225 -225 -225 -225 -225 -225 -225 -225 -225 -225 -225 -225 -225 -225 -225 -225 -225 -225 -225 -225 -225 -225 -225 -225 -225 -225 -225 -225 -225 -225 -225 -225 -225 -225 -225 -225 -225 -225 -225 -225 -225 -225 -225 -225 -225 -225 -225 -225 -225 -225 -225 -225 -225 -225 -225 -225 -225 -225 -225 -225 -225 -225 -225 -225 -225 -225 -225 -225 -225 -225 -225 -225 -225 -225 -225 -225 -225 -225 -225 -225 -225 -225 -225 -225 -225 -225 -225 -225 -225 -225 -225 -225 -225 -225 -225 -225 -225 -225 -225 -225 -225 -225 -225 -225 -225 -225 -225 -225 -225 -225 -225 -225 -225 -225 -225 -225 -225 -225 -225 -225 -225 -225 -225 -225 -225 -225 -225 -225 -225 -225 -225 -225 -209 -209 -209 -209 -209 -209 -209 -209 -209 -209 -209 -209 -209 -209 -209 -209 -209 -209 -193 -193 -209 -209 -209 -209 -209 -209 -177 -209 -209 -209 329 329 329 329 330 329 330 337 338 336 337 340 339 334 341 -209 347 355 357 0 0 0 0 0
    0 0 0 0 0 0 0 0 0 0 0 0 0 0 0 0 0 0 0 0 0 0 0 0 0 0 0 0 0 0 0 0 0 0 0 0 0 0 0 0 0 0 0 0 0 0 0 0 0 0 0 0 0 0 0 0 0 0 0 0 0 0 0 0 0 0 0 0 0 -225 -225 -225 -225 -225 -225 -225 -225 -225 -225 -225 -225 -225 -225 -225 -225 -225 -225 -225 -225 -225 -225 -225 -225 -225 -225 -225 -225 -225 -225 -225 -225 -225 -225 -225 -225 -225 -225 -225 -225 -225 -225 -225 -225 -225 -225 -225 -225 -225 -225 -225 -225 -225 -225 -225 -225 -225 -225 -225 -225 -225 -225 -225 -225 -225 -225 -225 -225 -225 -225 -225 -225 -225 -225 -225 -225 -225 -225 -225 -225 -225 -225 -225 -225 -225 -225 -225 -225 -225 -225 -225 -225 -225 -225 -225 -225 -225 -225 -225 -225 -225 -225 -225 -225 -225 -225 -225 -225 -225 -225 -225 -225 -225 -225 -225 -225 -225 -225 -225 -225 -225 -225 -225 -225 -225 -225 -225 -225 -225 -225 -225 -225 -225 -225 -225 -225 -225 -225 -225 -225 -225 -225 -225 -225 -225 -225 -225 -225 -225 -225 -225 -225 -225 -225 -225 -225 -225 -225 -225 -225 -225 -225 -225 -225 -225 -225 -225 -225 -225 -225 -225 -225 -225 -225 -225 -225 -225 -225 -225 -225 -225 -225 -225 -225 -225 -225 -225 -225 -225 -225 -225 -225 -225 -225 -225 -225 -225 -209 -209 -209 -209 -209 -209 -209 -209 -209 -209 -209 -193 0 0 -177 -193 -209 -177 -209 -209 -209 -209 -209 -209 -209 -209 -209 -209 -209 -209 -209 -209 -209 -209 321 323 328 333 334 329 333 339 -209 337 345 351 354 359 360 0 0 0 0 0
    0 0 0 0 0 0 0 0 0 0 0 0 0 0 0 0 0 0 0 0 0 0 0 0 0 0 0 0 0 0 0 0 0 0 0 0 0 0 0 0 0 0 0 0 0 0 0 0 0 0 0 0 0 0 0 0 0 0 0 0 0 0 0 0 0 0 0 0 0 -225 -225 -225 -225 -225 -225 -225 -225 -225 -225 -225 -225 -225 -225 -225 -225 -225 -225 -225 -225 -225 -225 -225 -225 -225 -225 -225 -225 -225 -225 -225 -225 -225 -225 -225 -225 -225 -225 -225 -225 -225 -225 -225 -225 -225 -225 -225 -225 -225 -225 -225 -225 -225 -225 -225 -225 -225 -225 -225 -225 -225 -225 -225 -225 -225 -225 -225 -225 -225 -225 -225 -225 -225 -225 -225 -225 -225 -225 -225 -225 -225 -225 -225 -225 -225 -225 -225 -225 -225 -225 -225 -225 -225 -225 -225 -225 -225 -225 -225 -225 -225 -225 -225 -225 -225 -225 -225 -225 -225 -225 -225 -225 -225 -225 -225 -225 -225 -225 -225 -225 -225 -225 -225 -225 -225 -225 -225 -225 -225 -225 -225 -225 -225 -225 -225 -225 -225 -225 -225 -225 -225 -225 -225 -225 -225 -225 -225 -225 -225 -225 -225 -225 -225 -225 -225 -225 -225 -225 -225 -225 -225 -225 -225 -225 -225 -225 -225 -225 -225 -225 -225 -225 -225 -225 -225 -225 -225 -225 -225 -225 -225 -225 -225 -225 -225 -225 -225 -225 -225 -225 -225 -225 -225 -225 -225 -225 -209 -209 -209 -209 -209 -209 -209 -209 -209 -209 0 0 -193 0 0 0 0 0 -177 -209 -209 -209 -209 -209 -209 -209 -209 -209 -209 -209 -209 154 -193 -209 -193 -193 -209 -209 -209 -209 -209 -209 -209 371 -193 365 364 361 363 362 0 0 0 0 0
    0 0 0 0 0 0 0 0 0 0 0 0 0 0 0 0 0 0 0 0 0 0 0 0 0 0 0 0 0 0 0 0 0 0 0 0 0 0 0 0 0 0 0 0 0 0 0 0 0 0 0 0 0 0 0 0 0 0 0 0 0 0 0 0 0 0 0 0 0 -225 -225 -225 -225 -225 -225 -225 -225 -225 -225 -225 -225 -225 -225 -225 -225 -225 -225 -225 -225 -225 -225 -225 -225 -225 -225 -225 -225 -225 -225 -225 -225 -225 -225 -225 -225 -225 -225 -225 -225 -225 -225 -225 -225 -225 -225 -225 -225 -225 -225 -225 -225 -225 -225 -225 -225 -225 -225 -225 -225 -225 -225 -225 -225 -225 -225 -225 -225 -225 -225 -225 -225 -225 -225 -225 -225 -225 -225 -225 -225 -225 -225 -225 -225 -225 -225 -225 -225 -225 -225 -225 -225 -225 -225 -225 -225 -225 -225 -225 -225 -225 -225 -225 -225 -225 -225 -225 -225 -225 -225 -225 -225 -225 -225 -225 -225 -225 -225 -225 -225 -225 -225 -225 -225 -225 -225 -225 -225 -225 -225 -225 -225 -225 -225 -225 -225 -225 -225 -225 -225 -225 -225 -225 -225 -225 -225 -225 -225 -225 -225 -225 -225 -225 -225 -225 -225 -225 -225 -225 -225 -225 -225 -225 -225 -225 -225 -225 -225 -225 -225 -225 -225 -225 -225 -225 -225 -225 -225 -225 -225 -225 -225 -225 -225 -225 -225 -225 -225 -225 -225 -225 -225 -225 -225 -225 -209 -209 -209 -209 -209 -209 -209 -209 -209 -209 -209 0 0 -193 0 0 0 0 -209 -209 -209 -209 -209 -209 -209 -209 -209 -209 -209 -209 -209 -209 -193 -193 -209 -209 -209 -209 -209 -209 -209 -209 -209 -209 374 -193 373 371 366 367 368 0 0 0 0 0
    0 0 0 0 0 0 0 0 0 0 0 0 0 0 0 0 0 0 0 0 0 0 0 0 0 0 0 0 0 0 0 0 0 0 0 0 0 0 0 0 0 0 0 0 0 0 0 0 0 0 0 0 0 0 0 0 0 0 0 0 0 0 0 0 0 0 0 0 0 -225 -225 -225 -225 -225 -225 -225 -225 -225 -225 -225 -225 -225 -225 -225 -225 -225 -225 -225 -225 -225 -225 -225 -225 -225 -225 -225 -225 -225 -225 -225 -225 -225 -225 -225 -225 -225 -225 -225 -225 -225 -225 -225 -225 -225 -225 -225 -225 -225 -225 -225 -225 -225 -225 -225 -225 -225 -225 -225 -225 -225 -225 -225 -225 -225 -225 -225 -225 -225 -225 -225 -225 -225 -225 -225 -225 -225 -225 -225 -225 -225 -225 -225 -225 -225 -225 -225 -225 -225 -225 -225 -225 -225 -225 -225 -225 -225 -225 -225 -225 -225 -225 -225 -225 -225 -225 -225 -225 -225 -225 -225 -225 -225 -225 -225 -225 -225 -225 -225 -225 -225 -225 -225 -225 -225 -225 -225 -225 -225 -225 -225 -225 -225 -225 -225 -225 -225 -225 -225 -225 -225 -225 -225 -225 -225 -225 -225 -225 -225 -225 -225 -225 -225 -225 -225 -225 -225 -225 -225 -225 -225 -225 -225 -225 -225 -225 -225 -225 -225 -225 -225 -225 -225 -225 -225 -225 -225 -225 -225 -225 -225 -225 -225 -225 -225 -225 -225 -225 -225 -225 -225 -225 -225 -225 -225 -209 -209 -209 -209 -209 -209 -209 -209 -209 -209 -209 0 -193 -193 0 0 -177 -193 -209 -209 64 69 71 73 -209 -209 -209 -209 -209 -209 -209 -209 156 158 -209 -209 -209 321 -209 -209 -209 -209 -193 380 377 -209 376 374 369 368 370 0 0 0 0 0
    0 0 0 0 0 0 0 0 0 0 0 0 0 0 0 0 0 0 0 0 0 0 0 0 0 0 0 0 0 0 0 0 0 0 0 0 0 0 0 0 0 0 0 0 0 0 0 0 0 0 0 0 0 0 0 0 0 0 0 0 0 0 0 0 0 0 0 0 0 -225 -225 -225 -225 -225 -225 -225 -225 -225 -225 -225 -225 -225 -225 -225 -225 -225 -225 -225 -225 -225 -225 -225 -225 -225 -225 -225 -225 -225 -225 -225 -225 -225 -225 -225 -225 -225 -225 -225 -225 -225 -225 -225 -225 -225 -225 -225 -225 -225 -225 -225 -225 -225 -225 -225 -225 -225 -225 -225 -225 -225 -225 -225 -225 -225 -225 -225 -225 -225 -225 -225 -225 -225 -225 -225 -225 -225 -225 -225 -225 -225 -225 -225 -225 -225 -225 -225 -225 -225 -225 -225 -225 -225 -225 -225 -225 -225 -225 -225 -225 -225 -225 -225 -225 -225 -225 -225 -225 -225 -225 -225 -225 -225 -225 -225 -225 -225 -225 -225 -225 -225 -225 -225 -225 -225 -225 -225 -225 -225 -225 -225 -225 -225 -225 -225 -225 -225 -225 -225 -225 -225 -225 -225 -225 -225 -225 -225 -225 -225 -225 -225 -225 -225 -225 -225 -225 -225 -225 -225 -225 -225 -225 -225 -225 -225 -225 -225 -225 -225 -225 -225 -225 -225 -225 -225 -225 -225 -225 -225 -225 -225 -225 -225 -225 -225 -225 -225 -225 -225 -225 -225 -225 -225 -225 -225 -209 -209 -209 -209 -209 -209 -209 -209 -209 -209 -209 -193 -193 -193 0 -177 -177 -193 -209 62 67 70 71 72 -177 -193 -209 -209 17 -193 -209 -209 157 158 -209 -209 -193 316 -209 162 164 -193 -193 384 380 -193 -209 -209 -209 -209 371 0 0 0 0 0
    0 0 0 0 0 0 0 0 0 0 0 0 0 0 0 0 0 0 0 0 0 0 0 0 0 0 0 0 0 0 0 0 0 0 0 0 0 0 0 0 0 0 0 0 0 0 0 0 0 0 0 0 0 0 0 0 0 0 0 0 0 0 0 0 0 0 0 0 0 -225 -225 -225 -225 -225 -225 -225 -225 -225 -225 -225 -225 -225 -225 -225 -225 -225 -225 -225 -225 -225 -225 -225 -225 -225 -225 -225 -225 -225 -225 -225 -225 -225 -225 -225 -225 -225 -225 -225 -225 -225 -225 -225 -225 -225 -225 -225 -225 -225 -225 -225 -225 -225 -225 -225 -225 -225 -225 -225 -225 -225 -225 -225 -225 -225 -225 -225 -225 -225 -225 -225 -225 -225 -225 -225 -225 -225 -225 -225 -225 -225 -225 -225 -225 -225 -225 -225 -225 -225 -225 -225 -225 -225 -225 -225 -225 -225 -225 -225 -225 -225 -225 -225 -225 -225 -225 -225 -225 -225 -225 -225 -225 -225 -225 -225 -225 -225 -225 -225 -225 -225 -225 -225 -225 -225 -225 -225 -225 -225 -225 -225 -225 -225 -225 -225 -225 -225 -225 -225 -225 -225 -225 -225 -225 -225 -225 -225 -225 -225 -225 -225 -225 -225 -225 -225 -225 -225 -225 -225 -225 -225 -225 -225 -225 -225 -225 -225 -225 -225 -225 -225 -225 -225 -225 -225 -225 -225 -225 -225 -225 -225 -225 -225 -225 -225 -225 -225 -225 -225 -225 -225 -225 -225 -225 -225 -209 -209 -209 -209 -209 -209 -209 -209 -209 -209 -209 -193 -209 -209 0 0 -177 -177 -209 -209 -177 -193 -193 -209 -209 -209 -209 -209 -193 -193 -193 -209 157 160 -209 311 314 315 -193 -209 -193 -209 -209 -209 -209 -209 -209 -209 -193 -209 -209 0 0 0 0 0
    0 0 0 0 0 0 0 0 0 0 0 0 0 0 0 0 0 0 0 0 0 0 0 0 0 0 0 0 0 0 0 0 0 0 0 0 0 0 0 0 0 0 0 0 0 0 0 0 0 0 0 0 0 0 0 0 0 0 0 0 0 0 0 0 0 0 0 0 0 -225 -225 -225 -225 -225 -225 -225 -225 -225 -225 -225 -225 -225 -225 -225 -225 -225 -225 -225 -225 -225 -225 -225 -225 -225 -225 -225 -225 -225 -225 -225 -225 -225 -225 -225 -225 -225 -225 -225 -225 -225 -225 -225 -225 -225 -225 -225 -225 -225 -225 -225 -225 -225 -225 -225 -225 -225 -225 -225 -225 -225 -225 -225 -225 -225 -225 -225 -225 -225 -225 -225 -225 -225 -225 -225 -225 -225 -225 -225 -225 -225 -225 -225 -225 -225 -225 -225 -225 -225 -225 -225 -225 -225 -225 -225 -225 -225 -225 -225 -225 -225 -225 -225 -225 -225 -225 -225 -225 -225 -225 -225 -225 -225 -225 -225 -225 -225 -225 -225 -225 -225 -225 -225 -225 -225 -225 -225 -225 -225 -225 -225 -225 -225 -225 -225 -225 -225 -225 -225 -225 -225 -225 -225 -225 -225 -225 -225 -225 -225 -225 -225 -225 -225 -225 -225 -225 -225 -225 -225 -225 -225 -225 -225 -225 -225 -225 -225 -225 -225 -225 -225 -225 -225 -225 -225 -225 -225 -225 -225 -225 -225 -225 -225 -225 -225 -225 -225 -225 -225 -225 -225 -225 -225 -225 -225 -209 -209 -209 -209 -209 -209 -209 -209 -209 -209 -209 -209 -209 -209 0 0 -177 -177 -209 -209 -177 -209 -209 -209 -209 -209 -209 -209 158 158 -209 -209 158 163 -209 309 312 313 -177 -209 -193 -193 240 -209 -209 -209 -209 -209 -209 -193 -209 0 0 0 0 0
    0 0 0 0 0 0 0 0 0 0 0 0 0 0 0 0 0 0 0 0 0 0 0 0 0 0 0 0 0 0 0 0 0 0 0 0 0 0 0 0 0 0 0 0 0 0 0 0 0 0 0 0 0 0 0 0 0 0 0 0 0 0 0 0 0 0 0 0 0 -225 -225 -225 -225 -225 -225 -225 -225 -225 -225 -225 -225 -225 -225 -225 -225 -225 -225 -225 -225 -225 -225 -225 -225 -225 -225 -225 -225 -225 -225 -225 -225 -225 -225 -225 -225 -225 -225 -225 -225 -225 -225 -225 -225 -225 -225 -225 -225 -225 -225 -225 -225 -225 -225 -225 -225 -225 -225 -225 -225 -225 -225 -225 -225 -225 -225 -225 -225 -225 -225 -225 -225 -225 -225 -225 -225 -225 -225 -225 -225 -225 -225 -225 -225 -225 -225 -225 -225 -225 -225 -225 -225 -225 -225 -225 -225 -225 -225 -225 -225 -225 -225 -225 -225 -225 -225 -225 -225 -225 -225 -225 -225 -225 -225 -225 -225 -225 -225 -225 -225 -225 -225 -225 -225 -225 -225 -225 -225 -225 -225 -225 -225 -225 -225 -225 -225 -225 -225 -225 -225 -225 -225 -225 -225 -225 -225 -225 -225 -225 -225 -225 -225 -225 -225 -225 -225 -225 -225 -225 -225 -225 -225 -225 -225 -225 -225 -225 -225 -225 -225 -225 -225 -225 -225 -225 -225 -225 -225 -225 -225 -225 -225 -225 -225 -225 -225 -225 -225 -225 -225 -225 -225 -225 -225 -225 -209 -209 -209 -209 -209 -209 -209 -209 -209 -209 -209 -209 -209 -209 -193 -177 -177 -177 -209 -209 -209 -209 -209 -209 -209 -209 -193 -193 -193 -193 -209 -209 -193 -209 308 311 313 313 315 -193 238 239 239 241 -209 -209 -193 -193 -193 -193 -209 0 0 0 0 0</data></disparity>
</opencv_storage>
