<?xml version="1.0"?>
<opencv_storage>
<gps_time_stamp>34240</gps_time_stamp>
<gps_x>-1.1355919837951660e+001</gps_x>
<gps_y>1.0948424339294434e+000</gps_y>
<gps_z>-2.8352110385894775e+000</gps_z>
<image_time_stamp>22168</image_time_stamp>
<disparity type_id="opencv-matrix">
  <rows>92</rows>
  <cols>320</cols>
  <dt>s</dt>
  <data>
    0 0 0 0 0 0 0 0 0 0 0 0 0 0 0 0 0 0 0 0 0 0 0 0 0 0 0 0 0 0 0 0 0 0 0 0 0 0 0 0 0 0 0 0 0 0 0 0 0 0 0 0 0 0 0 0 0 0 0 0 0 0 0 0 0 0 0 0 0 10 9 10 11 9 9 9 9 9 10 9 9 9 9 0 0 0 0 0 0 0 0 0 0 0 0 0 0 0 0 0 0 0 0 0 0 0 0 0 0 0 9 11 13 12 12 12 14 15 13 10 11 9 0 0 10 9 0 9 0 0 0 0 0 0 0 0 0 0 0 0 0 11 13 10 10 12 11 11 11 12 12 12 11 11 10 12 10 11 10 0 9 0 -193 -209 -209 -193 -193 -209 -209 -209 -193 -193 12 12 12 12 12 12 11 10 10 10 9 12 -193 0 15 12 12 13 13 12 11 12 14 10 12 13 11 11 14 15 13 10 11 10 9 9 13 11 11 14 14 11 12 12 12 10 8 8 0 9 0 0 0 10 0 9 10 10 11 11 13 13 13 14 16 17 18 16 18 17 17 17 18 18 18 17 19 18 20 18 18 20 21 21 22 22 23 22 24 24 23 20 22 22 22 22 23 23 23 24 24 23 24 24 24 24 24 24 23 24 24 25 25 26 26 26 27 26 26 26 26 29 29 30 35 35 36 37 38 37 37 39 40 40 41 42 43 43 44 44 44 44 45 0 0 0 0 0
    0 0 0 0 0 0 0 0 0 0 0 0 0 0 0 0 0 0 0 0 0 0 0 0 0 0 0 0 0 0 0 0 0 0 0 0 0 0 0 0 0 0 0 0 0 0 0 0 0 0 0 0 0 0 0 0 0 0 0 0 0 0 0 0 0 0 0 0 0 10 9 10 11 9 9 9 9 9 10 9 9 9 9 9 0 0 0 0 0 0 0 0 0 0 0 0 0 0 0 0 0 0 0 0 0 0 0 0 0 0 9 11 12 12 12 12 14 16 13 11 11 9 0 0 9 9 0 9 0 0 0 0 0 0 0 0 0 0 0 0 0 11 14 10 10 12 11 11 11 11 12 11 11 11 10 12 11 11 10 0 0 0 -193 -209 -193 -193 -193 -193 -209 -193 -193 -193 12 12 11 11 11 11 11 10 10 9 9 11 -193 9 15 12 12 13 13 11 11 11 14 10 12 13 11 10 13 14 13 10 11 10 9 9 13 11 11 13 14 11 11 12 11 10 9 9 9 9 0 0 0 10 0 9 10 10 10 12 12 13 13 14 16 17 18 17 17 17 17 18 18 18 18 17 19 18 19 18 18 20 22 21 22 22 23 22 24 24 24 20 22 22 22 21 23 24 24 24 23 23 23 24 24 24 23 23 22 23 23 25 25 25 26 26 27 26 26 26 26 28 28 28 34 33 36 37 38 37 38 40 40 41 42 43 43 43 45 44 44 44 45 0 0 0 0 0
    0 0 0 0 0 0 0 0 0 0 0 0 0 0 0 0 0 0 0 0 0 0 0 0 0 0 0 0 0 0 0 0 0 0 0 0 0 0 0 0 0 0 0 0 0 0 0 0 0 0 0 0 0 0 0 0 0 0 0 0 0 0 0 0 0 0 0 0 0 10 9 10 10 9 9 10 10 10 11 10 10 10 10 10 9 9 9 0 0 0 0 0 0 0 0 0 0 0 0 0 0 0 0 0 0 0 9 9 9 9 9 11 12 12 12 12 14 16 13 11 11 9 9 0 9 9 0 9 8 0 0 0 0 0 0 0 0 0 0 0 0 12 14 10 11 12 11 11 11 11 11 11 11 10 10 11 11 11 11 0 9 -193 -209 -209 -193 -193 -193 -193 -193 -193 -193 -193 12 11 11 11 11 10 10 9 10 9 9 10 -193 9 15 12 11 13 13 11 11 11 13 10 12 13 11 10 13 14 13 10 10 10 10 10 12 11 11 12 14 11 11 11 11 10 10 9 9 9 9 0 0 11 0 10 10 10 11 12 12 12 12 14 14 17 17 16 16 17 17 17 17 18 17 17 18 18 19 18 18 20 22 22 22 23 23 22 24 24 23 20 22 22 22 21 23 23 23 24 23 23 23 24 24 23 23 22 21 23 23 24 25 26 27 27 28 27 26 27 27 27 27 28 34 33 37 38 39 38 39 40 41 41 43 43 44 44 45 45 45 44 45 0 0 0 0 0
    0 0 0 0 0 0 0 0 0 0 0 0 0 0 0 0 0 0 0 0 0 0 0 0 0 0 0 0 0 0 0 0 0 0 0 0 0 0 0 0 0 0 0 0 0 0 0 0 0 0 0 0 0 0 0 0 0 0 0 0 0 0 0 0 0 0 0 0 0 10 9 10 10 9 0 10 10 9 11 10 10 10 10 10 9 9 10 9 9 9 0 0 0 0 0 0 0 0 0 0 0 0 0 0 9 9 9 9 9 9 9 11 11 11 11 12 14 15 12 10 11 0 0 0 9 9 0 9 0 0 9 0 0 0 0 0 0 0 9 9 9 12 14 11 11 13 11 10 11 10 11 10 10 10 10 11 10 11 10 0 0 0 11 11 14 11 11 -193 -193 12 -193 -193 11 11 10 10 10 10 10 9 9 9 9 9 -193 9 15 12 11 12 13 11 11 11 13 10 12 13 11 9 12 13 12 10 10 10 10 10 12 11 11 12 14 12 11 11 11 10 10 10 10 9 9 9 9 11 0 10 10 11 12 12 12 12 13 15 14 17 18 16 16 18 17 16 17 17 17 16 18 18 18 18 18 20 22 22 22 23 23 22 23 23 23 20 22 22 21 21 23 24 23 24 23 23 23 23 23 22 22 21 20 22 23 24 25 26 28 28 28 27 27 27 28 27 28 29 34 33 37 38 39 38 39 40 41 41 43 43 44 44 46 45 46 45 46 0 0 0 0 0
    0 0 0 0 0 0 0 0 0 0 0 0 0 0 0 0 0 0 0 0 0 0 0 0 0 0 0 0 0 0 0 0 0 0 0 0 0 0 0 0 0 0 0 0 0 0 0 0 0 0 0 0 0 0 0 0 0 0 0 0 0 0 0 0 0 0 0 0 0 10 9 10 10 9 0 10 9 10 11 11 11 11 11 10 9 10 10 9 8 0 0 0 0 0 0 0 0 0 0 0 0 0 0 0 9 9 9 9 9 9 9 10 10 11 11 12 14 15 12 10 11 0 0 0 0 8 0 0 0 0 9 9 0 0 0 0 0 0 9 9 9 12 15 11 11 13 11 11 11 10 11 10 10 10 9 11 10 10 10 0 0 0 9 10 13 10 10 11 -193 11 -193 -193 11 10 10 10 10 9 9 9 9 9 9 9 -193 9 16 12 11 12 13 11 11 11 13 10 12 12 11 9 12 13 12 9 9 10 9 10 12 11 11 12 14 12 11 11 12 11 11 10 10 9 9 9 10 11 0 13 12 12 14 13 13 14 14 15 14 17 18 16 16 18 17 16 17 17 16 16 18 18 18 18 18 20 23 22 23 23 23 -193 -193 24 24 20 22 22 21 22 23 23 23 24 23 23 23 23 23 22 21 21 20 22 22 24 26 27 28 29 29 28 28 28 28 27 28 28 33 33 37 37 39 38 38 40 40 41 43 42 44 43 46 46 46 45 46 0 0 0 0 0
    0 0 0 0 0 0 0 0 0 0 0 0 0 0 0 0 0 0 0 0 0 0 0 0 0 0 0 0 0 0 0 0 0 0 0 0 0 0 0 0 0 0 0 0 0 0 0 0 0 0 0 0 0 0 0 0 0 0 0 0 0 0 0 0 0 0 0 0 0 10 0 9 9 9 0 9 9 9 11 11 11 10 10 10 9 9 10 0 0 0 0 0 0 0 0 0 0 0 0 0 0 8 0 9 10 9 9 9 9 9 9 10 10 10 11 13 15 15 12 11 11 0 0 0 0 0 0 0 0 0 9 9 0 0 0 0 0 0 9 9 10 13 15 11 11 14 11 11 11 10 11 10 10 10 9 11 10 10 11 0 9 0 10 12 14 11 12 11 12 11 13 10 10 10 10 9 10 9 9 0 9 9 9 10 -193 9 16 12 12 12 13 11 11 11 13 10 12 12 10 9 11 12 11 9 9 9 9 9 11 10 10 11 14 12 11 11 11 11 11 10 10 9 9 8 9 10 0 16 14 14 15 14 15 15 15 15 14 17 18 15 16 17 16 16 17 17 16 15 18 18 18 18 18 20 23 22 23 23 23 -193 -193 -193 24 20 22 21 21 22 23 23 23 23 23 22 22 23 22 21 20 20 20 21 22 23 26 27 28 29 30 29 29 29 31 28 28 29 34 33 37 37 39 38 39 40 40 41 43 42 43 42 45 46 46 46 46 0 0 0 0 0
    0 0 0 0 0 0 0 0 0 0 0 0 0 0 0 0 0 0 0 0 0 0 0 0 0 0 0 0 0 0 0 0 0 0 0 0 0 0 0 0 0 0 0 0 0 0 0 0 0 0 0 0 0 0 0 0 0 0 0 0 0 0 0 0 0 0 0 0 0 10 0 0 0 0 0 9 9 9 12 11 11 11 11 11 10 10 10 0 0 0 0 0 0 0 0 0 0 0 0 0 0 9 9 9 10 10 10 9 9 9 9 10 10 10 11 13 16 14 12 11 11 9 0 0 0 0 0 0 0 0 9 9 0 0 0 0 0 0 9 9 9 12 15 11 11 13 11 11 11 10 11 11 11 10 10 11 10 11 12 9 10 9 12 13 15 12 12 11 12 12 12 10 10 10 10 9 10 9 9 0 9 9 9 10 -193 9 15 12 11 12 13 11 11 11 13 10 12 12 10 0 11 11 10 0 0 0 0 9 10 10 10 11 14 11 11 11 11 11 10 10 10 0 0 0 0 0 0 -177 13 14 15 14 14 15 15 15 14 16 17 15 16 17 16 16 16 16 16 15 17 19 18 18 18 20 24 22 23 23 -193 -193 -193 -193 23 20 22 21 21 22 23 23 23 22 22 22 22 22 22 21 20 20 20 20 22 23 26 26 27 28 31 31 32 31 33 30 30 32 36 35 37 38 39 39 39 40 40 41 42 41 43 41 44 45 45 46 46 0 0 0 0 0
    0 0 0 0 0 0 0 0 0 0 0 0 0 0 0 0 0 0 0 0 0 0 0 0 0 0 0 0 0 0 0 0 0 0 0 0 0 0 0 0 0 0 0 0 0 0 0 0 0 0 0 0 0 0 0 0 0 0 0 0 0 0 0 0 0 0 0 0 0 10 0 0 0 9 0 9 0 9 12 11 11 11 11 11 10 10 10 0 0 0 0 0 0 0 0 0 0 0 0 0 0 11 10 9 11 11 10 10 10 10 9 10 10 10 11 13 16 14 13 11 11 9 9 0 0 0 0 9 0 0 9 9 0 0 0 0 0 0 9 9 9 12 15 11 11 14 11 11 12 11 11 11 11 11 10 11 11 11 13 11 13 15 15 17 18 13 14 12 13 12 12 10 10 10 10 9 10 9 9 9 10 9 9 11 11 9 15 12 12 12 13 11 11 11 13 10 12 12 10 9 11 11 10 9 0 0 0 0 9 9 9 10 13 11 11 11 11 11 10 9 9 0 0 0 0 0 -177 20 15 15 16 15 15 15 15 16 14 17 18 15 16 17 16 16 16 16 16 14 17 19 17 18 18 20 23 22 23 23 -193 -177 -193 -193 23 20 22 22 22 22 22 23 23 22 22 22 22 22 22 22 21 21 21 21 22 23 25 26 27 28 31 33 33 33 35 32 32 34 37 36 38 39 40 40 40 41 41 41 42 42 42 41 42 44 44 46 46 0 0 0 0 0
    0 0 0 0 0 0 0 0 0 0 0 0 0 0 0 0 0 0 0 0 0 0 0 0 0 0 0 0 0 0 0 0 0 0 0 0 0 0 0 0 0 0 0 0 0 0 0 0 0 0 0 0 0 0 0 0 0 0 0 0 0 0 0 0 0 0 0 0 0 10 0 9 0 0 0 0 0 9 13 11 11 11 11 11 10 11 11 0 0 0 0 0 0 0 0 0 0 0 0 0 9 12 11 9 10 10 10 10 10 10 9 10 10 10 11 13 15 14 12 10 11 9 9 0 0 0 0 10 9 0 9 9 0 0 0 0 0 0 9 9 9 12 15 11 11 14 11 11 12 11 12 11 11 11 9 11 11 11 14 12 14 17 15 18 18 13 14 12 13 12 12 10 10 10 10 9 10 9 10 9 10 10 10 11 10 9 15 12 12 12 13 11 11 12 13 10 12 12 11 9 11 11 10 9 9 0 0 0 9 9 9 9 12 11 10 10 11 11 9 9 9 0 0 0 0 0 -177 21 15 15 17 15 15 15 15 16 14 16 18 15 16 17 17 16 16 16 15 13 17 19 17 18 19 20 24 22 23 23 -193 -193 -193 22 22 20 22 21 21 21 22 22 22 21 21 21 21 21 21 22 20 21 21 21 22 23 25 26 28 29 31 34 34 34 36 34 34 35 37 37 38 39 40 40 41 41 42 41 43 42 43 41 42 43 44 46 46 0 0 0 0 0
    0 0 0 0 0 0 0 0 0 0 0 0 0 0 0 0 0 0 0 0 0 0 0 0 0 0 0 0 0 0 0 0 0 0 0 0 0 0 0 0 0 0 0 0 0 0 0 0 0 0 0 0 0 0 0 0 0 0 0 0 0 0 0 0 0 0 0 0 0 10 0 0 0 0 0 0 0 9 14 12 12 12 12 12 11 11 11 0 0 0 0 0 0 0 0 0 0 0 0 0 0 11 11 9 10 10 10 10 10 10 10 10 10 10 11 13 15 14 12 10 10 0 9 0 9 9 9 10 9 0 9 9 0 0 0 0 0 0 9 9 9 12 15 10 11 14 11 11 12 11 12 11 11 11 9 11 10 11 13 11 13 18 14 18 17 13 14 12 13 12 11 10 10 10 10 10 10 10 10 10 11 10 10 11 9 0 15 12 11 12 13 11 11 12 14 10 12 13 11 9 11 12 11 10 9 9 0 0 9 9 9 9 12 11 10 10 11 11 9 9 9 0 0 0 0 0 -177 20 15 15 16 15 14 15 15 15 13 16 18 15 16 17 16 16 16 16 16 13 17 18 16 17 17 19 23 21 22 22 -193 22 23 22 22 20 22 21 20 21 21 21 21 20 21 21 21 21 21 22 19 22 22 22 23 24 26 27 28 29 32 35 34 35 37 36 35 36 38 37 38 39 40 40 41 41 42 41 42 42 42 41 42 42 43 45 45 0 0 0 0 0
    0 0 0 0 0 0 0 0 0 0 0 0 0 0 0 0 0 0 0 0 0 0 0 0 0 0 0 0 0 0 0 0 0 0 0 0 0 0 0 0 0 0 0 0 0 0 0 0 0 0 0 0 0 0 0 0 0 0 0 0 0 0 0 0 0 0 0 0 0 10 0 0 0 0 0 0 0 0 14 12 12 12 12 12 11 11 12 0 9 0 0 0 0 0 0 0 0 0 0 0 0 10 10 9 9 9 10 10 10 10 9 10 10 10 11 13 15 13 12 10 10 0 0 0 9 9 9 10 9 0 9 9 0 0 0 0 0 0 9 9 9 12 15 10 11 16 12 12 12 12 12 12 11 11 9 10 9 11 12 10 11 15 12 15 13 11 12 11 12 11 11 10 10 11 11 10 11 10 10 10 11 10 11 12 9 0 15 12 11 12 13 12 11 12 14 10 13 13 11 9 11 12 11 10 9 9 0 0 9 0 0 0 12 10 10 10 11 11 9 9 9 0 0 0 0 0 -177 20 15 14 16 14 15 15 15 16 13 15 18 15 16 16 16 16 16 16 17 13 17 18 16 17 18 19 22 20 21 22 21 22 23 22 22 20 21 20 20 21 21 22 21 19 21 22 22 22 23 23 20 23 23 24 25 25 27 27 29 29 31 35 35 35 38 37 37 37 38 38 38 39 40 40 41 41 41 41 42 42 41 41 41 42 42 44 44 0 0 0 0 0
    0 0 0 0 0 0 0 0 0 0 0 0 0 0 0 0 0 0 0 0 0 0 0 0 0 0 0 0 0 0 0 0 0 0 0 0 0 0 0 0 0 0 0 0 0 0 0 0 0 0 0 0 0 0 0 0 0 0 0 0 0 0 0 0 0 0 0 0 0 10 0 0 0 0 0 0 0 0 13 11 12 11 12 11 11 11 11 0 0 0 0 0 0 0 0 0 0 0 0 0 0 10 10 0 9 0 9 9 9 9 9 9 10 10 11 13 15 13 12 10 10 0 0 0 9 9 9 10 9 0 9 10 0 0 0 0 -193 0 9 9 9 12 14 10 10 16 12 12 12 11 12 11 11 11 9 9 0 10 10 10 11 15 11 14 12 11 11 11 12 11 10 -193 10 11 11 11 11 10 11 11 12 10 11 13 0 0 15 11 11 12 13 12 11 12 14 10 13 13 11 9 11 12 11 10 9 0 0 0 0 0 0 0 11 10 10 10 11 11 9 9 9 0 9 9 10 9 -177 19 15 14 15 15 15 16 16 16 14 15 19 15 16 16 16 16 16 17 18 13 18 19 17 18 19 18 22 20 21 21 21 22 22 21 22 19 21 20 20 21 22 22 21 20 22 22 22 22 23 23 22 25 25 25 26 27 28 29 30 30 32 35 35 36 38 38 37 37 38 38 37 39 39 39 39 40 40 41 41 41 41 40 40 41 41 43 44 0 0 0 0 0
    0 0 0 0 0 0 0 0 0 0 0 0 0 0 0 0 0 0 0 0 0 0 0 0 0 0 0 0 0 0 0 0 0 0 0 0 0 0 0 0 0 0 0 0 0 0 0 0 0 0 0 0 0 0 0 0 0 0 0 0 0 0 0 0 0 0 0 0 0 10 9 10 0 0 0 0 0 0 13 10 11 11 11 10 10 10 10 0 0 0 0 0 0 0 0 0 9 0 0 9 9 10 9 0 0 0 9 9 9 9 0 0 9 9 11 12 16 13 12 10 10 0 0 0 9 0 0 8 0 0 8 10 0 0 0 0 -193 -193 9 9 0 11 13 10 9 14 11 12 11 11 11 11 10 11 9 9 8 11 11 10 12 15 12 15 13 12 12 12 13 12 11 -193 10 11 11 11 11 11 11 11 12 10 11 13 0 0 14 12 11 13 13 12 11 12 14 10 13 13 11 9 11 11 11 9 9 0 0 0 0 0 0 0 11 10 10 10 10 11 0 0 0 9 10 10 10 10 9 17 14 14 13 14 14 15 15 16 13 15 19 15 16 16 15 16 16 17 18 12 19 19 18 19 18 18 22 20 21 21 21 22 22 21 22 19 21 20 21 20 21 21 21 19 22 22 22 22 22 22 22 25 25 26 26 28 29 30 31 31 33 37 36 37 38 38 37 37 38 38 37 39 39 39 39 40 40 40 41 41 40 41 40 41 41 43 43 0 0 0 0 0
    0 0 0 0 0 0 0 0 0 0 0 0 0 0 0 0 0 0 0 0 0 0 0 0 0 0 0 0 0 0 0 0 0 0 0 0 0 0 0 0 0 0 0 0 0 0 0 0 0 0 0 0 0 0 0 0 0 0 0 0 0 0 0 0 0 0 0 0 0 10 0 10 0 9 0 0 0 0 11 9 10 9 9 9 9 9 9 0 0 0 0 0 0 0 9 8 10 9 9 9 9 9 9 0 0 0 9 9 9 9 0 0 9 9 10 11 14 12 11 10 10 0 9 0 9 0 0 0 0 0 0 10 0 0 0 0 -193 -193 9 9 0 11 12 10 9 12 11 12 11 11 11 11 11 11 10 10 9 11 11 10 12 14 13 14 13 13 13 13 13 12 11 10 10 11 11 11 11 11 11 12 12 11 11 12 0 9 14 11 11 12 13 12 11 12 14 10 12 13 10 9 11 11 11 10 9 0 0 0 0 0 0 0 10 10 10 10 9 11 0 0 0 9 10 10 10 10 9 16 14 13 12 12 13 14 14 16 13 15 19 16 16 16 16 17 16 18 18 12 19 19 19 19 18 19 22 20 21 20 20 20 21 20 21 18 20 19 20 20 21 21 20 19 21 21 21 21 22 22 22 25 25 25 26 28 28 30 32 32 33 37 36 36 38 38 36 36 37 37 36 38 38 39 39 40 40 40 41 41 40 41 40 41 41 43 43 0 0 0 0 0
    0 0 0 0 0 0 0 0 0 0 0 0 0 0 0 0 0 0 0 0 0 0 0 0 0 0 0 0 0 0 0 0 0 0 0 0 0 0 0 0 0 0 0 0 0 0 0 0 0 0 0 0 0 0 0 0 0 0 0 0 0 0 0 0 0 0 0 0 0 9 0 10 9 9 0 0 0 0 9 0 9 9 9 9 9 9 9 9 9 0 0 0 9 0 10 9 10 9 9 10 9 9 9 0 0 0 0 0 0 0 0 0 9 0 9 10 12 11 10 11 11 9 9 0 9 8 9 9 0 0 0 10 0 0 0 0 -193 -193 9 9 0 10 11 9 9 11 10 11 10 11 11 11 11 11 10 10 9 11 10 9 10 11 12 11 12 12 13 13 13 13 11 10 10 11 11 11 11 11 11 12 12 11 11 12 9 9 15 12 11 12 12 11 11 12 13 10 12 12 10 9 10 11 11 10 10 9 0 9 9 9 0 0 11 10 10 10 9 11 9 9 9 10 10 10 10 10 9 16 13 12 11 12 12 14 14 16 12 15 19 16 16 16 16 16 16 17 17 13 19 19 19 18 18 19 22 20 20 20 19 19 20 19 20 17 19 19 19 19 22 21 20 18 21 21 21 21 21 21 22 25 25 25 26 27 27 29 30 30 30 36 34 35 37 37 36 35 36 36 36 38 38 39 39 40 39 40 40 41 40 40 40 41 41 42 43 0 0 0 0 0
    0 0 0 0 0 0 0 0 0 0 0 0 0 0 0 0 0 0 0 0 0 0 0 0 0 0 0 0 0 0 0 0 0 0 0 0 0 0 0 0 0 0 0 0 0 0 0 0 0 0 0 0 0 0 0 0 0 0 0 0 0 0 0 0 0 0 0 0 0 9 0 9 9 9 9 9 0 9 0 0 0 0 0 0 0 0 0 9 9 0 9 9 10 9 11 10 11 9 9 10 10 9 9 0 0 0 0 0 0 0 0 0 0 0 0 0 10 9 9 11 10 9 10 9 10 9 10 10 0 0 0 10 0 0 0 0 9 0 9 9 0 10 11 9 9 10 11 12 11 11 11 11 11 11 10 10 9 10 9 0 0 9 9 0 10 10 11 12 12 12 12 11 11 11 12 11 11 11 12 12 12 12 12 13 10 10 15 12 11 12 12 11 11 11 13 10 11 11 10 10 10 11 11 10 10 10 9 9 9 9 0 0 11 10 10 10 10 11 9 9 9 10 11 11 11 10 10 16 13 12 11 11 12 13 14 15 12 15 20 16 16 16 16 16 16 17 17 13 19 19 18 18 19 20 21 19 19 19 18 19 20 18 18 15 17 19 19 19 22 21 19 18 21 21 21 21 22 21 23 25 25 26 26 28 28 29 30 30 29 34 31 33 36 37 35 34 35 36 35 38 38 38 38 40 39 40 40 40 39 40 40 40 40 42 42 0 0 0 0 0
    0 0 0 0 0 0 0 0 0 0 0 0 0 0 0 0 0 0 0 0 0 0 0 0 0 0 0 0 0 0 0 0 0 0 0 0 0 0 0 0 0 0 0 0 0 0 0 0 0 0 0 0 0 0 0 0 0 0 0 0 0 0 0 0 0 0 0 0 0 0 0 0 0 9 9 0 0 0 0 0 0 0 0 0 0 0 0 9 10 0 9 10 10 10 11 10 11 9 9 10 10 9 9 0 0 0 0 0 0 0 0 0 0 0 0 0 0 0 0 11 10 10 10 9 10 9 10 10 0 0 0 9 0 0 0 0 9 0 9 9 0 10 10 9 9 9 10 11 10 10 11 11 10 10 10 10 9 10 9 0 0 0 0 0 0 9 10 10 11 11 12 11 12 12 12 11 11 11 12 12 13 12 12 13 11 11 15 12 11 12 12 11 10 11 12 9 10 10 9 9 10 10 10 10 9 9 9 9 9 9 0 0 11 10 10 10 10 11 10 10 10 11 11 11 11 11 10 16 12 11 10 10 11 13 14 15 11 14 20 16 16 16 16 16 16 18 18 13 19 19 20 20 21 22 22 20 20 20 19 19 19 18 17 14 16 18 18 19 22 20 19 18 21 21 21 21 21 20 23 25 25 26 27 28 28 30 31 30 29 32 29 31 34 36 32 32 32 34 34 37 37 37 37 39 39 40 39 40 39 40 39 40 40 41 42 0 0 0 0 0
    0 0 0 0 0 0 0 0 0 0 0 0 0 0 0 0 0 0 0 0 0 0 0 0 0 0 0 0 0 0 0 0 0 0 0 0 0 0 0 0 0 0 0 0 0 0 0 0 0 0 0 0 0 0 0 0 0 0 0 0 0 0 0 0 0 0 0 0 0 0 0 0 0 0 9 0 0 0 0 0 0 0 0 0 0 0 0 9 10 9 10 10 11 10 11 10 11 0 9 9 9 9 0 0 0 0 0 0 0 0 0 0 0 0 0 0 0 0 0 12 11 10 11 10 10 10 10 10 0 0 0 9 0 0 0 0 9 0 9 9 0 9 9 9 0 0 9 10 10 10 10 10 10 10 10 9 0 9 0 0 0 0 0 0 0 0 9 9 10 11 12 11 12 12 12 11 11 11 12 12 12 11 12 12 12 11 15 12 11 12 12 11 10 10 11 0 9 9 9 0 9 10 10 9 9 9 9 9 9 9 9 9 12 11 10 10 10 11 10 10 10 11 11 11 11 11 10 15 12 11 9 10 11 12 13 15 11 14 20 16 17 16 16 16 16 18 18 13 19 18 19 20 20 22 21 20 20 20 19 19 19 18 16 15 19 21 22 22 23 20 19 18 21 21 21 21 21 21 25 26 25 26 27 28 28 29 31 28 28 31 28 30 33 35 33 32 33 34 35 38 37 38 37 39 39 40 39 39 39 39 39 40 39 41 41 0 0 0 0 0
    0 0 0 0 0 0 0 0 0 0 0 0 0 0 0 0 0 0 0 0 0 0 0 0 0 0 0 0 0 0 0 0 0 0 0 0 0 0 0 0 0 0 0 0 0 0 0 0 0 0 0 0 0 0 0 0 0 0 0 0 0 0 0 0 0 0 0 0 0 0 0 0 0 0 9 9 0 9 0 0 0 0 0 0 0 0 0 9 10 9 10 11 11 11 12 10 11 9 9 9 10 9 0 0 0 0 0 0 0 0 0 0 0 0 0 0 10 9 9 13 12 11 12 11 10 9 10 10 0 0 0 9 0 0 0 0 9 0 9 8 0 0 0 0 0 0 9 9 9 9 9 10 10 10 10 10 0 9 0 0 0 0 0 0 0 0 9 10 10 10 11 10 11 11 11 11 11 11 11 11 12 11 12 12 12 12 15 12 11 11 12 11 10 10 11 0 9 9 9 9 9 10 10 9 9 9 9 9 10 9 9 10 13 10 10 10 10 10 10 10 10 11 12 11 11 11 10 14 12 11 9 9 10 11 13 15 12 14 20 16 17 17 17 16 15 18 18 13 19 17 20 19 20 22 21 20 20 19 19 18 19 18 16 17 22 25 25 25 24 20 19 19 21 21 21 21 21 21 25 26 25 26 27 29 29 29 30 27 27 30 28 29 30 34 32 31 32 33 34 37 36 37 36 38 38 39 39 39 38 39 38 40 39 41 41 0 0 0 0 0
    0 0 0 0 0 0 0 0 0 0 0 0 0 0 0 0 0 0 0 0 0 0 0 0 0 0 0 0 0 0 0 0 0 0 0 0 0 0 0 0 0 0 0 0 0 0 0 0 0 0 0 0 0 0 0 0 0 0 0 0 0 0 0 0 0 0 0 0 0 9 0 0 0 0 9 9 0 9 0 0 0 0 0 0 0 0 0 9 10 9 10 11 12 11 12 10 12 9 10 10 10 9 9 0 0 0 0 0 0 0 0 0 0 0 0 0 10 10 9 14 13 12 12 11 10 9 10 10 0 0 0 0 0 0 0 0 0 0 0 0 0 0 0 0 0 0 0 0 0 0 9 9 9 10 10 10 9 10 9 0 0 0 0 0 0 9 10 10 10 11 12 11 12 11 12 11 10 11 11 11 12 11 12 12 13 12 15 12 11 11 11 11 10 9 10 0 9 9 9 9 10 10 10 9 9 9 10 9 10 9 9 10 13 10 10 10 9 10 10 10 10 11 12 11 10 11 10 13 11 10 9 9 9 10 13 15 12 14 20 17 18 17 17 16 15 17 17 13 18 17 19 20 20 22 20 19 19 19 18 18 18 18 14 17 25 27 28 27 24 18 17 17 20 20 20 20 20 19 25 26 25 26 28 30 29 29 30 28 28 30 28 29 29 31 31 29 30 30 32 36 35 37 36 37 38 39 38 38 38 39 38 40 39 41 40 0 0 0 0 0
    0 0 0 0 0 0 0 0 0 0 0 0 0 0 0 0 0 0 0 0 0 0 0 0 0 0 0 0 0 0 0 0 0 0 0 0 0 0 0 0 0 0 0 0 0 0 0 0 0 0 0 0 0 0 0 0 0 0 0 0 0 0 0 0 0 0 0 0 0 9 0 0 0 0 9 9 0 9 0 0 0 0 0 0 0 0 0 9 10 -209 10 12 13 12 13 10 12 10 10 10 10 9 9 0 0 0 0 0 0 0 0 0 0 0 0 0 9 9 9 14 13 12 12 11 10 10 10 10 0 0 0 0 0 0 0 0 0 0 0 0 0 0 0 9 0 0 9 9 9 0 9 9 10 10 11 11 10 11 9 9 0 9 0 0 0 9 10 10 10 11 12 12 12 12 12 11 11 11 11 11 12 12 12 12 13 12 15 12 11 12 11 11 10 10 10 0 9 9 9 9 10 11 10 10 9 10 10 9 10 9 0 9 12 10 10 10 10 10 10 10 10 10 11 11 10 10 9 12 10 9 9 0 9 9 12 14 12 13 21 17 18 17 17 16 16 18 18 14 19 17 20 20 20 22 20 19 19 19 18 18 18 18 13 20 27 28 27 26 24 16 16 15 19 19 19 19 19 19 24 25 24 25 26 28 27 27 28 27 27 30 28 28 28 29 29 28 29 29 29 35 33 35 34 36 37 38 38 38 37 39 38 40 39 41 39 0 0 0 0 0
    0 0 0 0 0 0 0 0 0 0 0 0 0 0 0 0 0 0 0 0 0 0 0 0 0 0 0 0 0 0 0 0 0 0 0 0 0 0 0 0 0 0 0 0 0 0 0 0 0 0 0 0 0 0 0 0 0 0 0 0 0 0 0 0 0 0 0 0 0 9 0 0 0 0 9 0 0 9 0 0 0 0 0 0 0 0 0 9 10 9 10 11 13 12 13 10 13 10 10 10 11 9 9 0 0 0 0 0 0 0 0 0 0 0 0 0 0 0 0 14 12 12 12 11 11 10 10 11 0 0 0 0 0 0 0 0 0 0 0 0 0 0 0 9 9 0 9 9 9 9 9 10 10 10 11 11 10 10 9 9 0 0 0 0 0 9 10 10 10 11 12 11 12 12 11 11 11 11 11 11 11 11 11 12 12 11 14 12 11 12 11 11 10 10 11 0 9 9 9 9 10 11 10 10 9 10 10 9 10 0 0 0 11 10 10 10 10 11 11 10 10 11 11 11 10 11 10 11 11 10 9 9 9 9 12 13 12 12 20 17 18 17 17 16 16 18 18 14 19 17 19 21 20 21 20 19 19 18 18 18 17 19 14 20 27 28 27 26 24 15 15 15 19 19 19 19 19 19 24 24 24 24 25 26 25 26 26 26 27 30 27 27 28 29 29 28 29 28 28 33 32 33 34 36 36 37 37 37 36 37 37 38 36 39 36 0 0 0 0 0
    0 0 0 0 0 0 0 0 0 0 0 0 0 0 0 0 0 0 0 0 0 0 0 0 0 0 0 0 0 0 0 0 0 0 0 0 0 0 0 0 0 0 0 0 0 0 0 0 0 0 0 0 0 0 0 0 0 0 0 0 0 0 0 0 0 0 0 0 0 9 9 0 0 0 9 0 0 0 0 0 0 0 0 0 0 0 0 9 10 9 10 11 12 12 13 11 13 10 10 10 11 9 9 0 0 0 0 0 0 0 0 0 0 0 0 0 0 0 0 14 13 13 12 12 11 11 11 12 0 0 0 0 0 0 0 0 0 0 0 0 0 8 0 0 0 0 0 9 9 9 9 10 9 10 10 10 9 9 0 0 0 0 0 0 -193 0 9 9 9 10 11 10 12 11 11 11 11 11 11 10 11 11 11 11 11 10 13 11 11 12 12 12 11 11 11 0 0 0 0 0 10 10 10 9 9 9 10 9 9 0 0 0 10 10 10 10 10 11 11 10 10 11 12 12 11 11 10 12 12 10 9 10 10 10 13 13 12 12 20 17 17 17 18 16 16 18 18 14 19 17 19 20 20 21 20 18 19 18 18 17 17 19 16 15 27 29 28 27 24 15 15 14 19 19 19 19 19 18 23 24 24 24 25 26 25 25 26 25 27 29 27 27 28 29 29 29 29 29 27 34 31 31 32 34 34 36 35 35 34 36 36 36 35 38 35 0 0 0 0 0
    0 0 0 0 0 0 0 0 0 0 0 0 0 0 0 0 0 0 0 0 0 0 0 0 0 0 0 0 0 0 0 0 0 0 0 0 0 0 0 0 0 0 0 0 0 0 0 0 0 0 0 0 0 0 0 0 0 0 0 0 0 0 0 0 0 0 0 0 0 9 9 0 0 0 9 0 0 0 0 0 0 0 0 0 0 0 0 9 10 9 10 11 12 11 14 12 14 11 10 10 11 10 9 0 0 0 0 0 0 0 0 0 0 0 0 0 0 9 9 14 12 12 12 12 11 11 11 11 0 0 0 10 0 0 0 0 9 0 8 9 -193 0 0 0 0 0 0 9 0 9 9 10 10 10 10 10 0 9 0 0 0 0 0 -193 -193 -193 0 9 9 9 11 10 11 11 11 11 12 12 11 10 10 10 10 11 10 9 12 11 12 13 13 13 11 12 12 9 9 9 9 0 10 10 10 9 9 9 9 0 9 0 0 0 10 10 10 10 10 11 11 10 10 12 12 13 12 12 11 12 14 11 10 12 10 11 13 13 13 12 19 17 17 17 17 16 16 18 18 15 18 16 20 21 19 20 20 18 18 18 18 16 17 19 17 12 26 30 27 27 24 14 14 14 19 18 18 19 19 18 23 23 23 24 25 26 25 26 26 26 27 29 27 27 28 29 30 30 31 30 28 34 31 32 32 33 34 36 34 35 33 36 36 37 36 39 36 0 0 0 0 0
    0 0 0 0 0 0 0 0 0 0 0 0 0 0 0 0 0 0 0 0 0 0 0 0 0 0 0 0 0 0 0 0 0 0 0 0 0 0 0 0 0 0 0 0 0 0 0 0 0 0 0 0 0 0 0 0 0 0 0 0 0 0 0 0 0 0 0 0 0 0 0 0 0 0 0 0 0 0 0 0 0 0 0 0 0 0 0 9 10 9 10 10 11 11 14 12 13 11 10 10 10 10 10 0 0 0 0 0 0 0 0 0 0 0 0 0 9 10 10 14 12 12 12 11 11 11 11 10 0 0 0 11 9 9 9 9 9 9 9 10 -193 0 0 0 0 0 0 9 0 9 9 10 10 10 10 9 0 0 0 0 0 0 -193 -193 -193 -193 -193 -193 -209 9 10 9 11 11 10 10 12 12 -193 -193 9 10 10 10 9 9 12 11 12 13 13 13 12 12 13 9 10 10 9 0 10 10 9 9 0 0 9 0 9 0 0 0 11 10 10 11 10 11 11 10 10 12 12 13 11 12 11 12 15 12 11 12 11 12 14 14 13 12 18 16 16 16 17 16 16 17 18 14 18 16 21 20 19 19 20 18 18 18 18 16 17 19 18 11 26 29 27 28 24 14 14 14 19 17 18 19 18 18 22 23 23 23 26 27 27 26 27 27 28 29 27 27 30 30 32 31 32 31 30 35 31 32 33 32 34 35 34 34 32 35 37 37 39 39 38 0 0 0 0 0
    0 0 0 0 0 0 0 0 0 0 0 0 0 0 0 0 0 0 0 0 0 0 0 0 0 0 0 0 0 0 0 0 0 0 0 0 0 0 0 0 0 0 0 0 0 0 0 0 0 0 0 0 0 0 0 0 0 0 0 0 0 0 0 0 0 0 0 0 0 0 0 0 0 0 0 0 0 0 0 0 0 0 0 0 0 0 0 9 9 0 9 10 10 10 14 12 14 11 11 10 11 10 10 0 0 0 0 0 0 0 0 0 0 0 0 0 11 12 10 15 13 13 11 11 11 10 11 10 0 0 0 12 10 10 10 9 10 10 10 11 -193 9 0 0 0 0 0 10 -193 10 10 11 10 10 11 -193 0 0 0 0 0 0 -209 -193 -193 -193 -193 -193 -193 -193 -193 -193 10 -193 -209 -209 11 11 -193 131 -193 -193 -193 10 -193 9 12 11 12 13 13 14 12 13 13 10 12 12 10 10 10 11 10 9 9 0 9 0 10 0 0 0 11 11 10 11 11 11 11 10 10 12 12 13 11 12 12 12 15 12 11 13 12 13 15 15 14 12 18 15 16 16 17 15 16 17 17 14 17 16 20 19 17 18 20 17 17 17 17 15 17 19 18 10 25 30 29 30 24 14 14 14 19 17 17 18 18 17 22 23 23 22 26 27 27 27 27 27 28 29 28 27 30 31 32 31 32 31 30 35 31 32 33 32 33 35 34 35 34 36 38 38 39 40 38 0 0 0 0 0
    0 0 0 0 0 0 0 0 0 0 0 0 0 0 0 0 0 0 0 0 0 0 0 0 0 0 0 0 0 0 0 0 0 0 0 0 0 0 0 0 0 0 0 0 0 0 0 0 0 0 0 0 0 0 0 0 0 0 0 0 0 0 0 0 0 0 0 0 0 0 0 0 0 0 0 0 0 0 0 0 0 0 0 0 0 0 0 9 9 0 9 9 10 10 14 12 14 12 11 10 11 10 10 0 0 0 0 0 0 0 0 0 0 0 0 0 12 12 10 14 12 12 10 10 11 10 11 10 0 0 0 12 9 9 10 9 10 9 10 11 0 9 0 0 0 0 0 10 -193 -193 -193 11 -193 10 11 -193 -177 -177 -177 -193 -193 -193 134 128 130 129 130 130 130 131 -193 129 -193 -209 -209 -209 -193 -193 -193 130 131 131 -193 -193 -193 -209 13 11 12 13 13 14 12 13 14 10 13 13 11 11 11 12 11 10 9 0 0 0 9 0 0 0 11 11 10 12 11 11 11 11 11 13 12 13 11 12 12 12 16 13 12 13 12 14 15 15 14 12 18 15 15 16 16 15 15 17 18 14 18 18 20 18 17 18 20 17 17 17 17 15 17 19 18 10 25 30 29 29 24 14 14 14 19 17 17 18 18 17 22 22 23 22 26 26 27 27 27 27 28 29 28 27 29 30 30 30 31 30 29 33 31 32 33 31 32 34 35 36 35 37 38 38 39 39 39 0 0 0 0 0
    0 0 0 0 0 0 0 0 0 0 0 0 0 0 0 0 0 0 0 0 0 0 0 0 0 0 0 0 0 0 0 0 0 0 0 0 0 0 0 0 0 0 0 0 0 0 0 0 0 0 0 0 0 0 0 0 0 0 0 0 0 0 0 0 0 0 0 0 0 0 0 0 0 0 0 0 0 0 0 0 0 0 0 0 0 0 0 0 9 9 9 9 9 9 14 12 14 12 11 10 11 10 10 0 0 0 0 0 0 0 0 0 0 0 0 9 13 11 10 14 11 11 10 10 10 10 11 10 0 0 0 12 9 9 9 9 9 9 10 11 0 9 0 0 0 0 0 10 126 -193 -193 11 -193 10 -193 132 -177 -177 -177 -193 -193 -193 134 128 130 129 130 130 130 131 132 129 -209 -209 -193 -193 -193 -209 -193 130 131 130 130 -193 -193 -209 12 11 13 13 13 14 12 13 14 10 14 13 11 12 11 13 12 11 10 9 0 0 0 0 0 0 11 11 10 13 11 12 12 11 11 13 12 13 11 12 12 12 16 13 12 14 12 14 16 15 15 12 17 15 15 16 16 15 15 16 18 14 18 20 21 19 17 18 20 17 17 16 16 15 17 19 18 10 25 29 27 27 24 14 14 14 18 16 16 18 17 16 22 22 23 22 25 26 27 28 28 28 28 29 28 27 29 30 30 30 31 30 30 34 32 32 34 32 32 34 35 35 35 37 37 38 39 39 39 0 0 0 0 0
    0 0 0 0 0 0 0 0 0 0 0 0 0 0 0 0 0 0 0 0 0 0 0 0 0 0 0 0 0 0 0 0 0 0 0 0 0 0 0 0 0 0 0 0 0 0 0 0 0 0 0 0 0 0 0 0 0 0 0 0 0 0 0 0 0 0 0 0 0 0 0 0 0 0 0 0 0 0 0 0 0 0 0 0 0 0 0 0 8 0 9 9 9 9 14 12 14 12 11 10 11 10 10 0 0 0 0 0 0 0 0 0 0 0 0 10 13 11 10 14 11 11 10 10 10 10 11 10 0 0 0 12 9 9 10 9 9 9 10 10 0 0 0 0 -193 0 0 10 -177 -193 -193 11 -193 10 -193 132 -177 -193 -177 -193 -193 -193 134 128 130 129 130 130 131 131 132 129 -209 -209 -177 -193 -193 -209 -193 129 -193 130 130 -193 -193 -209 12 12 13 14 13 14 12 13 14 10 13 13 11 11 10 11 11 10 9 0 0 0 0 0 0 0 12 11 11 13 12 12 12 12 12 13 12 13 11 12 12 12 15 13 12 14 13 15 16 16 15 13 17 14 14 15 15 14 14 16 18 13 19 21 21 18 16 17 20 16 16 16 16 15 17 19 18 10 23 25 23 23 23 14 15 14 18 17 17 17 17 16 22 22 23 22 25 26 27 28 28 29 29 30 29 28 29 29 29 30 30 30 29 33 32 32 34 32 32 33 35 34 35 36 37 37 39 39 38 0 0 0 0 0
    0 0 0 0 0 0 0 0 0 0 0 0 0 0 0 0 0 0 0 0 0 0 0 0 0 0 0 0 0 0 0 0 0 0 0 0 0 0 0 0 0 0 0 0 0 0 0 0 0 0 0 0 0 0 0 0 0 0 0 0 0 0 0 0 0 0 0 0 0 0 0 0 0 0 0 0 0 9 0 0 0 0 0 0 0 0 0 9 9 0 9 0 0 0 14 12 14 12 11 10 11 11 10 0 0 0 0 0 0 0 0 0 0 0 0 10 13 11 10 13 11 11 10 10 10 9 10 10 0 0 0 11 10 10 10 10 10 9 9 10 0 0 0 0 0 0 0 10 -193 -193 -193 11 10 10 -193 131 -177 -177 -177 -193 -193 -193 133 127 130 129 130 130 131 131 133 129 -209 -209 -193 -209 -193 -193 -193 -193 -209 130 -209 -209 -209 -209 12 11 13 14 13 -193 13 13 14 10 13 13 12 12 10 10 11 10 10 0 0 0 0 0 0 0 12 11 11 13 12 12 12 12 12 13 12 13 11 12 12 12 15 13 12 14 13 15 16 16 15 13 17 14 14 14 15 14 14 15 17 12 17 21 20 16 15 16 20 16 16 16 15 14 17 18 18 10 22 23 21 22 23 15 15 14 18 18 17 18 17 16 22 22 23 23 26 27 28 29 29 29 29 30 29 27 29 29 29 29 29 30 29 33 31 31 33 31 31 32 34 34 34 35 36 37 39 39 39 0 0 0 0 0
    0 0 0 0 0 0 0 0 0 0 0 0 0 0 0 0 0 0 0 0 0 0 0 0 0 0 0 0 0 0 0 0 0 0 0 0 0 0 0 0 0 0 0 0 0 0 0 0 0 0 0 0 0 0 0 0 0 0 0 0 0 0 0 0 0 0 0 0 0 0 0 0 0 0 0 0 0 11 0 0 -193 9 9 9 0 0 0 9 9 0 0 0 0 0 13 12 14 12 11 10 11 11 10 0 0 0 0 0 0 0 0 0 0 0 0 11 12 10 10 11 10 10 9 9 9 9 9 9 0 0 0 10 9 10 10 10 10 10 10 10 0 0 0 0 0 0 0 9 -193 11 11 12 11 10 -193 -193 -177 -177 -177 -177 -193 -193 133 127 130 130 130 131 131 132 -193 130 -193 -193 -193 -209 -193 10 -209 -193 -209 -193 -209 -209 -209 0 12 11 13 13 13 -193 12 13 13 10 13 12 12 12 10 10 11 11 11 10 9 0 0 0 9 0 13 11 11 13 12 12 12 12 12 12 11 12 10 11 11 12 14 13 12 14 14 16 17 17 16 13 17 14 14 14 14 14 13 14 17 11 18 22 21 15 15 15 20 16 15 15 15 14 18 18 18 10 21 22 21 21 22 15 15 15 18 18 17 18 18 16 22 22 23 23 26 27 28 30 29 29 29 29 28 27 29 28 28 29 28 29 29 32 31 31 32 31 31 32 34 34 34 35 36 37 39 39 39 0 0 0 0 0
    0 0 0 0 0 0 0 0 0 0 0 0 0 0 0 0 0 0 0 0 0 0 0 0 0 0 0 0 0 0 0 0 0 0 0 0 0 0 0 0 0 0 0 0 0 0 0 0 0 0 0 0 0 0 0 0 0 0 0 0 0 0 0 0 0 0 0 0 0 0 0 0 0 0 0 0 0 16 0 0 276 10 10 10 10 9 0 10 10 0 0 0 0 0 13 12 14 12 11 10 11 11 10 0 0 0 0 0 0 0 0 0 0 0 0 11 11 9 9 10 9 9 9 0 0 0 9 0 0 0 0 9 9 9 9 9 9 9 9 9 0 0 0 0 0 0 0 9 9 11 10 12 11 10 11 -193 0 -177 -177 -177 -177 0 -193 127 -193 130 131 132 132 133 -193 -193 10 10 -209 -193 -193 10 -209 -193 -193 -193 0 -193 0 0 13 12 13 13 -193 -193 -193 13 13 10 13 12 12 12 10 11 12 12 12 11 10 9 10 9 10 0 15 12 11 13 12 12 12 12 12 11 11 12 10 11 11 11 14 13 13 14 14 16 17 18 17 14 18 14 14 14 14 14 13 14 17 11 19 23 21 15 15 15 20 15 15 15 14 14 18 17 18 10 21 21 20 21 22 15 15 15 18 18 18 18 18 16 23 23 24 23 26 27 29 30 29 29 28 29 28 27 28 28 27 29 28 29 28 31 30 31 31 30 30 31 34 34 34 35 35 36 39 38 39 0 0 0 0 0
    0 0 0 0 0 0 0 0 0 0 0 0 0 0 0 0 0 0 0 0 0 0 0 0 0 0 0 0 0 0 0 0 0 0 0 0 0 0 0 0 0 0 0 0 0 0 0 0 0 0 0 0 0 0 0 0 0 0 0 0 0 0 0 0 0 0 0 0 0 0 10 11 11 10 10 9 10 21 9 -193 277 11 11 11 11 10 0 10 10 0 0 0 0 0 12 12 13 11 10 10 10 11 10 0 0 0 0 0 0 0 0 0 0 0 0 11 12 9 9 9 0 0 0 0 0 0 0 0 0 0 0 0 0 9 9 9 9 9 9 9 0 0 0 0 0 0 0 10 9 11 11 12 11 10 10 0 0 0 0 0 0 0 0 -193 -193 -193 -193 -193 -193 -193 11 9 9 9 9 0 9 9 0 0 0 0 0 9 0 0 14 12 13 13 -193 -193 -193 13 13 10 14 13 13 13 11 11 12 13 13 11 11 10 10 10 10 0 15 12 11 13 12 12 12 12 12 11 11 11 10 10 10 10 13 13 14 14 15 16 18 18 17 14 18 14 15 15 15 14 13 14 17 11 24 23 20 15 15 15 20 15 15 15 14 14 18 17 18 11 21 20 20 20 21 15 15 15 18 19 18 18 18 16 23 23 24 24 26 27 29 31 29 29 28 29 28 26 27 27 27 29 28 29 28 31 30 31 31 29 31 31 33 34 34 34 34 35 38 37 38 0 0 0 0 0
    0 0 0 0 0 0 0 0 0 0 0 0 0 0 0 0 0 0 0 0 0 0 0 0 0 0 0 0 0 0 0 0 0 0 0 0 0 0 0 0 0 0 0 0 0 0 0 0 0 0 0 0 0 0 0 0 0 0 0 0 0 0 0 0 0 0 0 0 0 0 11 14 13 12 13 11 11 21 12 10 13 12 11 12 11 11 0 10 10 0 0 0 0 0 12 12 13 11 10 10 10 10 9 0 0 0 0 0 0 0 0 0 0 0 0 11 11 9 9 9 0 0 0 0 0 0 0 0 0 0 0 0 0 0 0 0 0 0 8 0 9 9 0 0 0 0 9 11 11 11 12 12 10 10 10 0 0 0 0 0 0 0 9 9 11 13 -193 -193 11 10 11 9 0 9 0 0 0 0 0 0 0 0 0 10 0 0 15 12 13 13 12 -193 -193 12 13 10 13 12 12 12 11 11 12 13 13 11 11 10 10 10 10 0 15 11 11 13 12 13 12 12 12 11 11 11 10 10 10 10 12 13 13 14 15 16 18 19 17 14 18 14 15 15 14 14 13 15 18 11 24 23 19 15 15 15 20 15 15 15 14 14 18 17 18 11 21 20 20 19 21 15 15 15 17 19 18 18 18 16 23 24 24 24 25 27 29 31 29 29 28 29 28 26 27 26 27 28 27 28 27 30 29 30 31 29 31 31 32 33 34 33 32 33 35 34 36 0 0 0 0 0
    0 0 0 0 0 0 0 0 0 0 0 0 0 0 0 0 0 0 0 0 0 0 0 0 0 0 0 0 0 0 0 0 0 0 0 0 0 0 0 0 0 0 0 0 0 0 0 0 0 0 0 0 0 0 0 0 0 0 0 0 0 0 0 0 0 0 0 0 0 0 13 18 17 16 18 15 13 22 14 11 14 12 12 12 11 11 0 10 11 0 0 0 0 10 13 13 12 10 9 9 9 9 0 0 0 9 0 0 0 0 0 0 9 0 0 11 11 9 9 9 0 0 0 0 0 0 0 0 0 0 0 0 0 0 0 0 0 0 0 0 9 10 0 0 0 0 0 10 9 10 10 10 9 9 9 0 0 0 0 0 0 9 13 15 14 18 14 10 10 9 9 0 0 0 0 0 0 0 0 0 0 0 0 11 0 0 16 12 13 12 12 -193 -193 12 13 10 12 11 11 11 11 11 12 12 12 11 10 10 10 9 9 0 14 11 11 12 12 14 13 13 13 10 11 11 10 10 9 9 11 13 13 13 16 17 19 20 18 15 19 15 15 15 14 14 13 15 17 11 23 22 19 15 15 15 20 15 15 15 14 15 18 18 18 11 20 20 19 19 21 15 16 15 17 20 18 18 18 16 24 23 24 24 24 27 28 31 28 28 28 29 28 26 27 27 26 27 27 28 27 29 29 30 30 29 31 30 31 32 33 32 30 31 34 33 36 0 0 0 0 0
    0 0 0 0 0 0 0 0 0 0 0 0 0 0 0 0 0 0 0 0 0 0 0 0 0 0 0 0 0 0 0 0 0 0 0 0 0 0 0 0 0 0 0 0 0 0 0 0 0 0 0 0 0 0 0 0 0 0 0 0 0 0 0 0 0 0 0 0 0 10 17 20 20 19 20 18 15 22 15 12 15 13 12 12 12 11 0 10 11 0 0 0 9 11 13 14 12 10 9 0 0 9 0 0 0 9 0 0 0 0 0 0 9 0 0 11 11 9 9 9 8 0 0 0 0 0 0 0 0 0 0 0 0 0 0 0 0 0 0 0 10 11 0 0 0 0 0 0 0 0 9 0 0 0 0 0 0 0 0 0 9 13 17 -193 19 21 14 0 0 0 0 0 0 0 0 0 0 0 0 0 0 0 0 12 0 0 16 12 13 13 12 -193 11 12 13 9 11 11 10 10 10 10 11 11 11 10 10 10 10 10 10 0 15 11 11 12 12 15 13 13 13 10 11 10 10 9 0 0 11 12 13 14 17 17 19 21 18 15 19 15 15 14 14 14 13 15 18 11 22 22 19 15 15 15 20 15 15 15 14 15 18 17 18 11 20 19 19 19 21 16 16 15 17 20 19 19 19 16 24 24 25 24 23 26 28 30 28 29 28 29 27 26 27 27 27 27 27 28 26 28 28 29 28 28 30 30 30 31 32 31 30 30 33 31 34 0 0 0 0 0
    0 0 0 0 0 0 0 0 0 0 0 0 0 0 0 0 0 0 0 0 0 0 0 0 0 0 0 0 0 0 0 0 0 0 0 0 0 0 0 0 0 0 0 0 0 0 0 0 0 0 0 0 0 0 0 0 0 0 0 0 0 0 0 0 0 0 0 0 0 14 20 22 22 22 22 22 17 23 16 13 16 14 13 13 13 12 9 10 11 0 9 9 9 11 12 13 10 0 0 0 0 8 0 0 0 9 0 0 0 0 0 0 9 0 0 11 12 9 9 9 9 0 0 0 0 0 0 0 0 0 0 0 0 0 0 0 0 0 0 0 10 12 0 0 0 0 0 0 0 0 9 0 0 0 0 0 0 0 0 0 9 13 15 -193 -209 17 10 0 0 0 0 0 0 0 0 0 0 0 0 0 0 0 0 12 0 0 16 12 12 13 12 -193 11 12 13 9 11 11 10 9 9 9 10 10 10 10 9 10 10 10 10 0 15 11 11 11 12 15 13 13 13 10 11 10 10 9 0 0 13 12 13 14 18 17 19 21 18 15 20 16 16 15 15 14 13 16 18 11 23 23 20 16 16 15 20 15 15 15 14 15 18 17 18 11 20 18 18 18 20 16 16 15 18 20 19 19 19 16 24 24 25 25 24 27 28 30 29 29 28 28 27 26 26 27 27 27 26 27 26 27 27 28 28 28 29 29 29 31 32 31 30 30 32 30 33 0 0 0 0 0
    0 0 0 0 0 0 0 0 0 0 0 0 0 0 0 0 0 0 0 0 0 0 0 0 0 0 0 0 0 0 0 0 0 0 0 0 0 0 0 0 0 0 0 0 0 0 0 0 0 0 0 0 0 0 0 0 0 0 0 0 0 0 0 0 0 0 0 0 0 14 20 22 21 22 23 23 18 23 17 14 17 14 14 14 13 13 9 10 11 0 9 10 10 12 12 12 9 0 0 0 0 0 0 0 0 9 0 0 0 0 0 9 9 0 0 11 12 9 9 9 0 0 0 0 0 0 0 0 0 0 0 0 0 0 0 0 9 0 9 0 11 12 0 0 0 0 0 9 0 0 9 0 0 0 0 0 0 0 0 0 9 15 16 -193 -209 16 11 0 0 0 0 0 -193 -193 0 0 0 0 0 0 0 0 0 12 0 0 16 12 12 13 12 -193 11 12 13 10 11 11 9 9 9 10 10 10 10 9 9 10 10 9 9 0 15 11 11 11 12 16 13 13 13 10 11 11 11 10 0 0 14 13 13 14 17 17 19 21 18 14 20 16 15 15 15 14 14 17 19 12 24 24 20 16 16 15 20 15 15 15 14 15 17 17 18 11 20 18 18 18 20 16 16 15 18 20 19 19 19 16 24 24 25 25 23 27 28 29 28 28 28 28 27 26 26 28 27 27 27 28 26 27 27 28 27 27 29 29 29 31 32 31 30 30 32 30 34 0 0 0 0 0
    0 0 0 0 0 0 0 0 0 0 0 0 0 0 0 0 0 0 0 0 0 0 0 0 0 0 0 0 0 0 0 0 0 0 0 0 0 0 0 0 0 0 0 0 0 0 0 0 0 0 0 0 0 0 0 0 0 0 0 0 0 0 0 0 0 0 0 0 0 15 20 21 20 21 23 24 18 23 17 15 18 15 14 14 14 14 10 11 13 9 10 13 12 13 11 10 0 0 0 0 0 0 0 0 0 9 0 0 0 0 0 9 9 0 0 10 12 9 0 9 0 0 0 0 0 0 0 0 0 0 0 0 0 0 0 -193 9 0 9 9 11 14 0 0 0 0 0 10 0 0 9 0 0 0 0 0 0 0 0 0 9 13 15 19 -193 15 11 0 0 0 -193 -193 -193 -193 -193 -193 -193 -193 0 0 0 0 0 12 0 0 -177 12 12 13 12 12 11 12 13 9 10 10 9 9 9 10 10 10 9 9 9 10 11 10 9 0 16 11 11 11 12 16 13 13 13 11 12 11 11 10 0 9 16 13 13 14 16 17 19 21 17 13 20 16 16 15 16 15 14 18 19 12 24 23 20 15 15 15 20 15 15 15 14 15 17 17 18 11 20 18 18 18 20 16 16 15 18 20 19 19 19 16 24 24 25 25 23 27 27 28 28 28 28 28 27 26 26 29 28 27 27 28 26 27 27 28 27 27 29 29 28 31 32 31 30 29 33 31 34 0 0 0 0 0
    0 0 0 0 0 0 0 0 0 0 0 0 0 0 0 0 0 0 0 0 0 0 0 0 0 0 0 0 0 0 0 0 0 0 0 0 0 0 0 0 0 0 0 0 0 0 0 0 0 0 0 0 0 0 0 0 0 0 0 0 0 0 0 0 0 0 0 0 0 15 19 20 20 21 24 25 19 23 17 15 18 15 14 14 14 14 10 12 14 9 11 15 13 14 10 9 0 0 0 0 0 0 0 0 0 9 0 0 0 0 0 9 10 9 0 11 13 10 0 9 0 0 0 0 0 0 0 0 0 0 0 0 0 0 0 -193 9 0 9 8 12 14 0 0 0 0 0 10 0 0 9 0 0 0 0 0 0 0 0 0 0 12 14 17 16 13 10 0 0 0 -193 -193 -193 -193 -193 -193 -193 -193 0 0 0 0 0 12 0 0 -177 12 12 13 12 12 11 12 13 9 10 10 9 0 9 10 10 10 9 9 0 9 10 9 0 -177 17 11 11 12 12 16 13 13 13 12 12 12 12 11 10 10 17 14 13 14 16 17 19 21 17 13 20 16 16 15 16 14 14 18 19 12 23 23 20 15 15 14 19 15 15 15 14 15 17 17 17 11 19 17 17 17 20 16 16 16 18 20 19 19 19 16 24 24 25 25 24 28 29 29 30 29 29 28 27 27 26 30 28 27 27 28 26 27 27 28 26 27 28 28 27 30 32 31 30 29 33 31 34 0 0 0 0 0
    0 0 0 0 0 0 0 0 0 0 0 0 0 0 0 0 0 0 0 0 0 0 0 0 0 0 0 0 0 0 0 0 0 0 0 0 0 0 0 0 0 0 0 0 0 0 0 0 0 0 0 0 0 0 0 0 0 0 0 0 0 0 0 0 0 0 0 0 0 14 17 18 17 20 23 24 18 23 17 15 18 15 14 14 14 14 10 12 14 10 11 15 12 13 0 0 0 0 0 0 0 0 0 0 0 0 0 0 0 0 0 9 11 10 0 12 16 11 9 10 0 0 0 0 0 0 0 0 0 0 0 0 0 0 0 -193 -193 0 0 0 12 14 0 0 0 0 0 11 0 -177 -177 -177 -177 -177 0 0 0 0 0 0 0 11 15 18 16 12 9 0 0 0 -193 -193 371 372 372 372 373 -193 -193 0 0 0 0 11 0 0 -177 12 12 13 12 11 10 12 13 9 10 10 0 0 9 9 10 9 9 9 0 0 0 0 0 0 16 11 11 12 13 16 13 13 13 13 13 13 12 12 10 12 18 14 13 14 15 17 19 20 16 12 20 16 16 15 15 14 14 18 19 12 23 22 20 14 14 14 19 14 14 15 14 15 17 17 17 11 18 17 17 18 20 17 17 16 19 20 19 19 19 17 23 23 24 24 22 28 30 30 32 31 29 29 27 27 27 32 28 27 26 28 26 26 26 27 26 27 28 28 27 30 32 30 30 29 33 31 33 0 0 0 0 0
    0 0 0 0 0 0 0 0 0 0 0 0 0 0 0 0 0 0 0 0 0 0 0 0 0 0 0 0 0 0 0 0 0 0 0 0 0 0 0 0 0 0 0 0 0 0 0 0 0 0 0 0 0 0 0 0 0 0 0 0 0 0 0 0 0 0 0 0 0 12 14 14 13 18 22 23 18 23 17 15 18 15 14 15 15 15 11 13 14 10 12 14 12 13 0 0 0 0 0 0 0 0 0 0 0 9 0 0 0 0 0 10 10 10 9 12 17 12 10 10 9 0 0 0 0 0 0 0 0 0 0 0 0 0 0 -193 -193 0 0 0 12 15 0 0 0 0 0 10 0 -177 -177 -177 -177 0 0 0 0 0 0 0 0 12 16 18 18 12 9 0 0 0 -193 -193 370 371 371 372 -193 -193 0 0 8 0 0 10 0 0 -193 12 12 13 12 11 10 12 12 9 9 -193 0 0 9 9 9 9 0 9 0 0 0 0 0 0 15 11 11 12 12 16 13 13 13 13 13 14 13 12 11 13 18 15 13 16 16 18 20 20 16 12 20 16 15 14 15 14 14 19 19 12 23 22 20 14 14 13 19 14 14 14 14 15 17 17 17 11 19 18 18 18 20 17 18 17 20 21 19 19 20 18 23 23 24 23 21 28 30 29 33 34 31 29 28 28 27 33 28 26 26 28 26 26 26 27 -193 27 28 28 27 30 33 31 30 29 34 31 33 0 0 0 0 0
    0 0 0 0 0 0 0 0 0 0 0 0 0 0 0 0 0 0 0 0 0 0 0 0 0 0 0 0 0 0 0 0 0 0 0 0 0 0 0 0 0 0 0 0 0 0 0 0 0 0 0 0 0 0 0 0 0 0 0 0 0 0 0 0 0 0 0 0 0 11 12 12 10 16 20 22 16 23 16 15 18 15 15 15 15 15 11 14 15 11 12 14 12 12 0 0 0 0 0 0 0 0 0 0 0 9 0 -193 0 0 0 9 10 9 0 12 17 13 11 10 9 9 9 9 9 0 0 0 0 0 0 0 0 0 0 -177 -193 0 0 0 12 15 0 0 0 0 0 9 0 0 0 0 0 0 0 0 0 0 0 0 0 12 16 17 18 11 9 0 0 10 -193 -193 -193 -193 -193 -193 -193 -193 0 0 9 9 9 10 0 0 -193 12 12 13 12 10 10 11 12 9 0 -193 0 0 9 9 9 9 0 9 0 0 0 0 0 0 14 11 11 11 12 17 13 13 13 14 13 15 13 13 11 14 18 15 14 17 18 20 20 21 17 14 21 16 15 15 16 15 15 19 20 13 24 23 20 14 14 13 19 15 15 14 14 14 17 17 17 10 17 16 19 19 21 18 18 17 20 21 19 19 19 17 21 22 23 22 20 27 30 30 34 35 33 30 28 28 27 34 28 26 25 28 26 -193 -193 27 -193 27 28 29 27 31 34 31 31 29 34 32 32 0 0 0 0 0
    0 0 0 0 0 0 0 0 0 0 0 0 0 0 0 0 0 0 0 0 0 0 0 0 0 0 0 0 0 0 0 0 0 0 0 0 0 0 0 0 0 0 0 0 0 0 0 0 0 0 0 0 0 0 0 0 0 0 0 0 0 0 0 0 0 0 0 0 0 9 10 10 0 12 12 15 13 23 16 15 19 15 15 16 16 16 12 15 16 12 13 14 12 12 0 0 0 0 0 0 0 0 0 0 0 0 0 0 0 0 0 9 9 9 0 11 16 12 10 9 9 0 9 9 9 0 0 0 0 0 0 0 0 0 0 -193 0 0 0 0 11 14 0 0 0 0 0 9 0 0 0 0 0 0 0 0 0 0 0 0 0 11 16 16 18 10 0 0 0 10 0 0 0 0 0 0 0 0 0 0 9 0 9 8 0 0 -193 12 12 13 12 10 10 11 12 9 0 -193 0 0 9 9 10 9 8 10 9 9 0 0 0 0 14 10 11 11 12 17 14 13 13 15 14 15 13 13 12 16 18 16 15 19 19 21 21 21 18 15 21 16 15 14 16 15 15 19 20 14 24 23 21 15 15 13 19 15 15 15 14 14 17 17 18 10 18 17 20 20 21 19 17 17 19 20 18 18 19 17 21 23 25 25 25 29 31 30 34 35 34 31 28 28 29 33 28 26 26 28 26 26 -193 -193 -193 -193 29 30 28 32 35 32 31 30 34 32 30 0 0 0 0 0
    0 0 0 0 0 0 0 0 0 0 0 0 0 0 0 0 0 0 0 0 0 0 0 0 0 0 0 0 0 0 0 0 0 0 0 0 0 0 0 0 0 0 0 0 0 0 0 0 0 0 0 0 0 0 0 0 0 0 0 0 0 0 0 0 0 0 0 0 0 0 0 8 0 10 9 10 -177 23 15 15 19 15 16 16 17 17 13 16 17 12 15 16 13 12 0 0 0 0 0 0 0 0 0 0 0 0 0 0 0 0 -193 0 9 0 0 11 16 12 10 0 0 0 0 9 0 0 0 0 0 0 0 0 0 0 0 -193 0 0 0 0 11 14 9 0 0 9 9 10 9 0 0 0 0 0 0 0 0 0 0 0 0 0 9 10 13 0 0 0 0 0 0 0 0 0 0 0 0 0 0 0 0 0 0 0 0 0 -193 12 12 13 12 10 10 11 12 0 0 0 0 0 9 10 10 9 9 11 10 10 0 0 0 0 14 10 10 10 11 16 13 13 13 15 14 15 13 13 13 17 19 18 17 20 20 22 22 21 17 16 21 16 15 15 16 15 16 19 20 14 24 24 22 16 17 15 21 16 16 15 15 15 19 19 19 11 23 20 23 23 22 20 18 17 19 19 17 18 19 18 21 24 25 25 26 29 32 29 33 35 35 33 31 31 31 34 29 27 26 28 27 27 28 28 26 -193 -193 31 29 33 36 33 32 31 35 32 30 0 0 0 0 0
    0 0 0 0 0 0 0 0 0 0 0 0 0 0 0 0 0 0 0 0 0 0 0 0 0 0 0 0 0 0 0 0 0 0 0 0 0 0 0 0 0 0 0 0 0 0 0 0 0 0 0 0 0 0 0 0 0 0 0 0 0 0 0 0 0 0 0 0 0 0 0 0 0 9 0 0 -177 22 14 15 19 15 15 16 16 17 13 17 18 13 17 18 14 14 -193 -193 0 0 0 0 0 0 0 0 0 -193 0 0 0 0 -193 0 0 0 0 11 15 12 10 0 0 0 0 0 0 0 0 0 0 0 0 0 0 0 0 -193 0 0 0 0 11 17 10 10 11 11 11 11 10 9 0 0 0 0 0 0 0 0 0 0 0 0 0 0 10 0 0 0 0 0 0 0 0 0 9 0 0 0 0 0 0 0 9 0 0 0 -177 12 12 13 12 10 10 11 12 0 0 0 0 0 9 10 10 9 10 12 13 11 0 9 0 0 15 10 9 10 11 15 13 12 12 14 13 15 13 14 14 18 19 19 18 21 21 23 22 21 18 17 20 16 15 14 16 15 15 19 19 13 23 24 22 17 18 17 -193 18 18 17 16 17 20 21 20 12 25 -193 32 26 24 22 18 17 19 19 16 18 19 19 19 24 26 25 26 30 34 29 34 37 37 35 34 34 34 35 30 27 26 27 27 26 28 28 27 -193 32 33 30 34 37 34 33 32 35 33 30 0 0 0 0 0
    0 0 0 0 0 0 0 0 0 0 0 0 0 0 0 0 0 0 0 0 0 0 0 0 0 0 0 0 0 0 0 0 0 0 0 0 0 0 0 0 0 0 0 0 0 0 0 0 0 0 0 0 0 0 0 0 0 0 0 0 0 0 0 0 0 0 0 0 0 0 0 0 0 0 0 0 -177 22 15 15 19 15 16 16 17 17 13 17 18 13 17 17 15 14 -193 -193 -193 0 0 0 0 0 0 0 0 -193 0 0 0 0 -193 0 9 0 0 11 15 12 10 0 0 0 0 0 0 0 0 0 0 0 0 0 0 0 0 -193 -193 0 0 0 11 20 12 16 18 18 15 13 11 9 9 0 0 0 0 0 0 0 0 0 0 0 0 0 0 0 0 0 0 0 0 0 0 0 9 9 0 9 0 0 0 0 9 -193 0 0 -193 12 13 13 12 10 10 11 11 0 0 0 0 0 0 10 10 9 -193 14 17 14 10 9 0 0 -177 10 9 10 10 14 12 12 12 14 13 14 13 14 15 19 20 20 19 22 22 23 23 22 18 18 20 16 15 15 16 15 15 18 18 12 22 23 21 16 18 19 -193 19 19 19 18 19 -193 -193 -193 -193 26 33 34 28 28 24 18 16 18 19 15 16 19 19 18 25 27 26 26 30 35 31 35 37 37 36 35 35 35 35 30 27 26 27 27 26 27 28 26 29 32 33 31 35 37 34 32 31 35 32 29 0 0 0 0 0
    0 0 0 0 0 0 0 0 0 0 0 0 0 0 0 0 0 0 0 0 0 0 0 0 0 0 0 0 0 0 0 0 0 0 0 0 0 0 0 0 0 0 0 0 0 0 0 0 0 0 0 0 0 0 0 0 0 0 0 0 0 0 0 0 0 0 0 0 0 0 0 0 0 0 0 0 9 22 15 15 19 15 16 16 17 17 13 16 17 13 16 16 14 14 -193 -193 -193 0 0 0 0 0 0 0 -193 -193 -193 0 0 0 -193 0 0 0 8 10 14 12 10 0 0 0 0 0 0 0 0 0 0 0 0 0 0 0 0 -193 -193 0 0 0 12 21 -209 -193 25 30 -209 -209 -209 -209 9 -209 -209 -209 -209 -209 -209 0 -193 -209 0 0 -193 0 0 0 0 0 0 0 0 0 0 0 10 10 0 9 0 0 -193 0 -193 -193 0 0 -193 12 13 14 12 10 10 11 11 0 0 0 0 0 0 9 -193 -209 -209 -193 -209 16 11 9 0 0 -177 11 9 10 10 13 12 11 11 13 13 14 13 14 15 19 20 21 20 22 22 24 23 22 19 19 20 16 15 15 16 15 15 18 18 12 23 24 22 17 20 20 -193 20 20 20 19 20 -193 -193 -193 -193 27 37 34 29 29 24 17 16 17 18 14 15 18 18 17 25 28 27 27 31 36 31 34 37 37 35 34 34 35 34 30 27 26 26 27 26 28 28 27 31 34 35 32 36 37 35 32 32 34 32 29 0 0 0 0 0
    0 0 0 0 0 0 0 0 0 0 0 0 0 0 0 0 0 0 0 0 0 0 0 0 0 0 0 0 0 0 0 0 0 0 0 0 0 0 0 0 0 0 0 0 0 0 0 0 0 0 0 0 0 0 0 0 0 0 0 0 0 0 0 0 0 0 0 0 0 0 0 0 0 0 0 0 10 22 16 15 19 15 16 16 17 16 -193 -193 16 13 15 15 14 14 -193 10 -193 0 0 0 0 0 0 -193 0 -193 -193 0 0 -193 0 0 0 0 0 9 12 11 10 0 0 0 0 0 9 0 0 -193 -193 0 0 0 0 0 0 0 0 0 0 -193 11 -209 -193 -209 31 40 -209 -209 -209 -209 -209 -209 -209 -209 -209 -193 -209 -209 -209 -209 -209 -209 -209 -209 -209 -209 -193 0 0 0 -193 0 0 0 10 9 0 9 -193 -209 -209 -209 -209 -209 0 0 -193 12 13 14 12 11 10 11 12 0 0 0 0 0 0 0 626 -193 707 -209 -209 -209 -209 0 0 0 -177 11 9 11 -193 13 11 -209 -209 11 11 13 12 14 16 20 21 21 21 23 23 24 23 23 19 19 20 16 15 15 17 15 15 19 19 13 24 24 23 18 21 21 -193 21 21 21 20 20 -193 -193 -193 -193 28 -193 36 32 35 27 17 15 16 17 13 14 17 18 16 25 28 27 27 31 37 29 34 38 38 36 36 35 35 33 30 27 26 26 27 27 28 29 28 33 36 37 35 38 38 36 33 33 35 32 29 0 0 0 0 0
    0 0 0 0 0 0 0 0 0 0 0 0 0 0 0 0 0 0 0 0 0 0 0 0 0 0 0 0 0 0 0 0 0 0 0 0 0 0 0 0 0 0 0 0 0 0 0 0 0 0 0 0 0 0 0 0 0 0 0 0 0 0 0 0 0 0 0 0 0 0 0 0 0 9 0 0 11 22 17 -193 -193 15 16 -193 -193 -209 281 -177 -193 -193 -193 -193 -193 -193 -193 11 -209 -193 0 0 0 0 -193 -193 -193 -193 -193 0 0 0 0 0 0 0 0 0 11 10 9 0 0 0 11 -193 9 0 0 -209 -209 0 0 0 0 0 0 0 0 0 0 -209 -209 -209 -209 -209 37 42 -209 -209 -209 -209 -209 -209 -209 -209 -209 -193 -193 -209 -209 172 173 172 169 169 -209 -209 -209 162 160 -193 165 -193 -193 165 166 -209 -209 -209 -209 -209 -209 955 -209 -209 -209 0 -193 12 13 15 13 11 11 11 12 0 0 0 0 0 0 -193 628 632 -209 -209 -209 -209 -193 -209 -209 -209 -209 165 169 171 171 173 -209 -193 -209 -209 10 11 11 14 16 21 21 22 22 24 25 26 25 24 20 21 21 17 15 15 17 16 15 19 20 14 25 27 24 20 22 23 -193 22 22 21 20 21 -193 -193 -193 -193 28 -193 34 31 35 26 14 13 13 14 11 13 14 17 15 26 34 30 30 34 37 29 34 37 38 34 35 -193 -193 31 29 26 26 25 27 27 29 29 29 35 38 39 38 39 39 38 35 35 36 34 29 0 0 0 0 0
    0 0 0 0 0 0 0 0 0 0 0 0 0 0 0 0 0 0 0 0 0 0 0 0 0 0 0 0 0 0 0 0 0 0 0 0 0 0 0 0 0 0 0 0 0 0 0 0 0 0 0 0 0 0 0 0 0 0 0 0 0 0 0 0 0 0 0 0 0 0 0 0 0 9 -193 0 15 23 19 -193 -193 15 -193 -209 -209 -209 281 -193 165 165 -177 161 -193 -193 -209 -209 -209 -209 -209 -193 -193 -209 597 598 -193 -209 -193 0 -193 -193 0 0 0 0 0 0 10 10 -193 0 9 12 -209 -209 -209 -209 -209 -209 -209 -193 0 0 0 0 -209 -209 -209 -193 157 -209 -209 -193 -209 -209 -209 43 -209 -209 -209 -209 -209 -209 -209 -209 -193 -193 -193 171 171 171 172 171 169 170 170 169 167 168 165 167 167 169 166 165 166 167 167 168 -193 -209 -209 -209 -209 -209 -209 -209 -209 -193 14 16 14 12 12 12 12 0 0 0 0 0 -193 -209 -193 -193 -209 -209 -209 -209 -193 -209 -209 158 162 167 169 170 171 172 -193 -193 -193 -209 -209 -193 10 13 18 22 23 24 -209 25 27 27 26 24 21 21 21 17 16 16 18 16 16 20 20 14 -193 -209 -209 21 22 -193 -209 22 -193 -193 19 21 -193 -193 -193 14 -193 -209 26 27 -209 -193 11 12 10 11 0 10 -209 -209 -209 32 41 39 38 39 -209 -209 -193 -209 38 -193 -193 -209 -209 -193 -193 -193 25 24 26 26 28 28 29 36 39 40 39 40 40 39 36 36 36 34 30 0 0 0 0 0
    0 0 0 0 0 0 0 0 0 0 0 0 0 0 0 0 0 0 0 0 0 0 0 0 0 0 0 0 0 0 0 0 0 0 0 0 0 0 0 0 0 0 0 0 0 0 0 0 0 0 0 0 0 0 0 0 0 0 0 0 0 0 0 0 0 0 0 0 0 -209 -209 -209 -193 -209 -209 -209 21 -209 20 -209 -193 -193 -209 -209 -193 -209 -209 163 165 165 161 161 161 161 159 159 161 -193 -193 -209 592 -193 594 596 591 595 -209 -209 -209 -209 0 0 0 0 0 0 16 -209 -209 -209 -209 -209 -209 -209 -209 -209 -209 -193 -193 -209 0 0 -193 -193 -193 -193 -193 158 159 164 -193 597 -209 -209 -209 -209 -209 -209 -209 -193 -193 169 170 171 170 170 171 171 170 170 171 170 168 171 170 170 169 169 168 168 168 170 166 166 166 166 167 168 167 167 164 169 170 -209 -209 -209 -209 -209 -193 17 15 13 13 12 -193 -209 -193 0 0 -209 -209 -209 -209 -209 -209 -209 -209 -209 -209 -209 166 167 166 168 169 170 171 172 174 -193 840 -193 -209 0 0 12 20 23 25 -193 -193 26 28 27 25 24 21 21 21 18 16 16 18 16 15 19 19 -193 -193 -209 -177 -209 -209 -193 -193 -209 -193 19 18 20 -193 23 17 13 22 23 -209 -193 -209 -209 -209 -209 -193 -193 0 10 -209 -193 -209 37 43 42 41 43 -209 -193 -193 -209 -209 -209 -209 170 171 173 175 177 176 -193 -193 -193 -193 -193 -193 -193 -193 -193 -193 -193 -193 -193 36 36 35 34 29 0 0 0 0 0
    0 0 0 0 0 0 0 0 0 0 0 0 0 0 0 0 0 0 0 0 0 0 0 0 0 0 0 0 0 0 0 0 0 0 0 0 0 0 0 0 0 0 0 0 0 0 0 0 0 0 0 0 0 0 0 0 0 0 0 0 0 0 0 0 0 0 0 0 0 -193 -193 -193 -209 -209 -209 -209 -193 161 -193 159 158 160 -193 -193 -193 -193 165 163 165 165 163 163 163 163 162 161 164 164 -193 -209 590 -193 592 594 590 -209 -209 -209 -209 -209 -209 -193 0 0 10 -209 -209 931 934 -193 -209 -209 -209 -209 -193 -209 157 162 165 165 -193 -193 164 163 161 162 161 160 162 165 -209 599 -209 -209 -209 170 171 169 169 169 170 170 170 172 170 170 171 170 170 170 170 170 169 171 170 170 170 170 169 170 169 170 167 166 166 166 167 168 167 167 165 168 170 170 168 168 169 169 169 170 -193 -193 -193 169 168 167 167 -193 -193 166 168 171 172 175 176 174 172 172 -193 169 168 168 167 168 169 170 170 171 173 173 -193 -193 -193 -193 -209 -209 -209 163 -209 -209 -209 26 -193 -193 -193 23 20 20 20 19 17 17 18 15 14 -193 -209 218 -177 -177 -177 -209 -209 944 946 943 -193 15 15 18 -193 21 -209 12 -193 -209 -209 -209 -209 171 170 -193 -193 -209 -209 -209 -209 -209 -209 -193 -193 -193 -193 -209 -209 -193 -209 -193 177 171 171 171 172 174 176 177 177 177 178 177 175 175 174 174 176 -193 -193 -193 -193 -193 -193 -193 35 35 29 0 0 0 0 0
    0 0 0 0 0 0 0 0 0 0 0 0 0 0 0 0 0 0 0 0 0 0 0 0 0 0 0 0 0 0 0 0 0 0 0 0 0 0 0 0 0 0 0 0 0 0 0 0 0 0 0 0 0 0 0 0 0 0 0 0 0 0 0 0 0 0 0 0 0 159 159 163 161 161 162 162 161 162 160 160 159 160 161 161 162 163 164 164 165 165 164 164 164 164 164 163 165 165 165 -193 -177 -177 -177 -193 -193 -209 164 161 162 164 165 165 164 -193 -209 -193 -193 933 -193 -193 -193 -193 -193 156 162 164 163 166 166 166 166 167 165 165 163 164 163 162 163 165 165 -209 -209 168 168 169 169 168 169 168 170 170 171 171 170 170 170 170 170 169 170 169 169 171 171 171 171 172 171 171 170 171 168 167 166 166 167 167 167 166 164 168 169 169 168 169 169 169 169 169 169 168 168 169 168 167 168 169 168 169 170 171 172 174 175 173 171 172 170 169 168 168 167 168 169 169 170 170 171 172 172 172 171 170 170 169 169 167 169 169 170 -209 172 174 174 -193 -193 19 20 19 17 18 18 13 -193 -193 -209 -209 -193 -209 -209 -209 -209 -209 -177 -177 -209 -177 -193 -193 -193 -193 173 -193 -193 171 172 171 172 172 172 172 173 173 174 174 174 173 173 175 176 176 178 178 177 176 177 176 177 172 172 172 172 173 175 175 176 176 177 177 175 175 175 175 176 176 174 176 176 180 180 180 182 182 180 0 0 0 0 0
    0 0 0 0 0 0 0 0 0 0 0 0 0 0 0 0 0 0 0 0 0 0 0 0 0 0 0 0 0 0 0 0 0 0 0 0 0 0 0 0 0 0 0 0 0 0 0 0 0 0 0 0 0 0 0 0 0 0 0 0 0 0 0 0 0 0 0 0 0 162 162 164 163 163 163 163 163 162 160 161 159 160 160 159 160 161 162 163 164 165 164 164 164 165 165 165 166 165 165 166 -193 -193 -193 163 164 164 164 162 163 164 164 164 164 162 162 162 165 -193 159 161 164 164 165 163 164 166 165 167 166 166 166 166 165 165 164 164 164 163 164 165 165 166 167 167 167 167 167 167 168 167 169 170 171 171 170 170 171 170 170 169 169 169 168 170 171 172 172 173 171 172 170 172 168 167 167 167 167 167 167 167 164 167 169 168 168 170 170 169 170 169 169 169 169 169 168 168 168 169 169 171 172 172 172 173 174 172 171 171 170 169 169 168 168 168 169 169 169 170 170 170 171 171 170 170 170 170 170 169 170 169 170 170 171 172 172 172 175 -193 -209 -193 15 16 18 -209 -209 -193 -193 -193 171 172 172 -193 -209 -209 -209 -193 -193 -193 174 174 173 173 173 174 174 171 172 172 172 173 173 173 173 173 174 174 174 173 172 173 174 174 176 175 175 174 176 176 177 174 174 173 174 174 175 175 177 176 176 176 175 175 175 175 176 175 173 176 176 178 178 178 180 180 180 0 0 0 0 0
    0 0 0 0 0 0 0 0 0 0 0 0 0 0 0 0 0 0 0 0 0 0 0 0 0 0 0 0 0 0 0 0 0 0 0 0 0 0 0 0 0 0 0 0 0 0 0 0 0 0 0 0 0 0 0 0 0 0 0 0 0 0 0 0 0 0 0 0 0 164 164 165 164 164 164 164 163 162 160 160 159 160 159 158 159 159 160 162 163 164 163 163 164 165 165 165 165 165 165 166 -193 -193 163 163 163 164 164 163 163 164 164 164 164 161 162 162 163 164 160 161 164 164 165 164 164 165 165 167 166 165 165 166 165 165 164 165 163 163 163 164 163 164 165 165 165 165 166 166 166 166 168 169 170 170 170 170 170 170 170 169 169 169 169 171 171 172 172 173 172 172 171 172 169 168 167 167 167 167 167 168 164 168 169 169 168 170 170 170 170 170 169 169 169 169 168 168 168 169 169 171 171 172 171 172 173 172 171 171 170 170 170 169 169 169 170 169 169 169 169 169 170 170 170 170 170 170 170 169 171 170 170 169 170 171 172 173 175 173 173 171 171 171 172 170 170 169 170 170 171 172 171 171 172 175 172 171 177 174 174 174 173 173 172 174 174 171 172 172 173 174 173 173 173 173 174 173 173 172 172 172 173 173 175 174 174 173 176 176 177 175 175 174 175 175 177 175 177 177 176 176 175 175 175 174 175 174 172 175 174 176 177 177 179 180 180 0 0 0 0 0
    0 0 0 0 0 0 0 0 0 0 0 0 0 0 0 0 0 0 0 0 0 0 0 0 0 0 0 0 0 0 0 0 0 0 0 0 0 0 0 0 0 0 0 0 0 0 0 0 0 0 0 0 0 0 0 0 0 0 0 0 0 0 0 0 0 0 0 0 0 165 165 166 164 164 164 164 163 161 159 160 159 160 159 158 159 159 160 162 162 163 162 162 163 163 164 165 165 165 165 165 -193 -193 163 162 163 164 164 164 164 165 164 164 164 161 162 163 164 164 161 162 164 163 164 164 163 164 164 166 166 165 165 166 165 164 164 164 163 163 164 164 163 164 165 165 165 166 166 166 166 166 167 168 169 170 169 169 170 170 170 169 169 169 169 171 171 172 172 173 172 172 171 172 169 168 168 168 168 168 168 168 165 168 170 169 169 170 170 170 170 170 169 169 169 169 168 168 167 168 168 169 169 170 169 170 171 170 169 170 169 170 170 169 168 169 170 169 169 170 170 170 170 171 170 170 171 170 170 170 172 171 171 170 171 172 173 174 175 173 173 172 172 172 174 171 171 169 170 171 172 172 171 170 172 175 173 171 178 174 174 174 173 173 172 174 174 171 172 172 173 174 173 173 173 173 174 173 173 172 172 173 173 173 175 174 174 173 176 175 176 175 175 174 175 175 177 176 177 177 176 177 176 176 176 174 175 174 172 174 174 175 175 176 180 180 179 0 0 0 0 0
    0 0 0 0 0 0 0 0 0 0 0 0 0 0 0 0 0 0 0 0 0 0 0 0 0 0 0 0 0 0 0 0 0 0 0 0 0 0 0 0 0 0 0 0 0 0 0 0 0 0 0 0 0 0 0 0 0 0 0 0 0 0 0 0 0 0 0 0 0 165 165 165 164 164 163 163 163 161 159 160 158 160 159 159 161 161 162 163 162 163 161 162 163 163 164 165 164 165 165 165 -193 -193 164 163 164 165 165 164 164 165 165 165 164 162 162 163 163 164 161 162 164 163 164 164 162 164 163 166 165 164 164 165 164 164 163 164 163 163 165 165 164 166 166 166 166 166 166 166 166 166 168 169 170 170 169 170 170 170 170 169 169 169 169 171 171 171 172 172 172 172 171 172 169 169 168 168 168 168 168 169 166 168 170 169 170 170 170 170 170 170 170 169 169 169 168 168 168 168 167 169 168 169 168 169 169 169 169 170 169 170 169 169 168 169 170 169 170 170 170 170 171 172 171 171 172 171 172 171 174 173 172 171 172 172 173 174 174 173 172 172 172 172 175 172 171 169 171 172 172 172 171 170 171 175 172 171 178 174 174 174 173 173 172 174 174 171 172 173 173 174 173 173 173 173 174 173 173 172 172 173 173 173 175 174 174 173 176 175 176 175 175 174 175 174 177 176 177 177 176 177 176 176 176 175 175 174 172 175 174 176 176 177 181 181 180 0 0 0 0 0
    0 0 0 0 0 0 0 0 0 0 0 0 0 0 0 0 0 0 0 0 0 0 0 0 0 0 0 0 0 0 0 0 0 0 0 0 0 0 0 0 0 0 0 0 0 0 0 0 0 0 0 0 0 0 0 0 0 0 0 0 0 0 0 0 0 0 0 0 0 165 165 165 164 164 163 164 163 162 159 161 160 162 161 162 163 163 162 164 162 162 161 161 162 162 163 164 164 164 165 166 -193 -193 164 164 164 165 166 165 165 165 165 164 164 162 162 163 163 164 162 162 163 163 163 164 162 164 163 166 165 164 164 165 164 164 164 164 163 163 165 166 163 166 166 166 166 166 166 166 166 166 168 169 170 170 170 170 171 170 170 170 170 169 169 171 170 171 172 172 172 172 170 171 169 169 168 168 168 168 168 169 166 169 170 169 170 169 169 169 170 170 170 169 169 169 169 169 169 168 167 168 168 169 169 170 169 -193 169 -193 169 170 169 168 167 169 171 169 170 170 171 170 171 172 171 171 173 172 173 172 174 173 172 172 172 172 173 173 173 173 172 172 172 173 177 174 172 170 171 172 172 172 171 170 171 175 172 171 177 174 174 174 173 173 172 174 174 171 172 173 173 174 174 174 173 173 174 173 173 172 172 173 173 173 174 173 174 173 176 175 176 175 175 174 175 174 177 176 178 177 176 177 176 176 177 175 175 174 172 176 175 177 178 178 182 182 181 0 0 0 0 0
    0 0 0 0 0 0 0 0 0 0 0 0 0 0 0 0 0 0 0 0 0 0 0 0 0 0 0 0 0 0 0 0 0 0 0 0 0 0 0 0 0 0 0 0 0 0 0 0 0 0 0 0 0 0 0 0 0 0 0 0 0 0 0 0 0 0 0 0 0 164 164 165 163 164 162 162 162 161 159 161 160 163 163 163 164 164 163 164 162 161 160 161 161 162 163 164 163 164 164 165 -193 165 165 164 165 166 167 166 165 165 165 164 164 163 163 164 163 164 163 164 164 164 164 164 162 164 163 166 165 164 164 165 164 164 164 164 163 163 166 166 163 166 166 166 165 166 166 166 166 167 168 169 170 170 170 170 171 170 170 -193 -193 -193 169 171 170 171 171 172 172 172 170 171 168 169 168 168 168 167 167 169 167 169 170 170 170 169 169 169 169 169 169 169 169 169 168 169 169 167 167 168 167 169 168 169 -193 -193 -193 -193 168 170 169 168 167 169 171 170 170 170 171 171 171 172 172 171 173 173 173 173 174 174 172 172 172 172 173 173 173 173 172 173 174 176 179 175 173 171 172 173 173 172 171 170 172 175 173 172 178 174 174 174 173 173 172 174 174 171 173 174 174 175 174 174 173 174 175 174 173 173 172 173 173 173 174 173 174 173 176 175 176 174 175 174 174 173 178 175 177 177 176 176 176 176 177 174 175 174 172 176 176 178 178 178 182 184 182 0 0 0 0 0
    0 0 0 0 0 0 0 0 0 0 0 0 0 0 0 0 0 0 0 0 0 0 0 0 0 0 0 0 0 0 0 0 0 0 0 0 0 0 0 0 0 0 0 0 0 0 0 0 0 0 0 0 0 0 0 0 0 0 0 0 0 0 0 0 0 0 0 0 0 163 163 163 160 161 157 157 157 157 156 159 160 164 165 165 165 165 164 165 163 161 160 160 161 161 162 164 162 163 164 165 166 165 165 164 165 166 167 167 166 165 165 164 164 164 163 165 163 165 163 164 163 164 163 164 162 164 163 166 165 164 164 165 164 164 164 165 163 164 166 166 163 166 166 166 165 166 166 167 166 167 168 169 170 170 170 170 171 170 170 -193 -193 -193 170 171 171 171 172 172 172 173 170 170 168 169 168 168 168 168 167 169 167 169 170 170 170 169 169 169 169 169 169 169 169 168 168 169 168 168 167 168 167 168 168 169 168 167 168 168 167 169 168 167 167 170 171 170 170 170 171 171 171 172 171 171 174 173 174 173 175 174 173 173 173 172 172 172 173 173 173 173 174 175 178 175 173 171 171 172 173 172 172 171 172 176 173 172 178 174 174 174 173 173 172 174 174 171 173 174 174 175 174 174 174 174 175 174 173 173 172 173 173 173 174 173 174 173 176 175 176 175 175 174 174 174 178 175 177 176 176 175 176 176 177 174 174 174 172 177 177 178 177 177 182 185 183 0 0 0 0 0
    0 0 0 0 0 0 0 0 0 0 0 0 0 0 0 0 0 0 0 0 0 0 0 0 0 0 0 0 0 0 0 0 0 0 0 0 0 0 0 0 0 0 0 0 0 0 0 0 0 0 0 0 0 0 0 0 0 0 0 0 0 0 0 0 0 0 0 0 0 161 162 162 159 158 -209 154 153 153 152 156 159 165 166 167 167 167 165 166 164 162 160 160 161 161 162 163 162 162 163 166 166 165 165 164 165 166 167 167 166 166 166 165 165 165 164 165 163 165 163 164 163 164 163 164 162 164 163 166 165 164 164 165 164 165 164 165 164 164 166 166 164 166 166 166 165 166 166 167 166 167 168 169 170 170 170 169 170 170 170 -193 169 -193 170 171 170 170 171 171 172 173 169 170 169 169 169 169 169 168 168 170 169 169 170 169 170 169 169 169 169 169 169 169 168 168 169 170 170 170 169 170 168 169 169 169 167 167 167 168 167 169 169 168 168 171 172 170 171 171 171 171 172 172 171 171 174 173 174 174 175 174 173 173 173 172 172 172 172 173 173 173 174 174 175 174 173 172 171 171 172 172 172 171 173 177 173 173 179 175 174 174 174 174 173 174 175 171 173 175 174 174 174 174 174 174 175 174 173 173 172 173 172 172 173 173 173 172 175 174 176 175 175 174 175 174 178 175 177 176 175 175 176 176 177 175 174 174 172 177 178 178 176 176 180 185 184 0 0 0 0 0
    0 0 0 0 0 0 0 0 0 0 0 0 0 0 0 0 0 0 0 0 0 0 0 0 0 0 0 0 0 0 0 0 0 0 0 0 0 0 0 0 0 0 0 0 0 0 0 0 0 0 0 0 0 0 0 0 0 0 0 0 0 0 0 0 0 0 0 0 0 160 161 161 159 158 -209 154 153 153 152 156 160 166 168 168 168 168 -209 166 165 163 162 161 161 162 162 163 162 162 164 165 165 164 164 163 164 166 167 167 165 166 166 165 166 165 164 166 164 165 163 164 164 164 164 165 162 164 163 166 165 164 164 165 164 164 164 165 164 164 166 166 163 166 166 166 165 166 166 167 166 167 168 169 170 170 170 169 170 170 170 169 169 168 169 170 170 170 170 170 171 172 169 170 169 169 169 170 170 169 169 170 169 170 170 170 170 169 169 169 169 169 169 169 168 168 169 171 171 171 170 170 168 169 169 169 167 167 168 168 167 169 170 169 169 173 172 171 171 171 171 171 172 172 171 171 174 173 174 174 174 174 173 173 173 171 172 171 172 173 173 173 174 174 176 175 173 172 172 171 172 171 172 171 173 177 174 173 179 175 174 174 174 173 173 174 175 171 173 175 174 174 174 174 174 174 175 174 173 174 173 174 173 173 173 173 173 172 175 174 176 175 175 175 175 175 178 175 176 175 175 175 176 176 177 175 174 175 173 177 179 177 175 174 177 185 -193 0 0 0 0 0
    0 0 0 0 0 0 0 0 0 0 0 0 0 0 0 0 0 0 0 0 0 0 0 0 0 0 0 0 0 0 0 0 0 0 0 0 0 0 0 0 0 0 0 0 0 0 0 0 0 0 0 0 0 0 0 0 0 0 0 0 0 0 0 0 0 0 0 0 0 158 159 159 158 -193 -193 155 154 154 153 157 160 167 168 170 170 170 -209 167 166 164 163 162 162 162 163 163 162 161 163 164 164 164 164 163 163 166 167 167 166 167 166 166 166 166 165 166 164 165 164 165 164 165 164 165 -193 164 163 166 165 164 164 165 163 164 164 165 164 163 166 165 162 165 165 166 165 166 -193 -193 -193 -193 169 169 170 169 169 169 169 169 169 -193 168 167 169 170 169 169 169 169 170 171 168 170 168 169 170 170 170 170 169 170 170 170 170 170 170 168 169 168 169 168 169 168 167 167 170 171 172 173 171 170 169 170 169 169 168 168 169 169 168 170 170 170 170 173 172 171 171 172 172 172 172 172 171 172 175 174 175 174 174 174 173 173 173 171 172 171 172 173 175 174 176 176 177 176 173 172 171 171 172 170 171 171 173 177 173 172 179 174 174 173 173 173 172 173 175 171 173 175 174 175 174 175 175 175 175 175 174 175 173 175 174 174 173 173 173 172 175 174 177 174 175 174 174 175 177 175 175 174 175 174 175 176 176 175 174 175 173 177 179 177 174 173 -193 -209 -209 0 0 0 0 0
    0 0 0 0 0 0 0 0 0 0 0 0 0 0 0 0 0 0 0 0 0 0 0 0 0 0 0 0 0 0 0 0 0 0 0 0 0 0 0 0 0 0 0 0 0 0 0 0 0 0 0 0 0 0 0 0 0 0 0 0 0 0 0 0 0 0 0 0 0 156 156 156 -193 -193 -193 -193 -193 152 151 154 155 165 169 171 171 -193 -209 167 166 -193 163 163 163 163 163 164 163 162 164 165 -209 -193 -193 -193 -193 -209 -209 -193 166 167 167 166 167 -193 166 167 165 166 165 166 165 165 165 166 -193 165 164 166 165 164 164 165 163 163 164 164 163 162 165 164 161 164 165 165 165 166 -193 -193 -193 -193 169 169 170 169 169 168 168 168 168 168 168 168 169 170 169 169 169 169 -193 170 168 170 169 169 170 170 171 170 169 171 170 170 170 170 170 168 169 168 168 168 169 168 167 167 170 171 172 173 172 170 170 170 170 170 169 169 169 169 169 170 170 170 170 173 172 171 172 172 172 173 173 173 172 173 176 175 177 175 175 174 175 174 174 172 172 171 171 173 175 174 176 176 176 174 172 172 170 170 171 170 170 171 172 176 172 172 178 173 173 173 173 172 172 173 174 170 173 175 173 174 175 175 175 175 175 175 173 175 173 176 174 174 173 173 172 172 174 174 176 173 175 174 174 174 177 175 175 174 175 174 175 176 176 175 174 175 173 176 178 177 175 173 -209 -209 -209 0 0 0 0 0
    0 0 0 0 0 0 0 0 0 0 0 0 0 0 0 0 0 0 0 0 0 0 0 0 0 0 0 0 0 0 0 0 0 0 0 0 0 0 0 0 0 0 0 0 0 0 0 0 0 0 0 0 0 0 0 0 0 0 0 0 0 0 0 0 0 0 0 0 0 -193 -193 -193 -193 -177 -177 -193 -193 -193 150 153 -193 163 168 171 -209 -209 -209 167 -193 -193 -193 163 163 164 164 165 -209 -209 -209 -209 -209 -209 -209 -209 -209 -209 -209 -209 -209 -193 -193 -209 166 -193 166 167 166 166 165 166 166 166 165 166 -193 166 165 166 166 165 164 165 163 163 163 164 163 161 164 164 159 162 164 165 164 165 -193 734 738 -193 169 169 170 168 169 168 167 168 167 167 167 167 169 170 169 168 168 168 -193 -209 167 169 168 169 170 170 171 170 169 170 170 170 170 170 169 168 168 168 168 168 169 168 167 169 170 171 172 175 173 172 -193 171 171 171 169 170 170 170 170 170 171 170 170 175 172 172 173 173 173 173 175 173 172 174 176 175 176 174 174 173 174 174 174 172 172 -193 172 174 178 175 177 178 177 175 173 172 170 170 171 170 170 171 174 177 172 172 178 173 173 173 173 173 172 173 174 170 173 174 173 174 174 174 174 174 175 174 173 176 174 177 175 175 173 173 172 172 173 173 176 173 174 174 174 175 177 176 175 175 175 174 175 175 176 175 174 175 173 175 178 177 175 173 -209 -193 -209 0 0 0 0 0
    0 0 0 0 0 0 0 0 0 0 0 0 0 0 0 0 0 0 0 0 0 0 0 0 0 0 0 0 0 0 0 0 0 0 0 0 0 0 0 0 0 0 0 0 0 0 0 0 0 0 0 0 0 0 0 0 0 0 0 0 0 0 0 0 0 0 0 0 0 -209 -209 -177 -177 -177 -177 -177 -193 -193 149 -193 -193 -193 -209 -193 -209 -209 -209 -193 -193 -193 -209 163 163 164 -193 -193 -209 -209 -209 -209 -209 -209 -209 -209 -209 -209 -209 -209 -209 167 166 -209 166 167 166 167 166 167 165 167 166 166 165 166 -193 166 165 167 166 165 164 165 163 163 163 164 163 160 162 163 159 160 -193 163 162 -193 -193 734 738 -193 169 169 169 168 -193 167 167 -193 167 167 168 168 169 170 169 168 169 -193 -193 -209 167 168 168 -193 -193 -193 170 170 169 170 169 169 169 170 169 168 169 169 169 168 169 169 168 169 171 172 173 177 175 -193 -193 -193 172 173 -209 171 171 172 171 172 173 170 171 176 173 173 173 174 174 174 175 174 172 175 175 173 173 173 172 172 173 173 173 172 172 -193 175 178 182 178 -193 180 180 177 175 174 172 172 173 171 172 174 178 180 174 174 180 175 175 175 175 174 174 175 176 171 174 175 173 173 174 174 174 174 174 174 173 176 174 177 175 176 173 174 172 172 173 173 176 173 174 174 174 176 177 176 175 174 175 174 174 175 175 174 174 174 173 173 176 176 174 -209 -209 -209 -209 0 0 0 0 0
    0 0 0 0 0 0 0 0 0 0 0 0 0 0 0 0 0 0 0 0 0 0 0 0 0 0 0 0 0 0 0 0 0 0 0 0 0 0 0 0 0 0 0 0 0 0 0 0 0 0 0 0 0 0 0 0 0 0 0 0 0 0 0 0 0 0 0 0 0 -209 -209 -177 -177 -177 -177 -177 -177 -209 -193 -209 -209 -209 -209 174 -209 -209 -209 -209 -209 -193 -209 -193 -193 -193 -209 -209 -209 -193 -209 -209 -209 -209 -209 -209 -209 -209 -209 -209 -209 -209 -209 -193 166 167 166 167 166 167 166 167 -193 167 166 166 -193 166 166 168 167 166 164 165 163 162 163 164 163 160 162 163 -193 -193 -193 -193 -209 -209 -193 733 737 -177 -193 -209 -209 -209 -209 -209 -209 -209 -209 -193 -193 170 172 172 171 169 170 170 -193 -209 168 169 168 -193 -193 -193 170 170 169 169 169 169 169 169 169 168 169 169 169 168 170 169 168 170 171 173 174 178 -193 -209 -209 -209 174 -209 -209 -209 -209 -209 -209 -193 180 172 171 177 172 173 173 173 173 173 174 173 171 175 173 171 171 171 170 170 171 171 171 171 172 -209 -209 -209 -209 -209 -193 -193 181 178 177 175 174 173 174 173 174 176 180 183 178 178 182 178 178 178 177 176 175 176 177 171 174 175 173 173 173 174 174 174 174 174 173 175 174 176 175 175 173 174 172 172 173 173 176 173 174 174 174 175 177 176 175 174 175 174 174 174 175 174 174 174 173 173 176 178 -193 19 20 -209 -209 0 0 0 0 0
    0 0 0 0 0 0 0 0 0 0 0 0 0 0 0 0 0 0 0 0 0 0 0 0 0 0 0 0 0 0 0 0 0 0 0 0 0 0 0 0 0 0 0 0 0 0 0 0 0 0 0 0 0 0 0 0 0 0 0 0 0 0 0 0 0 0 0 0 0 -209 -177 -177 -177 -177 -177 -177 -177 -177 -209 -209 -193 -209 -193 -209 -209 -209 -209 -209 -209 -209 -209 -209 -209 -193 -209 -209 -209 -209 -209 -209 -209 212 -209 -193 -193 -193 -193 200 198 194 -209 -209 166 167 165 166 166 167 166 167 -193 -193 167 -209 -209 -193 166 168 167 165 164 164 162 160 161 163 161 156 159 -193 -209 -209 -209 208 215 216 -193 734 737 -177 -209 -209 -209 -209 -193 -193 382 -193 -209 -209 -193 176 181 178 173 171 173 -193 -209 -209 168 170 169 -193 -193 -193 171 171 169 169 -193 169 168 169 168 169 169 169 169 168 170 169 168 171 172 175 176 180 -209 -209 -209 -209 -193 -209 -209 -209 -209 -209 -209 -209 -209 -209 171 178 172 173 173 174 174 173 174 -193 170 -193 -209 169 -209 -209 -193 170 172 173 173 172 -209 -209 -193 206 -209 -209 -209 -193 182 178 178 175 175 173 174 173 174 178 182 184 181 183 184 181 180 180 179 177 176 176 176 170 172 173 171 172 173 174 173 174 174 174 173 176 174 177 174 176 173 174 -193 172 173 172 175 173 174 174 174 175 177 176 175 174 175 174 174 174 175 174 174 175 174 175 179 -193 -209 12 -209 -209 222 0 0 0 0 0
    0 0 0 0 0 0 0 0 0 0 0 0 0 0 0 0 0 0 0 0 0 0 0 0 0 0 0 0 0 0 0 0 0 0 0 0 0 0 0 0 0 0 0 0 0 0 0 0 0 0 0 0 0 0 0 0 0 0 0 0 0 0 0 0 0 0 0 0 0 -209 -193 -177 -177 -177 -177 -177 -177 -193 -193 212 211 -193 -193 -193 -193 206 205 -209 -209 -209 -209 -193 -193 -209 601 -209 -209 -209 -209 -193 211 212 206 205 204 202 202 201 200 200 193 197 -193 -209 165 166 166 -193 -193 -209 -209 -209 -209 -209 -209 -209 -209 171 168 165 163 162 161 159 160 163 162 -193 160 -209 -209 -209 203 206 212 214 215 -193 737 739 -209 222 -209 -209 -209 -193 -193 -193 -209 -209 -209 185 192 189 178 174 177 -209 -209 -209 167 171 -193 -209 -193 -209 -209 171 168 169 -193 169 168 169 168 169 169 169 169 168 170 169 169 174 174 177 178 -193 -177 694 695 694 -193 -209 -209 -209 208 -193 205 204 -193 204 -193 181 172 175 175 175 175 -193 -193 112 -209 -193 -193 -209 -209 220 -193 -209 -193 -193 215 214 210 208 206 209 206 213 -209 -209 187 181 179 177 176 175 174 173 174 178 182 186 182 186 201 182 182 182 181 179 177 177 174 169 171 171 170 170 171 173 173 173 173 -193 173 -193 -209 177 174 176 -193 -193 -193 -193 172 171 174 173 173 173 173 175 176 176 175 174 174 173 174 174 174 174 174 176 175 176 -193 -209 -193 11 -209 220 222 0 0 0 0 0
    0 0 0 0 0 0 0 0 0 0 0 0 0 0 0 0 0 0 0 0 0 0 0 0 0 0 0 0 0 0 0 0 0 0 0 0 0 0 0 0 0 0 0 0 0 0 0 0 0 0 0 0 0 0 0 0 0 0 0 0 0 0 0 0 0 0 0 0 0 -209 -209 -193 -193 -193 -177 -177 -193 -193 -193 212 211 213 -193 210 209 207 205 -209 -209 -209 -209 -193 -193 -209 603 -209 -209 -209 -209 212 210 212 206 205 204 203 202 202 201 201 196 199 197 201 -193 -209 -193 -209 -209 -209 -209 -209 -209 -209 -209 -209 -209 -209 -209 162 160 158 159 158 159 -193 -193 -209 -209 -209 -209 204 204 206 211 212 213 214 213 -193 215 216 214 212 212 -193 210 211 209 206 203 200 201 202 187 -209 183 -209 -209 -193 -193 -209 -209 -193 -193 -193 -193 -209 -209 -209 -209 -209 168 168 169 170 170 170 -193 169 -193 -209 172 183 -209 -209 -193 -193 -193 -193 -193 -193 -209 -209 -209 208 209 207 206 206 206 206 207 -193 172 176 177 175 -193 784 -193 -177 -177 -177 -209 -209 217 219 221 219 216 215 214 214 212 210 208 210 206 212 210 205 203 -209 182 -193 -193 176 174 174 -209 -193 -209 -209 -193 202 205 -193 -209 -193 183 181 179 179 174 170 171 170 -193 -209 -209 -209 -193 -193 -193 -193 -193 -209 -209 174 -193 -193 -193 -209 -193 -209 -193 -209 -193 -193 173 173 173 175 176 176 175 175 175 173 174 174 174 174 174 176 174 -193 -193 -209 -209 -209 219 221 222 0 0 0 0 0
    0 0 0 0 0 0 0 0 0 0 0 0 0 0 0 0 0 0 0 0 0 0 0 0 0 0 0 0 0 0 0 0 0 0 0 0 0 0 0 0 0 0 0 0 0 0 0 0 0 0 0 0 0 0 0 0 0 0 0 0 0 0 0 0 0 0 0 0 0 -209 -193 -193 -193 205 -193 -193 -193 210 210 212 211 212 211 209 208 207 204 -193 -193 -193 -193 -193 -193 -193 -193 -209 -193 -209 209 210 208 211 206 205 204 203 203 202 201 202 197 199 198 201 202 201 202 202 202 202 203 203 201 200 201 202 201 -193 -209 -209 -209 154 157 -209 -209 -193 -209 -209 -209 -193 205 205 205 207 210 212 212 212 212 212 213 215 213 210 210 211 210 210 209 208 204 203 204 203 198 -193 -193 203 205 206 207 206 209 207 207 208 208 206 206 206 206 205 -193 164 167 171 -209 -209 -209 -209 -193 -209 -209 201 208 214 218 -193 -193 -193 221 -193 217 208 214 209 210 209 208 207 208 208 209 202 -209 180 -209 -209 781 783 -193 -209 -209 -193 -193 -193 218 218 220 220 216 215 214 214 213 211 210 211 207 210 209 207 206 203 -209 -209 -209 -209 -209 -209 -209 -209 -193 208 207 206 209 210 206 204 -193 -193 -193 -209 -193 171 172 -193 -209 -209 -209 -193 -193 -209 -209 -209 -209 -209 -209 -209 -209 -209 -193 -209 -193 -209 -209 -209 -209 -209 -209 -193 173 176 178 178 177 177 176 174 174 174 174 174 174 175 175 -209 -209 -209 -209 -193 220 221 221 0 0 0 0 0
    0 0 0 0 0 0 0 0 0 0 0 0 0 0 0 0 0 0 0 0 0 0 0 0 0 0 0 0 0 0 0 0 0 0 0 0 0 0 0 0 0 0 0 0 0 0 0 0 0 0 0 0 0 0 0 0 0 0 0 0 0 0 0 0 0 0 0 0 0 -193 203 203 203 205 205 204 206 210 209 211 210 210 210 209 208 208 205 207 206 205 -193 -193 -193 207 -193 206 208 206 208 208 206 210 205 204 204 203 203 202 202 202 198 200 200 202 202 202 203 203 203 203 203 203 202 202 202 203 203 201 201 -193 -209 -209 -209 -209 -209 -209 -209 -209 204 205 206 206 206 207 210 211 212 211 211 211 211 214 211 209 208 210 209 209 209 208 204 205 207 205 202 204 204 206 208 208 209 208 210 208 209 209 209 207 207 207 207 206 208 -193 -193 -209 206 206 205 -193 -193 206 207 207 212 213 215 -193 -193 -193 217 215 213 209 214 210 210 209 209 208 209 209 210 203 211 204 206 206 -193 -209 -209 -209 -209 206 -193 -193 218 218 219 220 217 217 215 214 214 212 212 212 209 212 211 209 209 206 -193 206 -193 -193 204 205 208 -193 209 210 208 210 212 212 209 208 206 205 205 205 205 -193 -209 -193 -209 -209 -193 224 -193 -193 -193 -209 -209 -209 -209 -193 -209 -209 -193 212 -193 -193 210 213 213 211 211 214 -193 -193 -193 -193 -193 -209 -209 -193 -193 -193 -193 173 175 -209 -209 394 396 403 -209 -193 220 221 221 0 0 0 0 0
    0 0 0 0 0 0 0 0 0 0 0 0 0 0 0 0 0 0 0 0 0 0 0 0 0 0 0 0 0 0 0 0 0 0 0 0 0 0 0 0 0 0 0 0 0 0 0 0 0 0 0 0 0 0 0 0 0 0 0 0 0 0 0 0 0 0 0 0 0 -209 202 202 202 204 203 204 204 209 208 210 209 209 210 210 208 208 206 207 206 205 205 206 206 207 207 206 208 205 207 207 205 209 205 204 204 203 203 203 202 203 199 202 202 204 203 204 204 204 204 204 204 204 203 203 203 204 203 203 202 202 203 204 204 204 203 -193 203 204 205 206 206 206 206 208 210 211 211 211 210 210 210 213 210 207 207 209 208 208 208 208 204 206 208 207 204 206 207 207 209 210 210 210 211 209 210 211 210 209 208 208 208 208 209 207 206 207 210 209 207 207 208 208 210 210 212 212 214 214 -193 215 215 212 212 209 213 209 210 209 209 208 209 209 210 204 212 208 210 210 209 209 208 208 209 209 213 215 218 217 218 219 216 216 214 214 213 212 212 213 210 212 211 211 211 208 206 209 206 207 206 208 210 210 210 211 209 212 213 213 211 211 209 209 209 209 209 204 206 211 -209 218 220 222 -193 -193 -193 -193 -193 217 -209 -193 -193 -209 213 213 214 214 212 213 213 213 213 214 213 212 210 215 215 218 225 -209 -177 -177 -177 -193 -209 -209 -209 -177 -177 -177 -193 221 220 221 220 0 0 0 0 0
    0 0 0 0 0 0 0 0 0 0 0 0 0 0 0 0 0 0 0 0 0 0 0 0 0 0 0 0 0 0 0 0 0 0 0 0 0 0 0 0 0 0 0 0 0 0 0 0 0 0 0 0 0 0 0 0 0 0 0 0 0 0 0 0 0 0 0 0 0 -209 201 202 -193 204 203 204 204 208 207 209 208 208 209 209 207 208 206 207 206 205 205 206 206 207 207 206 207 205 207 207 204 209 204 204 204 203 203 203 203 203 201 203 204 205 204 205 205 205 205 205 205 204 203 204 204 204 204 203 203 203 203 204 204 204 204 203 204 205 206 206 205 206 206 207 209 211 209 210 209 209 209 213 209 208 207 209 207 208 208 208 204 206 208 207 205 206 209 208 208 209 209 210 211 209 210 210 211 210 209 208 207 207 208 207 207 208 209 209 207 207 207 207 209 208 211 211 212 213 215 213 214 211 212 209 213 209 210 209 209 208 209 209 210 204 212 210 211 211 211 210 210 209 211 211 213 215 217 215 216 217 215 215 213 213 213 212 213 214 211 213 211 212 211 208 207 210 206 207 207 209 211 211 211 211 210 212 213 213 212 212 211 211 211 212 211 208 211 213 214 219 219 221 -193 -193 -193 -193 217 216 214 214 212 213 213 213 214 214 213 214 214 214 214 214 214 214 213 217 216 219 222 -193 -209 -209 -209 -209 -209 -209 -209 -177 -177 -193 219 223 221 220 220 0 0 0 0 0
    0 0 0 0 0 0 0 0 0 0 0 0 0 0 0 0 0 0 0 0 0 0 0 0 0 0 0 0 0 0 0 0 0 0 0 0 0 0 0 0 0 0 0 0 0 0 0 0 0 0 0 0 0 0 0 0 0 0 0 0 0 0 0 0 0 0 0 0 0 -209 201 -193 -193 204 203 204 204 207 207 209 208 208 208 209 207 207 206 208 207 205 205 206 206 207 207 207 207 206 207 207 205 209 205 204 204 203 204 203 203 204 201 203 205 206 205 205 205 205 205 205 205 204 203 203 203 204 203 203 203 203 203 204 204 203 204 203 204 205 205 205 205 205 206 207 209 211 208 210 209 209 209 213 209 208 207 209 207 208 208 208 203 206 207 207 205 207 209 208 208 209 209 210 210 209 210 209 210 209 208 208 207 207 208 207 207 208 209 209 207 207 207 207 208 208 210 210 212 212 214 213 213 210 211 208 212 208 209 208 208 208 209 209 209 204 211 210 211 211 211 210 209 209 210 211 213 213 216 214 215 216 214 214 213 213 213 213 214 214 213 214 213 213 212 209 207 210 207 208 207 210 211 212 211 212 210 213 214 213 213 213 213 213 213 213 213 212 215 215 215 219 219 221 -193 -193 -193 217 217 216 214 214 212 212 212 212 213 213 213 214 214 214 214 214 214 215 214 217 217 219 219 219 216 216 215 214 213 212 212 -193 -209 -193 220 224 220 220 219 0 0 0 0 0
    0 0 0 0 0 0 0 0 0 0 0 0 0 0 0 0 0 0 0 0 0 0 0 0 0 0 0 0 0 0 0 0 0 0 0 0 0 0 0 0 0 0 0 0 0 0 0 0 0 0 0 0 0 0 0 0 0 0 0 0 0 0 0 0 0 0 0 0 0 -209 201 202 202 204 203 204 204 207 206 208 207 207 207 208 206 207 205 208 206 205 205 205 206 208 208 207 208 207 207 207 205 210 205 204 203 203 204 204 204 205 202 204 205 207 205 205 205 206 205 205 205 204 203 203 203 204 203 203 203 203 203 204 204 203 203 203 204 205 205 206 205 206 206 207 209 210 207 210 208 209 209 213 208 208 207 209 207 208 208 208 203 206 208 208 207 208 210 209 209 210 209 209 209 207 209 208 209 208 207 207 207 207 209 207 207 207 208 209 207 207 207 207 208 208 210 211 212 212 214 212 212 209 210 208 212 207 208 207 207 207 208 209 209 204 211 209 210 210 210 210 209 209 210 210 212 212 215 214 214 216 214 214 213 213 214 214 214 215 213 215 213 214 213 211 208 211 207 209 208 210 212 212 211 212 211 214 214 213 213 213 213 213 213 213 213 212 215 215 215 219 219 220 -193 -193 -193 217 217 216 214 214 212 212 212 211 212 212 212 213 213 213 214 213 214 215 215 218 217 218 217 216 216 215 214 214 212 211 212 -193 -209 218 219 223 219 219 218 0 0 0 0 0
    0 0 0 0 0 0 0 0 0 0 0 0 0 0 0 0 0 0 0 0 0 0 0 0 0 0 0 0 0 0 0 0 0 0 0 0 0 0 0 0 0 0 0 0 0 0 0 0 0 0 0 0 0 0 0 0 0 0 0 0 0 0 0 0 0 0 0 0 0 -209 201 202 202 205 203 203 203 206 205 207 206 206 206 207 206 206 205 208 206 205 205 205 206 207 208 207 207 206 207 205 204 209 204 203 203 203 204 204 205 205 202 204 206 207 205 206 205 206 205 205 205 204 203 203 203 204 203 204 203 203 203 204 204 203 203 203 204 205 206 206 206 206 207 206 208 208 206 209 207 208 208 212 208 208 208 209 207 208 208 208 202 208 210 209 208 210 212 210 211 211 210 209 209 207 209 208 210 209 208 208 208 209 210 208 207 207 208 209 207 207 208 208 208 209 211 211 213 213 214 212 212 210 210 209 212 207 208 207 207 207 208 208 208 204 210 209 210 210 210 210 208 208 210 210 211 211 213 214 214 216 214 214 213 213 214 214 214 214 213 215 214 215 214 212 210 211 207 209 208 210 212 211 211 211 211 214 214 213 213 213 213 213 213 213 212 211 214 215 215 218 219 220 -193 -193 218 217 216 215 214 214 211 211 212 211 211 212 212 213 213 213 214 214 214 215 215 217 216 217 216 215 215 214 214 213 213 212 213 213 -193 217 218 221 218 218 217 0 0 0 0 0
    0 0 0 0 0 0 0 0 0 0 0 0 0 0 0 0 0 0 0 0 0 0 0 0 0 0 0 0 0 0 0 0 0 0 0 0 0 0 0 0 0 0 0 0 0 0 0 0 0 0 0 0 0 0 0 0 0 0 0 0 0 0 0 0 0 0 0 0 0 -209 201 -193 202 205 203 204 203 206 205 206 206 205 205 207 205 206 206 208 206 204 204 204 205 206 207 206 206 206 207 205 203 208 204 203 203 203 204 204 205 205 202 204 206 206 205 206 205 206 205 206 205 205 204 204 204 205 203 204 203 203 204 204 204 203 203 203 203 206 205 206 205 205 206 206 207 207 206 208 206 207 207 212 207 207 208 209 207 208 208 208 202 210 210 209 208 210 212 210 212 211 210 209 209 208 209 209 211 209 209 209 209 210 210 209 208 207 208 209 207 208 207 207 207 208 210 211 212 212 213 212 212 210 210 209 211 207 208 207 207 206 208 208 208 204 211 209 210 210 210 209 207 207 209 209 211 211 213 213 214 215 214 214 212 213 214 214 214 214 213 214 213 214 213 211 207 210 207 209 208 211 212 211 211 212 211 214 214 213 213 213 213 213 213 213 211 210 214 214 214 218 218 220 219 218 217 217 216 215 213 213 211 210 211 210 210 211 211 212 213 213 214 214 214 216 215 217 216 216 215 215 214 214 213 213 213 212 213 214 -193 -193 218 221 218 218 217 0 0 0 0 0
    0 0 0 0 0 0 0 0 0 0 0 0 0 0 0 0 0 0 0 0 0 0 0 0 0 0 0 0 0 0 0 0 0 0 0 0 0 0 0 0 0 0 0 0 0 0 0 0 0 0 0 0 0 0 0 0 0 0 0 0 0 0 0 0 0 0 0 0 0 -209 201 -193 202 205 203 204 203 205 204 205 205 205 205 207 205 206 206 208 205 -193 203 -193 204 205 206 205 205 206 206 205 203 207 204 203 203 203 204 204 204 205 203 204 206 207 206 206 205 208 206 206 206 205 204 204 204 205 203 204 203 203 203 204 204 203 203 203 204 206 206 206 206 206 207 206 207 207 206 208 206 207 207 212 207 207 208 208 206 208 207 208 202 208 209 206 207 209 212 209 211 210 209 208 208 207 209 208 211 209 209 210 209 211 211 210 208 207 208 209 207 208 207 206 206 208 211 212 212 211 213 211 212 210 209 209 211 207 208 207 207 206 208 209 208 205 211 209 210 209 209 209 206 206 206 208 209 210 213 212 213 214 213 213 212 213 213 214 214 214 214 213 213 213 212 211 205 209 206 208 208 210 212 212 211 212 211 214 214 213 213 213 213 213 213 213 212 211 214 215 215 218 218 220 219 219 218 217 217 216 214 214 211 210 211 210 210 210 211 212 213 213 214 214 214 216 216 217 217 217 215 215 214 214 213 213 213 212 214 215 217 219 219 222 218 218 217 0 0 0 0 0
    0 0 0 0 0 0 0 0 0 0 0 0 0 0 0 0 0 0 0 0 0 0 0 0 0 0 0 0 0 0 0 0 0 0 0 0 0 0 0 0 0 0 0 0 0 0 0 0 0 0 0 0 0 0 0 0 0 0 0 0 0 0 0 0 0 0 0 0 0 -209 202 202 201 205 202 204 203 204 204 205 205 205 205 207 205 206 206 208 204 -193 -193 -193 203 205 206 205 204 206 207 205 203 207 204 203 203 203 204 204 204 205 202 204 206 207 206 206 206 208 206 207 206 205 204 204 204 204 203 203 202 203 203 203 204 202 203 203 204 206 206 206 206 206 207 207 207 207 206 208 206 206 206 211 207 207 207 207 206 207 207 208 202 207 208 206 206 207 211 207 209 209 207 207 207 207 208 207 211 209 210 211 210 211 211 210 208 207 208 208 207 208 206 206 206 209 211 213 212 211 212 211 211 209 209 209 210 207 208 207 207 207 208 209 208 206 210 209 209 209 209 209 207 207 208 211 212 214 214 213 213 214 213 213 212 213 213 214 214 214 214 214 213 214 212 212 207 210 207 208 208 211 213 212 212 213 212 214 214 214 213 213 214 213 213 213 212 212 214 215 215 217 218 220 218 219 218 217 217 216 214 214 212 211 212 212 211 211 212 213 214 215 215 214 216 217 217 217 217 216 215 214 214 213 213 213 213 213 214 216 218 219 220 222 218 218 217 0 0 0 0 0
    0 0 0 0 0 0 0 0 0 0 0 0 0 0 0 0 0 0 0 0 0 0 0 0 0 0 0 0 0 0 0 0 0 0 0 0 0 0 0 0 0 0 0 0 0 0 0 0 0 0 0 0 0 0 0 0 0 0 0 0 0 0 0 0 0 0 0 0 0 -209 202 -193 -193 205 203 203 202 203 203 204 204 205 204 206 204 204 205 208 204 -193 202 202 203 204 206 205 204 206 207 205 204 207 204 203 203 204 204 204 204 204 203 204 206 206 206 206 205 208 206 206 205 204 203 203 203 203 202 202 201 202 202 203 203 202 202 202 204 206 206 206 206 206 207 206 207 207 206 208 206 206 206 211 207 207 207 207 206 207 207 207 202 205 205 204 204 204 206 204 205 206 205 206 206 206 207 206 211 209 210 211 210 211 211 210 209 208 208 208 206 207 205 205 205 209 211 214 213 211 213 211 211 209 209 209 210 207 208 207 207 207 209 209 209 206 210 209 209 209 210 210 209 209 212 212 212 213 212 212 211 212 212 212 212 213 212 214 214 215 214 214 213 213 212 211 208 210 207 208 207 210 213 213 212 213 212 215 215 214 214 213 214 214 213 214 213 213 215 216 216 218 218 219 218 218 217 217 216 216 214 214 213 213 214 213 213 213 213 214 216 217 216 216 217 218 218 216 216 215 214 213 214 212 213 212 213 213 215 216 219 219 220 222 218 218 218 0 0 0 0 0
    0 0 0 0 0 0 0 0 0 0 0 0 0 0 0 0 0 0 0 0 0 0 0 0 0 0 0 0 0 0 0 0 0 0 0 0 0 0 0 0 0 0 0 0 0 0 0 0 0 0 0 0 0 0 0 0 0 0 0 0 0 0 0 0 0 0 0 0 0 -209 -209 -209 -209 -193 -193 -209 202 -193 202 204 204 205 204 206 204 204 205 208 204 203 202 202 203 204 206 205 203 206 208 205 204 207 204 203 203 204 204 204 204 204 203 204 206 206 206 206 205 207 205 205 205 203 202 202 202 203 202 202 201 202 202 203 203 201 202 202 203 206 206 206 206 206 207 206 207 207 206 208 206 206 206 211 207 207 207 207 206 208 207 207 201 204 204 203 203 202 204 202 203 205 204 205 205 205 206 205 210 208 210 211 210 211 211 210 209 207 207 207 206 206 204 204 204 208 211 215 214 212 213 212 211 209 209 209 210 206 208 207 207 206 208 209 208 206 210 208 209 209 210 211 211 210 212 212 211 212 211 211 211 211 212 212 213 214 213 214 214 214 213 213 212 213 211 211 209 210 207 209 208 211 214 212 212 213 213 215 215 214 214 214 214 214 214 214 213 212 215 216 215 217 217 218 217 217 215 215 215 215 214 213 213 213 214 214 213 213 213 215 216 217 217 217 218 218 218 217 215 214 213 212 213 212 212 212 212 213 215 216 219 219 219 222 218 218 218 0 0 0 0 0
    0 0 0 0 0 0 0 0 0 0 0 0 0 0 0 0 0 0 0 0 0 0 0 0 0 0 0 0 0 0 0 0 0 0 0 0 0 0 0 0 0 0 0 0 0 0 0 0 0 0 0 0 0 0 0 0 0 0 0 0 0 0 0 0 0 0 0 0 0 -209 -209 -209 -193 -193 -193 -209 201 201 202 203 204 205 205 206 204 205 206 209 204 204 203 202 204 204 206 205 204 206 208 205 204 207 205 203 203 204 204 204 204 204 202 203 206 206 206 206 205 207 205 205 204 203 201 201 201 203 202 202 202 202 203 203 203 202 201 202 203 206 205 206 206 206 207 206 207 207 206 208 206 206 206 211 207 207 207 207 206 208 208 207 202 204 205 204 204 203 204 203 204 205 205 205 205 205 205 205 208 206 209 211 210 211 210 210 209 207 206 206 205 206 204 203 205 210 211 214 213 211 212 211 211 209 208 209 209 207 209 207 207 207 209 210 209 207 210 208 210 210 210 211 211 210 211 211 211 212 211 212 211 212 213 213 214 214 213 214 213 213 212 213 212 212 212 212 211 212 209 212 210 212 214 212 212 212 212 214 215 214 214 214 214 214 214 214 213 212 214 215 214 215 216 216 215 215 214 214 214 214 214 214 214 214 215 215 214 213 213 215 216 216 216 216 218 217 217 216 215 214 213 212 212 211 212 211 212 213 214 216 219 218 219 220 218 217 217 0 0 0 0 0
    0 0 0 0 0 0 0 0 0 0 0 0 0 0 0 0 0 0 0 0 0 0 0 0 0 0 0 0 0 0 0 0 0 0 0 0 0 0 0 0 0 0 0 0 0 0 0 0 0 0 0 0 0 0 0 0 0 0 0 0 0 0 0 0 0 0 0 0 0 -209 -209 -193 -209 -193 -193 -209 201 201 202 203 203 205 204 205 204 205 206 209 205 205 203 203 205 205 206 205 203 205 207 204 204 207 205 203 203 204 204 204 204 204 -193 203 205 205 205 206 204 206 205 205 204 203 202 202 202 203 202 203 202 203 203 204 204 203 201 201 202 205 205 206 206 206 207 207 207 207 206 209 206 207 206 211 207 207 207 207 206 208 208 208 202 205 206 205 205 204 206 204 205 205 205 205 205 205 205 204 207 205 208 210 210 210 210 210 209 207 207 206 205 206 204 203 204 209 210 213 212 209 210 211 210 208 208 208 209 208 210 208 208 208 210 210 210 208 210 209 211 211 211 212 213 211 212 211 211 212 211 212 212 212 213 213 214 214 212 214 213 213 212 212 212 212 212 213 212 213 211 212 212 213 214 212 212 213 213 214 215 214 214 214 215 214 214 214 213 211 213 213 211 212 214 214 213 213 212 213 213 214 214 214 215 216 216 217 216 215 214 215 216 217 216 216 218 217 217 216 215 213 212 211 212 211 212 212 213 213 215 216 218 218 218 219 217 217 217 0 0 0 0 0
    0 0 0 0 0 0 0 0 0 0 0 0 0 0 0 0 0 0 0 0 0 0 0 0 0 0 0 0 0 0 0 0 0 0 0 0 0 0 0 0 0 0 0 0 0 0 0 0 0 0 0 0 0 0 0 0 0 0 0 0 0 0 0 0 0 0 0 0 0 -209 -209 -209 -209 -193 203 -209 200 201 201 202 202 204 203 204 203 204 206 209 204 -193 203 203 204 205 205 204 203 205 206 204 204 207 205 204 204 204 204 204 204 204 -193 203 205 205 204 205 204 206 205 204 204 203 202 202 202 204 203 204 203 204 204 204 204 203 201 202 203 205 205 206 206 207 207 208 207 208 207 209 207 207 206 210 207 207 206 207 206 208 208 208 203 205 206 205 206 204 206 204 205 205 206 205 206 205 205 204 206 205 208 209 209 210 210 209 209 207 207 207 206 206 204 203 204 208 209 211 211 208 210 211 210 209 208 209 210 209 211 209 209 209 210 210 211 210 210 210 211 211 212 212 213 211 211 211 211 212 211 212 211 212 214 214 214 214 213 213 213 213 213 212 212 212 212 212 212 212 210 212 212 213 214 213 212 213 214 215 215 215 214 214 215 214 214 214 214 211 213 214 211 213 214 215 213 213 212 212 213 214 214 214 214 216 217 217 217 215 215 216 216 217 216 217 218 217 217 216 215 213 213 212 213 211 213 212 213 214 215 216 217 217 217 218 217 217 217 0 0 0 0 0
    0 0 0 0 0 0 0 0 0 0 0 0 0 0 0 0 0 0 0 0 0 0 0 0 0 0 0 0 0 0 0 0 0 0 0 0 0 0 0 0 0 0 0 0 0 0 0 0 0 0 0 0 0 0 0 0 0 0 0 0 0 0 0 0 0 0 0 0 0 -209 -209 -209 -209 -193 203 -209 200 201 202 203 203 205 204 204 203 204 207 209 205 206 203 203 204 205 205 203 203 205 206 204 205 208 205 204 204 205 204 204 204 204 -193 203 204 205 204 205 204 205 204 204 204 203 203 203 203 205 204 204 204 205 205 204 204 203 201 202 203 205 206 206 207 209 208 209 208 209 208 209 207 206 206 210 207 206 206 206 206 207 207 207 203 204 206 205 206 204 206 204 204 205 206 206 206 205 205 204 207 206 208 210 209 210 210 209 209 208 208 207 206 206 204 204 204 208 208 210 209 208 209 211 211 209 208 209 211 210 211 210 210 210 211 211 211 210 210 209 210 210 210 211 211 210 210 211 211 212 211 212 212 213 215 215 215 215 214 214 214 214 213 212 212 212 212 212 212 212 210 212 212 213 215 213 213 214 214 215 215 215 214 215 215 214 214 214 214 212 213 214 212 214 214 214 213 213 212 212 212 214 213 214 214 216 218 217 217 216 215 216 217 217 216 216 218 217 217 216 215 214 214 214 214 213 214 214 215 215 216 217 217 217 217 218 217 217 217 0 0 0 0 0
    0 0 0 0 0 0 0 0 0 0 0 0 0 0 0 0 0 0 0 0 0 0 0 0 0 0 0 0 0 0 0 0 0 0 0 0 0 0 0 0 0 0 0 0 0 0 0 0 0 0 0 0 0 0 0 0 0 0 0 0 0 0 0 0 0 0 0 0 0 -209 -193 -209 203 204 203 201 199 200 201 202 202 204 203 203 203 204 207 210 206 207 205 204 205 206 205 204 203 204 207 204 205 209 205 205 205 205 205 204 204 204 -193 203 204 204 204 205 204 205 204 203 204 203 202 203 204 205 204 204 204 205 205 205 204 203 201 202 203 205 205 206 208 210 209 210 209 210 208 210 207 207 206 210 207 206 205 206 205 206 207 207 203 204 206 206 207 205 206 205 205 206 206 206 207 205 206 205 208 207 209 210 210 210 210 209 210 208 209 208 207 207 205 205 206 210 209 210 209 209 210 212 212 210 209 210 211 211 212 210 211 210 211 211 212 210 209 208 209 208 209 209 211 208 210 210 211 211 212 212 213 213 215 215 215 215 215 214 214 214 213 212 211 211 212 212 212 211 210 211 212 214 215 214 214 214 214 215 215 215 215 215 215 215 214 215 214 212 213 214 212 213 214 214 213 212 212 212 212 214 213 214 215 216 218 217 217 216 215 216 217 217 216 215 218 216 217 215 215 214 215 216 215 215 216 -193 -193 -193 218 217 217 217 218 218 217 217 217 0 0 0 0 0
    0 0 0 0 0 0 0 0 0 0 0 0 0 0 0 0 0 0 0 0 0 0 0 0 0 0 0 0 0 0 0 0 0 0 0 0 0 0 0 0 0 0 0 0 0 0 0 0 0 0 0 0 0 0 0 0 0 0 0 0 0 0 0 0 0 0 0 0 0 -209 -209 202 204 204 202 201 199 200 201 202 202 203 203 203 204 204 207 209 207 207 206 205 207 207 206 205 204 205 208 205 205 209 206 205 205 205 205 204 205 205 -193 203 204 205 204 205 204 204 204 203 204 203 203 204 204 205 204 205 204 205 205 204 204 203 201 202 203 205 206 206 208 -193 -193 209 208 209 207 209 207 206 206 210 207 206 205 205 204 206 206 207 203 204 206 206 207 206 206 205 205 206 207 207 208 206 208 206 209 207 210 210 210 210 210 209 210 210 211 210 208 209 206 207 208 210 208 209 208 208 209 212 212 210 210 211 212 212 212 211 211 210 211 211 212 209 209 208 209 208 209 209 211 208 210 210 210 211 211 212 213 213 215 215 215 215 215 214 214 214 212 212 211 211 212 212 212 211 210 211 212 213 215 214 214 214 215 215 216 215 215 215 215 215 214 215 214 211 212 213 210 212 213 212 211 211 211 211 212 213 213 214 215 216 217 217 217 217 216 217 217 217 217 216 218 217 216 215 214 213 214 216 216 -193 -193 -209 -209 -193 -193 217 217 217 217 218 217 217 217 0 0 0 0 0
    0 0 0 0 0 0 0 0 0 0 0 0 0 0 0 0 0 0 0 0 0 0 0 0 0 0 0 0 0 0 0 0 0 0 0 0 0 0 0 0 0 0 0 0 0 0 0 0 0 0 0 0 0 0 0 0 0 0 0 0 0 0 0 0 0 0 0 0 0 -209 -209 202 204 204 202 201 198 200 200 201 201 203 203 203 204 205 207 209 207 208 208 206 207 207 206 205 205 206 209 205 206 210 206 205 205 205 205 204 205 205 202 203 205 205 204 205 204 205 204 204 204 203 204 205 205 206 205 205 205 205 205 205 203 203 201 203 203 205 205 205 206 -193 -193 207 206 207 206 209 206 206 206 210 207 206 205 206 204 206 206 206 203 204 206 207 207 206 207 207 206 207 208 208 209 207 209 206 208 207 209 210 211 209 210 209 210 210 212 211 209 208 206 206 207 207 205 206 206 206 207 213 212 210 211 211 213 212 212 211 210 210 211 211 212 209 209 209 209 208 209 208 209 207 209 208 209 209 211 211 213 213 215 215 214 214 214 213 213 213 212 211 210 210 212 211 212 211 210 212 212 214 214 214 214 215 215 215 216 216 215 215 215 215 214 214 214 211 212 212 209 212 212 212 211 210 211 211 212 213 213 214 214 215 216 216 216 215 215 215 216 215 216 215 218 216 216 215 215 214 215 216 217 -193 218 218 218 -193 219 218 217 217 217 218 217 217 217 0 0 0 0 0
    0 0 0 0 0 0 0 0 0 0 0 0 0 0 0 0 0 0 0 0 0 0 0 0 0 0 0 0 0 0 0 0 0 0 0 0 0 0 0 0 0 0 0 0 0 0 0 0 0 0 0 0 0 0 0 0 0 0 0 0 0 0 0 0 0 0 0 0 0 -193 -209 202 203 203 201 201 197 199 199 201 201 202 203 203 204 205 207 208 207 208 208 -193 207 -193 206 205 204 205 209 205 205 210 206 205 205 205 205 205 205 205 202 203 205 205 204 204 204 204 204 204 205 204 205 207 207 208 206 206 206 206 206 205 204 204 201 203 203 205 204 204 205 -209 -193 206 205 207 205 209 206 206 206 210 208 206 205 206 204 206 206 207 204 204 208 208 208 207 207 207 207 208 209 208 209 208 210 208 209 208 209 210 211 209 210 209 210 210 212 211 210 209 207 207 207 207 205 205 205 205 206 212 211 210 210 211 213 212 211 211 210 210 211 211 211 208 208 209 209 208 208 208 208 207 207 206 208 207 211 211 213 213 214 214 213 213 213 212 212 212 211 211 210 211 212 212 212 211 211 213 213 214 215 214 214 215 215 216 216 216 215 216 215 215 214 214 214 211 211 212 209 211 212 212 211 210 211 211 212 213 212 213 213 213 215 214 214 213 214 214 214 213 214 213 216 216 215 214 215 214 216 219 220 -193 219 221 220 218 220 219 217 217 217 218 217 217 217 0 0 0 0 0
    0 0 0 0 0 0 0 0 0 0 0 0 0 0 0 0 0 0 0 0 0 0 0 0 0 0 0 0 0 0 0 0 0 0 0 0 0 0 0 0 0 0 0 0 0 0 0 0 0 0 0 0 0 0 0 0 0 0 0 0 0 0 0 0 0 0 0 0 0 -193 -209 201 202 201 199 199 197 199 199 199 200 201 201 201 202 203 205 207 207 -193 -193 -193 208 -193 207 206 204 205 208 204 205 210 206 205 205 206 205 205 205 205 202 203 204 204 203 204 204 205 205 204 206 205 207 209 208 209 206 207 207 207 206 206 204 204 202 205 204 206 205 205 205 -193 -193 -193 205 207 205 209 206 206 207 210 208 206 205 206 204 206 206 207 204 205 208 208 208 207 207 208 208 209 209 208 209 209 211 209 209 208 209 210 211 210 211 209 211 211 213 212 212 211 208 208 208 208 205 206 205 204 206 211 211 209 209 210 213 212 211 211 210 210 211 211 211 207 208 209 209 207 208 207 208 207 207 206 208 207 211 211 213 214 213 213 213 212 213 212 212 211 211 210 210 211 212 212 212 211 211 213 213 214 215 214 215 215 216 216 216 216 215 216 215 214 214 214 214 212 211 212 210 212 213 213 212 211 212 212 212 212 212 213 212 213 214 213 213 212 213 214 213 213 213 214 215 216 214 213 214 210 215 -193 220 -209 219 221 221 218 221 219 218 218 218 219 218 218 218 0 0 0 0 0</data></disparity>
</opencv_storage>
