<?xml version="1.0"?>
<opencv_storage>
<gps_time_stamp>16443</gps_time_stamp>
<gps_x>1.2712876312434673e-002</gps_x>
<gps_y>1.4977071434259415e-002</gps_y>
<gps_z>-2.4491210933774710e-003</gps_z>
<image_time_stamp>4364</image_time_stamp>
<disparity type_id="opencv-matrix">
  <rows>80</rows>
  <cols>320</cols>
  <dt>s</dt>
  <data>
    0 0 0 0 0 0 0 0 0 0 0 0 0 0 0 0 0 0 0 0 0 0 0 0 0 0 0 0 0 0 0 0 0 0 0 0 0 0 0 0 0 0 0 0 0 0 0 0 0 0 0 0 0 0 0 0 0 0 0 0 0 0 0 0 0 0 0 0 0 -193 125 127 130 -209 -209 -193 -193 -193 133 134 -209 -209 -209 -209 -209 -193 -209 -209 -209 -209 -209 -209 -209 -193 -209 -209 -209 -193 -209 -209 -209 -209 -209 -209 -209 -209 -209 -209 -209 -209 -209 -193 -209 124 119 117 117 115 112 113 113 112 109 110 113 -209 -209 -209 -209 -209 -209 -209 -209 -209 -209 -209 -209 -209 -209 111 113 117 111 110 114 114 -193 -193 -193 -193 -193 -209 -209 -209 -209 112 116 109 108 107 106 106 108 108 107 106 107 109 108 112 110 111 111 112 111 111 110 -193 -193 -209 588 596 599 598 -209 -209 -209 -209 108 110 112 115 114 115 116 112 114 118 114 110 109 109 109 110 111 111 109 110 112 114 116 116 115 115 114 115 115 114 114 109 114 -193 115 115 116 115 115 114 113 113 114 113 113 112 115 115 111 113 115 115 115 112 110 110 112 112 118 117 115 115 116 117 117 118 119 119 121 123 124 123 123 123 122 121 123 125 124 126 131 132 131 131 134 132 131 128 128 123 121 123 123 124 124 123 124 -193 127 131 130 131 131 130 132 133 133 138 -209 -193 132 131 132 126 126 125 126 131 133 135 138 137 141 143 141 143 142 0 0 0 0 0
    0 0 0 0 0 0 0 0 0 0 0 0 0 0 0 0 0 0 0 0 0 0 0 0 0 0 0 0 0 0 0 0 0 0 0 0 0 0 0 0 0 0 0 0 0 0 0 0 0 0 0 0 0 0 0 0 0 0 0 0 0 0 0 0 0 0 0 0 0 -193 -193 132 134 -209 -193 131 133 133 133 133 132 -193 130 132 128 129 -193 -209 -193 -209 -209 -209 298 294 -209 -209 -209 -209 -209 -209 -209 -209 -209 -209 -209 -209 -209 -209 -209 -193 -193 -193 131 130 124 122 120 119 116 116 117 116 113 117 121 -209 -209 -209 -209 -209 -209 -209 -209 -209 -209 -209 -209 -209 -209 -193 122 121 -193 116 117 -193 -193 -193 -193 -193 -209 -209 -209 -209 -209 115 -209 -209 108 107 105 107 108 109 108 107 109 110 108 115 112 114 113 114 115 115 114 -193 -193 -209 590 598 601 -209 -209 -209 -209 -209 -193 106 111 116 116 118 119 117 118 120 117 113 110 110 109 111 112 111 110 111 114 115 117 117 117 116 116 117 117 116 117 113 -193 -193 -193 117 117 116 116 114 113 113 114 114 113 114 117 116 113 116 115 113 114 112 110 109 112 113 119 117 115 116 117 118 117 118 119 119 120 122 123 122 122 122 122 120 124 126 125 128 133 133 133 132 135 133 132 129 130 124 123 124 125 125 125 124 126 124 129 132 131 132 133 133 133 134 134 138 135 -193 -193 -193 133 126 125 124 125 130 133 136 137 137 141 143 141 142 142 0 0 0 0 0
    0 0 0 0 0 0 0 0 0 0 0 0 0 0 0 0 0 0 0 0 0 0 0 0 0 0 0 0 0 0 0 0 0 0 0 0 0 0 0 0 0 0 0 0 0 0 0 0 0 0 0 0 0 0 0 0 0 0 0 0 0 0 0 0 0 0 0 0 0 -193 132 133 135 135 -193 132 133 133 132 132 131 131 130 132 130 129 130 126 126 127 126 -193 299 294 -209 -209 -209 -209 -209 -209 -209 -209 -209 -209 -209 -209 129 -193 129 131 132 130 132 132 130 126 124 125 120 119 120 120 119 121 124 125 -209 129 -209 -209 -193 -209 -209 -209 -209 -209 -209 -209 -209 121 126 124 -193 121 121 122 -193 -193 -193 -209 -209 -209 -209 -209 -209 122 -193 -209 -193 -209 -209 113 114 116 -209 -209 -193 -209 114 119 115 118 118 118 118 118 118 119 -209 -209 592 -193 -209 -209 -209 -177 -209 -209 -209 -193 116 121 122 121 123 122 121 122 120 118 115 115 113 115 116 115 114 116 118 118 120 120 120 118 119 120 120 119 119 118 -193 -193 122 121 120 118 119 117 115 116 117 116 116 116 120 119 119 123 -209 112 115 114 111 111 116 116 120 119 117 117 118 119 118 119 120 119 120 122 123 122 121 122 121 120 125 127 126 130 135 135 135 133 136 133 132 131 130 124 123 125 126 126 126 126 128 126 131 132 132 133 133 134 133 135 134 137 135 134 135 136 135 131 127 126 125 131 133 136 137 137 141 143 141 142 142 0 0 0 0 0
    0 0 0 0 0 0 0 0 0 0 0 0 0 0 0 0 0 0 0 0 0 0 0 0 0 0 0 0 0 0 0 0 0 0 0 0 0 0 0 0 0 0 0 0 0 0 0 0 0 0 0 0 0 0 0 0 0 0 0 0 0 0 0 0 0 0 0 0 0 -193 131 133 134 134 -193 130 132 131 130 130 129 128 128 132 131 130 130 128 128 129 128 -193 -193 -193 -209 -209 -209 -209 -209 -193 -193 130 133 -193 -193 131 131 132 130 131 132 131 132 132 131 129 127 129 125 122 123 123 123 125 127 129 128 131 131 127 130 -193 128 -193 -209 -209 -209 -193 127 123 129 125 127 125 125 125 126 127 -193 -209 -209 -209 -193 134 130 124 125 125 122 -193 -209 -209 -209 123 -193 -193 -193 -193 -193 124 119 122 123 122 123 123 123 123 122 -193 -209 -209 -209 -209 -209 -177 -209 -209 -209 117 121 123 124 123 124 123 123 125 123 121 120 118 118 118 120 119 119 121 122 122 123 123 123 122 122 124 123 122 122 122 123 123 124 123 123 122 122 122 119 121 122 121 122 121 124 128 126 132 132 126 123 122 -193 119 122 121 124 -193 120 120 121 123 121 120 121 120 121 123 123 122 122 122 121 122 126 129 128 132 135 135 135 134 135 135 134 132 132 125 124 126 127 126 126 127 129 129 133 133 133 133 134 135 134 136 135 137 136 136 137 138 137 134 130 129 126 131 133 135 137 137 140 143 141 142 142 0 0 0 0 0
    0 0 0 0 0 0 0 0 0 0 0 0 0 0 0 0 0 0 0 0 0 0 0 0 0 0 0 0 0 0 0 0 0 0 0 0 0 0 0 0 0 0 0 0 0 0 0 0 0 0 0 0 0 0 0 0 0 0 0 0 0 0 0 0 0 0 0 0 0 -193 131 132 132 132 130 129 130 129 128 128 127 128 128 131 130 129 130 128 128 -193 128 127 -193 -209 -209 -193 -193 -193 129 128 130 130 132 129 131 131 131 132 130 130 132 131 132 131 130 129 128 131 129 125 126 127 127 130 131 132 131 131 131 129 131 130 129 129 -193 -209 -209 -193 130 126 133 127 130 129 128 129 129 129 129 124 131 -193 -193 133 129 126 127 127 125 130 127 128 125 128 131 -193 -193 -193 -193 130 122 130 131 127 128 128 129 127 -193 -193 -209 -177 -177 -193 -209 -177 -209 -209 -209 123 124 126 127 126 128 126 127 128 127 126 126 122 123 122 126 124 123 125 126 125 126 126 126 123 125 127 124 124 125 125 125 125 126 125 126 125 125 126 124 125 128 126 127 126 129 132 131 133 133 131 132 132 132 129 130 130 130 136 126 125 125 128 125 123 123 122 122 125 125 123 123 123 122 124 128 130 130 132 134 134 135 133 134 134 133 132 132 126 125 128 129 129 129 130 132 132 134 133 134 134 134 135 135 136 136 137 139 138 138 140 138 136 132 131 127 131 133 136 137 137 141 143 141 142 142 0 0 0 0 0
    0 0 0 0 0 0 0 0 0 0 0 0 0 0 0 0 0 0 0 0 0 0 0 0 0 0 0 0 0 0 0 0 0 0 0 0 0 0 0 0 0 0 0 0 0 0 0 0 0 0 0 0 0 0 0 0 0 0 0 0 0 0 0 0 0 0 0 0 0 132 130 131 131 131 130 128 130 129 128 128 127 127 127 130 130 130 130 129 129 -193 128 128 126 -193 -193 -193 127 129 127 126 129 128 130 128 131 131 132 133 130 130 132 131 132 131 130 129 128 132 130 127 128 130 130 131 132 132 131 131 131 130 130 130 130 130 -193 -209 -193 130 130 128 133 128 130 130 129 129 129 129 129 124 130 127 129 131 130 127 127 128 127 131 129 130 128 129 133 132 -193 132 129 132 125 134 134 131 131 131 131 130 130 -193 -193 -209 -209 -209 -209 -209 124 126 125 125 126 128 129 130 131 129 130 131 130 130 131 126 128 126 131 128 127 129 129 127 128 128 128 124 127 128 125 126 126 127 126 126 127 127 128 129 128 130 129 130 132 131 130 129 131 132 132 133 132 131 132 133 133 132 132 132 132 135 133 130 131 132 129 126 125 124 124 126 126 124 124 124 124 126 129 131 131 131 134 134 134 133 133 134 133 132 133 130 131 130 132 132 132 133 134 134 135 133 134 134 135 135 135 136 135 137 139 138 137 140 138 137 133 132 128 131 134 137 138 138 142 143 141 142 142 0 0 0 0 0
    0 0 0 0 0 0 0 0 0 0 0 0 0 0 0 0 0 0 0 0 0 0 0 0 0 0 0 0 0 0 0 0 0 0 0 0 0 0 0 0 0 0 0 0 0 0 0 0 0 0 0 0 0 0 0 0 0 0 0 0 0 0 0 0 0 0 0 0 0 132 130 131 131 131 130 128 129 128 127 127 126 127 127 -193 130 129 129 -193 -193 -193 -193 128 126 -193 -193 -193 127 130 128 127 129 128 130 128 131 131 132 133 130 130 132 131 132 130 130 129 128 131 130 126 128 129 130 131 131 131 131 131 131 130 130 130 129 131 -193 -193 131 129 130 128 133 128 130 130 129 129 129 130 129 125 130 127 128 131 131 128 128 129 128 131 130 131 128 129 133 133 133 132 129 132 126 134 135 132 -193 -193 -193 130 130 131 128 -193 -193 -193 125 124 126 127 127 127 128 131 131 133 133 131 132 132 131 131 132 128 130 129 133 130 130 131 131 130 131 130 131 126 130 130 127 128 129 129 128 128 129 128 130 131 130 131 131 132 133 132 131 130 131 132 132 133 132 131 133 133 133 133 133 133 132 135 134 133 133 133 132 128 127 125 125 127 127 125 124 125 126 130 131 132 132 132 134 133 134 133 131 133 133 131 133 131 133 131 133 133 133 133 134 134 135 133 134 135 135 135 135 136 135 137 139 137 137 138 137 137 134 134 131 134 136 140 140 139 144 143 142 143 142 0 0 0 0 0
    0 0 0 0 0 0 0 0 0 0 0 0 0 0 0 0 0 0 0 0 0 0 0 0 0 0 0 0 0 0 0 0 0 0 0 0 0 0 0 0 0 0 0 0 0 0 0 0 0 0 0 0 0 0 0 0 0 0 0 0 0 0 0 0 0 0 0 0 0 132 131 132 132 131 130 128 129 128 128 128 127 127 127 129 130 129 128 -193 128 129 128 128 126 126 126 125 128 129 127 126 128 128 130 128 131 131 131 132 130 130 132 130 131 130 130 129 128 131 130 127 128 129 130 131 131 131 130 130 130 128 130 128 128 130 128 132 131 129 130 129 134 129 130 130 129 130 130 130 129 125 131 128 129 132 132 128 128 129 128 131 130 131 128 128 132 132 132 131 128 131 126 133 135 131 -193 -193 131 131 131 131 129 124 -193 129 125 125 127 128 129 128 129 131 132 134 134 132 132 132 132 132 133 129 131 130 134 131 131 132 132 131 132 131 132 128 132 131 129 130 130 131 129 129 130 130 131 132 131 132 132 133 133 132 132 131 131 132 132 133 132 131 133 132 133 133 133 132 131 134 134 133 134 134 132 131 130 128 127 128 129 126 126 127 127 132 131 132 132 131 133 133 133 132 129 132 131 127 130 127 128 128 129 131 131 133 134 135 135 134 135 135 135 135 134 135 134 136 137 135 135 136 136 136 135 135 133 136 138 142 141 141 145 144 142 143 142 0 0 0 0 0
    0 0 0 0 0 0 0 0 0 0 0 0 0 0 0 0 0 0 0 0 0 0 0 0 0 0 0 0 0 0 0 0 0 0 0 0 0 0 0 0 0 0 0 0 0 0 0 0 0 0 0 0 0 0 0 0 0 0 0 0 0 0 0 0 0 0 0 0 0 132 131 132 132 131 131 129 129 128 128 128 127 128 127 128 129 129 128 127 128 129 128 128 127 126 127 124 128 129 127 126 128 127 130 128 130 130 131 132 129 129 131 130 131 130 130 128 128 132 131 128 129 129 130 131 131 130 129 128 129 127 128 127 126 128 -193 -193 130 129 130 131 134 130 131 131 130 130 130 130 129 125 131 128 129 132 132 129 129 129 128 130 130 130 129 128 132 132 132 131 128 130 126 133 134 131 131 132 132 131 131 132 130 125 129 130 126 126 128 129 129 129 130 131 132 134 134 133 133 133 132 133 133 130 132 130 133 131 131 132 131 131 132 131 132 128 132 132 129 130 130 131 129 129 130 130 131 132 131 132 132 133 134 133 132 131 132 133 132 133 132 131 133 132 133 133 133 132 131 134 134 133 134 134 133 133 132 131 130 130 131 129 129 130 130 134 131 131 132 131 132 131 132 131 126 131 131 127 129 127 129 128 130 131 131 133 134 135 135 134 135 135 135 135 134 134 134 135 136 135 134 135 135 136 135 135 135 137 138 141 141 142 144 144 142 143 142 0 0 0 0 0
    0 0 0 0 0 0 0 0 0 0 0 0 0 0 0 0 0 0 0 0 0 0 0 0 0 0 0 0 0 0 0 0 0 0 0 0 0 0 0 0 0 0 0 0 0 0 0 0 0 0 0 0 0 0 0 0 0 0 0 0 0 0 0 0 0 0 0 0 0 131 130 132 131 131 131 129 129 128 128 128 127 128 127 127 129 128 129 128 129 129 129 128 127 125 128 124 127 128 127 126 127 127 129 128 130 129 130 131 129 129 131 129 130 129 130 128 128 131 130 128 129 129 130 131 130 129 128 127 127 126 127 126 125 128 -193 -193 131 130 131 132 134 130 131 131 130 130 130 130 128 125 131 128 127 131 132 129 129 129 128 130 130 131 129 127 131 132 132 132 129 130 127 132 133 131 131 132 132 131 131 132 130 127 131 132 127 127 129 130 130 130 130 131 131 134 135 133 134 133 132 133 133 131 132 130 133 130 130 132 131 131 132 132 132 129 133 132 130 131 131 132 130 129 130 130 131 132 131 132 132 133 134 133 132 132 132 133 132 133 132 131 133 132 133 133 133 132 131 134 134 133 135 134 134 133 133 132 131 131 132 130 130 131 130 134 132 133 133 132 133 132 133 132 124 130 131 127 131 129 131 131 132 132 133 134 134 135 136 134 135 134 134 134 133 134 134 134 136 135 134 135 136 136 136 135 136 138 140 141 140 143 144 143 142 142 142 0 0 0 0 0
    0 0 0 0 0 0 0 0 0 0 0 0 0 0 0 0 0 0 0 0 0 0 0 0 0 0 0 0 0 0 0 0 0 0 0 0 0 0 0 0 0 0 0 0 0 0 0 0 0 0 0 0 0 0 0 0 0 0 0 0 0 0 0 0 0 0 0 0 0 130 129 131 130 130 130 128 129 128 127 128 127 127 126 126 129 128 -193 128 130 130 129 128 127 126 129 126 128 128 127 126 127 127 128 127 129 128 130 130 128 128 130 129 130 129 130 127 127 131 130 128 129 129 131 130 129 129 127 126 127 126 126 125 125 128 -193 -193 131 129 130 132 134 130 131 131 129 130 130 130 127 125 131 127 127 130 132 130 129 130 128 130 130 131 129 127 130 131 131 131 129 130 127 132 133 131 131 131 131 131 132 132 131 127 132 131 128 128 129 130 130 130 130 131 132 135 136 135 135 134 133 134 133 132 132 131 133 130 130 132 131 131 132 131 132 129 133 132 130 131 131 132 130 130 130 130 131 132 131 132 132 133 134 133 132 132 132 133 132 133 132 130 133 132 132 133 133 132 131 134 134 133 134 134 133 133 133 132 132 132 132 131 131 132 131 135 133 133 133 131 132 132 132 132 124 128 129 128 134 133 135 134 135 136 136 137 137 136 136 134 135 135 134 134 133 135 135 135 136 135 135 136 136 137 137 137 137 139 143 142 141 144 144 143 142 142 143 0 0 0 0 0
    0 0 0 0 0 0 0 0 0 0 0 0 0 0 0 0 0 0 0 0 0 0 0 0 0 0 0 0 0 0 0 0 0 0 0 0 0 0 0 0 0 0 0 0 0 0 0 0 0 0 0 0 0 0 0 0 0 0 0 0 0 0 0 0 0 0 0 0 0 130 129 131 129 130 130 128 128 127 127 127 126 127 126 125 127 126 -193 -193 131 129 129 129 128 127 130 126 127 127 127 125 126 126 127 126 128 127 129 129 127 128 129 128 129 128 130 127 127 131 130 128 129 129 131 130 129 130 128 127 128 127 126 125 124 127 -209 -193 130 129 129 132 133 130 130 131 129 131 130 131 128 126 131 128 128 131 132 130 129 130 129 130 130 131 129 126 130 131 132 132 129 130 128 131 133 131 131 131 131 131 131 132 130 127 131 131 127 128 129 131 131 131 131 132 132 135 136 136 136 134 133 134 134 132 132 131 133 130 130 132 131 131 131 131 131 128 133 131 129 131 131 131 129 130 129 130 132 133 131 132 132 133 134 133 133 132 132 133 132 133 131 130 132 131 132 132 132 131 130 133 133 133 134 133 133 133 132 132 132 132 133 131 132 133 132 135 133 133 133 131 132 132 132 132 124 130 132 133 136 136 137 136 137 137 138 139 138 137 136 134 135 135 135 134 134 135 136 136 137 136 136 136 137 137 137 137 138 140 144 142 141 145 144 143 142 142 143 0 0 0 0 0
    0 0 0 0 0 0 0 0 0 0 0 0 0 0 0 0 0 0 0 0 0 0 0 0 0 0 0 0 0 0 0 0 0 0 0 0 0 0 0 0 0 0 0 0 0 0 0 0 0 0 0 0 0 0 0 0 0 0 0 0 0 0 0 0 0 0 0 0 0 130 129 131 130 130 130 129 129 128 127 128 127 127 126 125 126 126 126 127 131 129 129 130 129 128 132 128 129 128 128 126 126 126 127 126 127 127 129 129 127 127 129 128 129 128 129 127 127 130 130 128 129 129 131 130 130 130 128 127 128 127 126 125 124 126 -193 -193 130 129 128 132 133 130 131 131 130 131 131 131 128 127 132 129 128 132 132 130 130 130 130 130 130 131 129 125 130 132 132 132 130 130 129 131 133 131 131 131 130 130 131 131 130 126 130 130 127 129 130 131 132 132 132 133 133 135 136 136 136 135 133 134 134 133 133 131 134 130 130 132 131 131 131 131 131 128 132 131 129 130 131 131 129 130 129 130 131 133 131 132 132 133 134 133 133 132 131 133 132 133 131 129 131 131 131 131 132 131 130 133 133 132 134 134 133 133 133 132 133 133 133 132 132 133 132 135 132 132 132 130 131 131 132 132 124 131 133 134 137 137 139 138 137 138 139 140 139 138 138 134 136 136 135 135 134 135 136 137 138 137 136 136 137 138 138 137 138 140 144 142 142 145 144 143 142 143 143 0 0 0 0 0
    0 0 0 0 0 0 0 0 0 0 0 0 0 0 0 0 0 0 0 0 0 0 0 0 0 0 0 0 0 0 0 0 0 0 0 0 0 0 0 0 0 0 0 0 0 0 0 0 0 0 0 0 0 0 0 0 0 0 0 0 0 0 0 0 0 0 0 0 0 129 128 130 129 130 131 130 130 128 128 128 127 127 125 125 125 125 125 127 131 131 130 131 130 129 132 130 131 129 129 127 128 127 128 126 127 127 129 129 127 127 128 128 129 128 129 126 127 130 130 129 129 129 131 130 130 130 128 127 128 127 125 125 123 125 -209 -193 128 128 128 132 133 130 131 131 130 131 131 132 129 128 132 129 128 132 132 130 130 130 130 130 131 130 129 125 130 132 132 132 130 129 129 130 133 131 131 131 129 130 131 131 130 126 129 128 125 128 129 131 131 132 132 133 133 135 136 136 136 134 132 134 134 133 133 132 134 130 130 132 131 130 131 131 131 127 132 131 129 130 131 131 129 130 129 131 131 133 131 132 132 133 134 133 133 133 131 133 132 133 131 129 131 131 131 131 132 131 130 133 133 132 134 134 133 133 133 133 133 133 133 132 132 133 132 135 132 132 131 130 131 131 132 132 124 133 135 136 138 138 139 138 138 139 140 140 140 139 139 135 136 137 136 135 134 135 137 138 138 136 136 136 137 138 138 138 138 140 145 142 142 146 144 143 143 143 144 0 0 0 0 0
    0 0 0 0 0 0 0 0 0 0 0 0 0 0 0 0 0 0 0 0 0 0 0 0 0 0 0 0 0 0 0 0 0 0 0 0 0 0 0 0 0 0 0 0 0 0 0 0 0 0 0 0 0 0 0 0 0 0 0 0 0 0 0 0 0 0 0 0 0 129 128 131 130 132 133 132 131 129 128 129 127 127 125 124 124 124 124 125 129 130 128 129 129 130 133 132 133 131 130 128 129 128 129 127 128 127 129 129 128 127 128 127 129 128 129 126 126 130 130 129 130 130 131 130 130 130 128 127 128 126 125 124 123 125 123 127 127 127 127 132 132 131 131 131 130 132 131 132 129 127 131 128 128 132 132 130 129 130 130 130 131 130 128 125 130 131 131 132 130 128 129 130 132 130 131 131 129 130 131 131 130 126 129 127 124 127 127 129 130 132 132 132 133 135 136 -193 136 134 132 135 134 134 133 132 134 130 131 132 131 130 130 131 130 127 133 131 129 130 132 130 129 130 129 131 131 133 131 132 132 133 134 133 133 133 132 134 133 134 132 129 131 131 131 131 132 131 130 133 134 133 135 134 134 134 134 133 133 133 134 132 133 133 132 135 132 132 131 130 131 131 132 132 124 135 136 137 138 138 140 139 139 140 141 141 140 140 138 -193 -193 -193 136 133 132 135 138 139 139 137 137 137 138 139 138 138 139 141 146 143 143 147 144 143 143 143 144 0 0 0 0 0
    0 0 0 0 0 0 0 0 0 0 0 0 0 0 0 0 0 0 0 0 0 0 0 0 0 0 0 0 0 0 0 0 0 0 0 0 0 0 0 0 0 0 0 0 0 0 0 0 0 0 0 0 0 0 0 0 0 0 0 0 0 0 0 0 0 0 0 0 0 130 129 132 131 134 135 -193 -193 130 129 129 127 127 125 123 123 123 124 124 129 130 129 128 129 130 133 131 133 131 130 128 130 128 129 127 128 127 130 129 128 126 128 127 128 128 128 126 126 130 130 129 130 130 131 131 129 130 128 127 128 126 125 124 123 125 123 126 127 127 127 132 132 131 131 131 131 132 131 132 128 127 131 128 129 131 131 130 129 130 130 129 130 130 129 124 128 130 130 131 130 128 129 129 132 131 132 131 129 130 132 131 130 126 129 126 124 128 127 128 129 132 131 131 133 134 135 135 136 133 130 134 134 134 133 132 134 130 131 132 131 131 130 131 130 127 132 130 128 129 131 129 128 129 128 130 130 132 130 132 132 133 134 133 133 133 132 134 133 134 132 129 131 131 131 131 132 130 131 133 134 133 135 135 134 135 134 134 134 134 134 132 133 133 132 135 131 131 131 130 131 132 133 133 126 136 137 138 139 139 140 139 139 140 141 141 141 140 138 -193 -193 137 -193 135 135 136 140 140 140 138 138 139 140 140 140 139 141 143 146 144 143 147 143 144 144 144 145 0 0 0 0 0
    0 0 0 0 0 0 0 0 0 0 0 0 0 0 0 0 0 0 0 0 0 0 0 0 0 0 0 0 0 0 0 0 0 0 0 0 0 0 0 0 0 0 0 0 0 0 0 0 0 0 0 0 0 0 0 0 0 0 0 0 0 0 0 0 0 0 0 0 0 130 128 131 131 134 -193 -209 -193 -193 128 128 126 126 123 122 122 123 123 124 129 130 129 127 128 130 133 131 133 131 130 129 130 128 129 127 128 127 130 129 128 126 128 126 128 127 128 125 126 129 130 129 130 131 131 131 130 130 129 128 129 127 125 124 122 124 123 125 126 127 126 132 132 131 131 131 131 132 131 132 -193 127 131 128 128 131 131 129 129 131 130 129 130 130 129 124 128 129 128 131 131 128 129 130 132 131 132 131 129 130 132 131 130 127 129 125 123 128 127 128 129 -193 -209 -193 -193 -193 -209 134 135 132 128 134 134 134 133 132 134 130 131 132 131 131 130 130 130 126 132 129 127 128 131 128 128 129 128 130 130 132 130 131 131 133 134 133 133 133 132 134 134 134 132 129 131 131 131 131 132 130 131 133 135 133 135 135 135 135 135 135 134 134 134 133 133 133 132 135 131 131 130 130 131 132 133 134 128 137 140 141 142 142 142 140 140 142 142 141 141 140 137 134 136 137 -193 135 137 139 143 143 143 143 142 143 144 144 142 142 144 145 148 146 145 148 144 145 145 145 147 0 0 0 0 0
    0 0 0 0 0 0 0 0 0 0 0 0 0 0 0 0 0 0 0 0 0 0 0 0 0 0 0 0 0 0 0 0 0 0 0 0 0 0 0 0 0 0 0 0 0 0 0 0 0 0 0 0 0 0 0 0 0 0 0 0 0 0 0 0 0 0 0 0 0 131 129 132 -193 -209 -209 -193 397 -193 128 128 125 126 123 121 122 123 123 123 128 129 127 125 127 130 133 132 133 131 -193 -209 -193 129 130 127 128 128 130 129 128 126 128 126 128 127 128 125 126 129 130 129 130 131 131 131 130 131 130 129 130 128 126 125 123 126 125 125 126 127 126 132 132 131 131 130 131 132 131 132 -193 126 130 127 128 130 130 129 129 131 130 129 130 130 129 124 127 -193 127 132 132 129 130 130 132 131 132 131 129 129 131 131 130 126 128 124 123 128 126 127 -193 -209 -209 -209 -209 -209 -209 -209 134 130 126 133 133 134 133 132 134 130 131 132 131 130 129 129 129 125 131 128 126 127 130 128 128 129 128 130 130 132 130 131 132 132 133 133 132 133 132 134 133 134 132 129 131 131 131 131 132 130 131 133 135 134 135 135 135 135 135 135 135 135 135 133 134 134 133 136 132 131 131 131 132 133 134 134 131 137 141 143 144 144 143 141 141 143 143 142 141 139 136 135 136 138 138 137 139 143 146 146 145 147 147 147 148 147 147 145 147 148 149 149 148 150 147 147 148 148 150 0 0 0 0 0
    0 0 0 0 0 0 0 0 0 0 0 0 0 0 0 0 0 0 0 0 0 0 0 0 0 0 0 0 0 0 0 0 0 0 0 0 0 0 0 0 0 0 0 0 0 0 0 0 0 0 0 0 0 0 0 0 0 0 0 0 0 0 0 0 0 0 0 0 0 -193 131 133 -209 -209 -209 -209 399 -209 -209 127 124 125 122 121 121 122 122 122 129 130 127 126 128 131 134 133 134 -209 -209 -209 -177 129 130 127 128 128 130 130 128 126 127 126 128 128 -193 126 126 129 131 130 -209 -193 132 131 130 131 131 131 131 130 128 127 126 128 127 126 127 129 127 132 132 131 131 131 132 132 131 -193 -209 -193 129 127 128 130 129 129 129 131 130 129 130 130 128 -193 -209 -209 -209 -193 -193 130 131 130 133 131 132 131 128 129 130 130 129 125 126 122 122 126 124 -193 -209 -209 -209 -209 -193 -209 -209 -209 133 127 124 132 133 135 134 133 135 130 132 132 131 130 129 129 129 125 130 127 125 126 130 127 128 128 127 130 129 132 130 131 132 132 133 133 133 134 132 134 134 134 132 130 131 131 131 131 132 130 131 133 136 135 135 135 136 136 136 136 136 136 136 135 135 135 134 136 131 130 130 131 131 132 134 134 131 137 141 145 146 146 145 142 142 144 144 143 140 139 136 136 138 139 140 140 144 147 147 148 148 148 148 150 149 149 148 148 149 149 150 151 150 152 152 152 153 152 153 0 0 0 0 0
    0 0 0 0 0 0 0 0 0 0 0 0 0 0 0 0 0 0 0 0 0 0 0 0 0 0 0 0 0 0 0 0 0 0 0 0 0 0 0 0 0 0 0 0 0 0 0 0 0 0 0 0 0 0 0 0 0 0 0 0 0 0 0 0 0 0 0 0 0 -209 -209 134 136 139 -209 -209 -209 -193 -193 126 124 125 122 120 121 122 122 -225 -225 -225 -225 124 128 133 -225 -225 -209 -193 -177 -225 -225 -209 130 127 128 130 130 131 130 125 128 -209 -209 -209 574 -193 -193 129 -193 -193 -193 -177 -193 -193 131 132 132 132 132 131 129 128 126 130 128 126 128 130 127 132 133 132 132 131 132 -193 -193 -193 -209 -193 129 127 129 130 128 128 129 131 130 128 130 129 126 -209 -209 -209 -193 -209 -193 128 130 128 133 131 132 131 128 128 130 129 129 124 125 121 120 123 123 -209 -209 -209 -209 -177 -177 -209 -177 -193 -193 125 122 128 131 134 133 133 135 130 132 132 131 130 129 129 129 124 130 127 125 126 130 126 127 128 127 129 128 131 129 131 131 132 133 133 132 134 132 134 134 134 132 130 131 131 131 131 132 130 131 133 136 135 135 136 137 137 137 138 137 137 137 136 136 136 135 136 130 129 129 129 130 132 133 133 130 137 140 145 143 144 142 140 140 142 142 140 137 137 133 135 137 138 139 140 144 147 146 148 149 150 149 151 150 149 149 148 149 149 149 150 148 150 151 153 155 153 154 0 0 0 0 0
    0 0 0 0 0 0 0 0 0 0 0 0 0 0 0 0 0 0 0 0 0 0 0 0 0 0 0 0 0 0 0 0 0 0 0 0 0 0 0 0 0 0 0 0 0 0 0 0 0 0 0 0 0 0 0 0 0 0 0 0 0 0 0 0 0 0 0 0 0 -209 -209 -193 -225 141 142 146 -193 176 -193 128 125 127 123 -225 -225 -225 122 -225 -225 -225 -225 -225 -225 -225 -225 -225 -225 -225 -225 -225 -225 -209 -209 -209 -209 -209 -209 -209 -209 -177 -177 -177 -209 -177 -177 572 571 -209 -193 -193 -193 716 716 -177 -193 132 132 131 132 131 128 127 125 129 127 126 129 -193 128 133 134 133 133 -193 -209 -209 -193 -193 -209 -209 -193 125 126 128 127 128 129 131 130 128 129 129 -193 -209 380 -209 -177 -209 129 127 128 126 133 131 132 132 129 129 131 131 130 124 125 -209 117 -209 -209 -209 -209 -209 -209 -177 -177 -177 -177 -177 -209 121 120 124 125 132 132 132 134 130 132 132 131 130 129 129 129 124 131 127 125 126 130 127 128 128 128 129 128 131 129 131 131 132 133 133 132 134 133 135 134 134 132 130 131 131 131 131 132 129 131 133 137 135 -193 -193 138 139 138 139 138 138 138 137 137 137 135 136 130 128 128 128 129 131 133 133 129 137 139 142 140 142 140 138 138 139 138 137 135 134 132 136 138 138 139 140 143 145 145 145 144 149 148 151 149 148 149 148 149 149 149 149 147 149 150 151 153 153 153 0 0 0 0 0
    0 0 0 0 0 0 0 0 0 0 0 0 0 0 0 0 0 0 0 0 0 0 0 0 0 0 0 0 0 0 0 0 0 0 0 0 0 0 0 0 0 0 0 0 0 0 0 0 0 0 0 0 0 0 0 0 0 0 0 0 0 0 0 0 0 0 0 0 0 -193 -209 -209 -209 137 144 149 151 -193 -209 -209 -209 -209 -209 -225 -225 -225 -209 -209 -209 -225 -225 -225 -225 -225 -225 -225 -225 -225 -225 -225 -225 -209 -209 -209 -177 -177 613 612 611 611 612 612 -193 576 574 571 572 -193 -209 -209 -209 -209 -193 -193 -209 -209 -209 -193 -209 -209 -209 -209 -209 -209 -209 -209 -209 230 -209 -209 -209 -209 -209 -209 -209 540 -209 -209 -209 -209 -209 -209 -209 -209 -193 125 127 130 130 127 -209 -209 -209 -209 -209 621 628 -193 -193 125 126 124 133 131 132 133 130 131 133 133 132 126 128 -209 -209 -209 -209 -209 -209 -209 -209 -177 -177 -177 -177 -177 -209 115 118 121 120 127 130 130 134 130 132 132 131 131 130 129 129 125 132 128 126 128 131 128 128 128 128 128 127 130 128 130 131 133 133 133 132 135 133 135 135 133 133 130 132 132 131 132 132 129 133 134 138 -209 -209 -209 141 141 139 140 139 138 140 137 137 137 135 136 130 128 129 128 129 131 133 132 127 135 137 139 138 140 138 136 137 138 137 137 135 134 132 136 138 139 140 142 148 149 149 148 149 153 151 152 151 149 149 148 149 149 148 148 147 149 151 152 154 154 155 0 0 0 0 0
    0 0 0 0 0 0 0 0 0 0 0 0 0 0 0 0 0 0 0 0 0 0 0 0 0 0 0 0 0 0 0 0 0 0 0 0 0 0 0 0 0 0 0 0 0 0 0 0 0 0 0 0 0 0 0 0 0 0 0 0 0 0 0 0 0 0 0 0 0 -177 -209 -209 33 -209 149 153 154 155 157 -209 -209 -177 -177 -209 -209 -177 -209 -193 -177 -193 -209 -209 -209 -209 -209 -209 -225 -225 -225 -177 466 465 470 -209 -177 -177 -177 -177 -177 -177 -177 614 617 -209 -209 -209 -209 -209 -209 -209 -209 -209 861 866 865 -177 -209 -209 -209 -209 -209 -209 -209 -209 -209 -209 241 -209 -209 -209 -209 -209 -209 524 533 -209 -209 -209 -209 -209 -209 -193 -209 -209 -209 -209 -209 -193 -209 -209 -209 -193 -209 -209 -225 -225 -225 -225 -209 -209 -209 -193 -193 -193 -193 -193 -193 132 135 135 133 129 -209 -209 -193 -193 -193 539 -193 -193 -209 -177 -177 -209 -177 -177 -209 -209 115 117 118 123 126 126 132 129 132 132 132 132 131 130 131 127 134 130 127 128 131 129 127 127 126 126 126 -193 127 129 130 132 132 132 132 135 134 136 136 134 133 132 133 133 132 132 133 129 134 135 141 -209 -209 -209 -209 -209 139 141 139 137 140 138 138 137 135 136 131 128 129 129 129 131 133 132 126 133 136 138 137 138 136 135 136 136 136 136 135 134 133 136 138 140 142 145 149 151 152 152 152 155 154 152 151 149 149 148 148 148 147 147 145 148 151 151 153 153 156 0 0 0 0 0
    0 0 0 0 0 0 0 0 0 0 0 0 0 0 0 0 0 0 0 0 0 0 0 0 0 0 0 0 0 0 0 0 0 0 0 0 0 0 0 0 0 0 0 0 0 0 0 0 0 0 0 0 0 0 0 0 0 0 0 0 0 0 0 0 0 0 0 0 0 -193 -209 -177 -177 -193 -193 156 156 155 156 156 156 159 -193 -209 -209 -209 -209 -193 -193 -209 -193 -209 -193 -209 -209 -209 -225 -225 -225 -193 -193 161 161 160 157 159 -193 -193 -193 -209 -193 -209 158 164 -209 -209 -209 -209 -209 -209 -209 -209 -193 -177 -177 -193 -209 266 265 -193 -209 -209 -209 -209 -193 -209 -193 312 -193 -193 -209 -209 -209 -177 -177 -209 -209 -209 -209 0 10 -193 -193 10 -209 -209 -209 -209 -209 -209 -209 11 21 -209 -209 -209 -209 -209 -193 113 115 117 -209 123 126 -193 0 -193 -209 -209 -193 -209 -209 -209 -209 -209 535 538 -193 -209 -209 -209 -193 -209 -177 -177 -193 -209 -209 118 119 127 133 128 130 130 133 -177 -177 135 133 133 134 135 142 -209 294 -193 296 296 -209 -209 -209 -209 -209 -209 -209 -209 -193 -209 -209 -193 136 137 137 141 140 136 135 133 133 134 133 132 133 -193 134 -209 145 -209 -209 -209 -209 -209 -193 140 -193 136 140 141 141 139 -193 -209 129 127 129 130 129 130 132 131 127 133 135 138 136 136 134 133 134 135 135 135 133 133 135 138 141 143 146 149 151 151 152 152 154 156 153 152 151 149 149 148 148 148 147 147 144 147 150 150 153 154 157 0 0 0 0 0
    0 0 0 0 0 0 0 0 0 0 0 0 0 0 0 0 0 0 0 0 0 0 0 0 0 0 0 0 0 0 0 0 0 0 0 0 0 0 0 0 0 0 0 0 0 0 0 0 0 0 0 0 0 0 0 0 0 0 0 0 0 0 0 0 0 0 0 0 0 -193 155 -193 -193 156 156 157 157 157 158 158 158 161 162 160 154 158 155 159 157 156 -193 -193 155 155 153 153 153 158 162 159 158 158 159 158 157 158 -193 -193 -193 156 155 156 157 162 157 155 154 157 157 -209 -209 -209 -209 -209 -209 -209 -209 -209 -193 -193 -209 -209 311 312 311 311 -193 312 315 -193 -209 -209 -209 -209 -209 -209 -193 579 -209 -209 -209 -209 -209 -209 -209 -209 -209 -209 -209 -193 -209 14 21 -209 -209 57 -209 -209 -177 115 116 -209 -209 -209 -209 -209 0 -209 -193 -209 0 -209 -193 -193 -209 -209 -209 -209 -209 -209 -209 -209 -209 -209 14 20 -193 -209 -209 -193 -209 -193 -209 -209 -209 -193 -209 -209 -209 -209 -209 -209 157 150 153 156 157 -193 -193 -193 159 157 -209 -209 -193 -209 -209 -193 -209 -193 481 -209 -193 152 158 157 -193 0 -193 -209 -209 -209 -209 -193 -209 -209 -209 -209 -209 -209 -209 -209 -209 -209 138 143 -209 137 141 147 150 -193 -209 -193 -193 126 129 131 129 128 130 130 128 132 134 138 137 135 132 131 132 132 132 133 129 131 134 138 140 144 147 150 151 152 153 153 154 156 154 154 151 149 150 148 148 149 148 147 145 148 151 151 153 156 159 0 0 0 0 0
    0 0 0 0 0 0 0 0 0 0 0 0 0 0 0 0 0 0 0 0 0 0 0 0 0 0 0 0 0 0 0 0 0 0 0 0 0 0 0 0 0 0 0 0 0 0 0 0 0 0 0 0 0 0 0 0 0 0 0 0 0 0 0 0 0 0 0 0 0 156 155 155 155 156 157 158 157 157 158 158 158 160 161 159 154 158 153 156 155 154 -193 -193 154 153 153 153 154 157 161 159 158 158 159 158 157 158 157 -193 156 156 155 155 156 159 155 153 152 156 156 -209 -193 159 -209 -209 155 157 156 -193 -193 -193 -209 -209 -209 -209 -193 156 -209 -193 -193 323 -209 -209 -193 -209 -209 -193 569 574 -193 -209 -209 -209 -209 -209 -209 41 -209 -193 -209 -209 -209 -209 -209 -209 -209 51 -209 -209 -209 -209 -209 -209 -209 -193 164 -193 -209 -193 -209 -193 -193 -209 -209 -209 -193 -209 -209 -209 -209 -209 -209 -193 -193 -209 -209 -209 -209 -209 -209 -225 -193 -193 -193 -209 -225 -209 -209 -209 -209 166 164 158 158 152 155 155 156 156 156 159 158 157 158 157 157 158 157 156 156 -193 -193 -193 -193 -193 161 161 -193 0 -177 -193 -193 -193 157 154 153 155 157 155 157 -193 -209 -209 -209 -209 148 151 156 160 151 155 157 162 164 -193 -209 125 132 135 -209 -209 -209 124 125 124 130 136 135 131 131 132 133 133 133 134 130 132 137 139 142 146 149 152 153 153 154 155 155 157 156 156 154 151 151 149 148 149 148 147 145 148 151 151 154 157 162 0 0 0 0 0
    0 0 0 0 0 0 0 0 0 0 0 0 0 0 0 0 0 0 0 0 0 0 0 0 0 0 0 0 0 0 0 0 0 0 0 0 0 0 0 0 0 0 0 0 0 0 0 0 0 0 0 0 0 0 0 0 0 0 0 0 0 0 0 0 0 0 0 0 0 156 156 156 155 156 157 158 157 157 158 157 158 160 160 158 154 157 153 154 154 153 153 152 153 153 152 152 154 156 161 159 158 158 159 158 157 158 157 156 156 156 155 155 156 158 155 153 153 155 156 -193 159 159 155 154 157 159 158 161 161 160 -193 -209 -193 -193 -193 156 159 156 157 -193 -193 -209 -209 -209 -209 -209 -177 -177 -193 -177 -177 -209 -209 -209 -193 -193 -193 28 -209 -209 -209 -193 -193 -193 -193 -193 -193 162 164 162 156 -193 155 160 159 159 159 -193 155 158 159 -209 -209 -209 -209 -209 -209 -209 559 -209 -209 -209 -209 -209 -193 -209 -209 -225 -193 -225 -209 -193 161 165 166 -193 165 164 163 163 162 159 158 154 154 155 156 155 156 159 157 157 159 158 158 158 158 157 157 157 -193 -193 -177 -193 162 161 161 -193 159 158 158 158 159 157 156 157 160 157 160 160 165 163 -193 161 158 158 163 165 164 161 165 167 -209 -209 -209 -209 77 80 83 88 98 -193 106 114 120 129 133 128 131 133 135 136 135 137 135 136 141 145 147 150 152 154 155 155 156 156 156 159 157 159 158 154 153 151 149 150 148 146 145 147 150 150 153 158 162 0 0 0 0 0
    0 0 0 0 0 0 0 0 0 0 0 0 0 0 0 0 0 0 0 0 0 0 0 0 0 0 0 0 0 0 0 0 0 0 0 0 0 0 0 0 0 0 0 0 0 0 0 0 0 0 0 0 0 0 0 0 0 0 0 0 0 0 0 0 0 0 0 0 0 157 156 156 156 156 157 158 157 157 158 157 157 159 159 157 154 156 153 154 154 153 153 152 153 153 153 153 155 157 161 159 158 158 159 158 157 158 157 156 157 157 156 156 156 158 156 154 154 156 156 160 160 160 156 155 157 159 159 162 161 161 -193 156 157 158 157 158 160 157 157 159 158 158 -193 157 -193 -209 -193 -177 -193 -177 -177 -209 -209 -193 32 34 -193 28 -193 -193 -193 -193 -193 158 157 -193 160 161 163 161 156 156 155 160 159 159 158 154 155 156 158 -193 -209 -209 -209 -193 -209 -209 -193 -209 -193 -209 -209 -209 -209 -193 -193 -193 157 161 155 155 160 164 164 163 163 162 162 162 161 159 158 155 155 156 156 155 156 158 157 158 159 158 158 159 159 158 157 159 158 -193 -193 159 162 161 162 159 160 159 159 158 159 156 156 156 158 158 160 160 162 162 162 164 165 164 166 168 167 165 167 167 -209 -209 -193 -209 -193 85 85 90 100 -209 -209 109 117 123 124 123 126 131 135 136 135 138 138 140 148 150 151 154 155 156 156 157 157 157 157 159 157 160 160 157 155 154 151 -193 150 148 147 147 150 150 153 159 162 0 0 0 0 0
    0 0 0 0 0 0 0 0 0 0 0 0 0 0 0 0 0 0 0 0 0 0 0 0 0 0 0 0 0 0 0 0 0 0 0 0 0 0 0 0 0 0 0 0 0 0 0 0 0 0 0 0 0 0 0 0 0 0 0 0 0 0 0 0 0 0 0 0 0 157 156 156 156 156 157 158 157 157 158 157 158 159 159 157 154 156 154 154 154 153 153 153 154 153 153 154 155 157 161 158 157 158 159 158 156 157 157 155 156 156 156 156 156 158 156 156 155 157 157 161 160 160 156 156 157 159 159 162 161 162 -193 158 158 159 158 159 161 158 158 159 159 159 158 157 157 -209 -209 -177 -193 -209 -209 -209 -209 -209 -177 -193 -193 -193 -193 159 159 157 157 157 156 157 158 159 161 159 156 157 156 160 160 159 159 155 155 156 157 157 155 -193 -209 152 155 -209 -209 -193 -193 -209 -209 -209 -209 -209 154 155 158 159 156 155 159 162 163 162 161 160 161 161 161 159 158 155 156 157 157 156 156 158 158 158 159 159 158 159 160 158 157 159 158 157 160 159 163 161 163 160 160 160 160 159 159 157 158 156 159 159 160 160 161 162 162 163 165 164 165 166 166 165 165 166 166 163 164 163 161 162 -209 -209 -209 -209 -209 -209 -209 118 -209 -209 128 134 140 142 143 148 150 149 152 153 154 157 157 158 158 158 159 157 158 160 157 160 160 158 156 157 -209 -209 -209 149 150 150 -193 151 156 163 165 0 0 0 0 0
    0 0 0 0 0 0 0 0 0 0 0 0 0 0 0 0 0 0 0 0 0 0 0 0 0 0 0 0 0 0 0 0 0 0 0 0 0 0 0 0 0 0 0 0 0 0 0 0 0 0 0 0 0 0 0 0 0 0 0 0 0 0 0 0 0 0 0 0 0 157 156 156 156 156 157 158 157 158 158 157 157 158 158 156 154 155 153 153 154 153 154 153 154 154 154 155 156 157 160 157 157 157 158 157 156 156 156 154 156 156 155 155 156 158 157 157 157 159 160 163 161 161 158 157 157 159 159 162 161 163 -193 158 158 159 159 159 160 158 158 159 159 159 158 157 157 -193 -209 -209 -209 -209 -209 -209 -209 -209 -209 -193 -193 -193 161 160 160 158 157 158 156 156 157 157 159 158 156 157 157 160 160 158 158 155 156 156 156 156 155 154 153 153 155 154 -209 -193 -209 -209 -193 -209 -209 153 155 155 157 159 157 155 159 160 162 160 160 159 160 160 160 158 158 155 157 159 158 156 157 159 158 158 159 159 158 159 160 158 157 158 158 157 159 159 163 160 162 160 160 160 160 159 159 157 158 156 159 159 160 160 160 162 160 162 164 163 164 165 165 165 165 165 165 163 164 163 162 163 163 165 162 158 -209 142 -209 -209 -209 -209 141 145 151 151 153 153 154 153 156 155 155 159 158 159 159 159 160 158 159 160 157 159 159 158 157 159 157 -193 -209 -209 -209 -209 -209 -209 163 166 167 0 0 0 0 0
    0 0 0 0 0 0 0 0 0 0 0 0 0 0 0 0 0 0 0 0 0 0 0 0 0 0 0 0 0 0 0 0 0 0 0 0 0 0 0 0 0 0 0 0 0 0 0 0 0 0 0 0 0 0 0 0 0 0 0 0 0 0 0 0 0 0 0 0 0 156 156 157 156 157 157 159 157 158 158 157 157 158 157 156 154 154 153 153 154 0 -256 -1 13090 154 154 155 156 157 159 157 156 156 157 156 156 156 156 154 156 156 155 155 156 158 157 158 158 160 161 164 162 161 159 159 158 158 158 162 160 162 -193 157 158 158 159 159 160 158 158 159 159 158 158 157 157 156 156 -209 154 -209 -193 156 161 -209 -193 -193 -193 162 161 160 160 158 158 158 157 156 157 158 159 158 157 157 157 159 160 158 157 155 156 156 156 156 155 155 154 154 156 154 154 153 153 152 -193 -209 -193 153 154 154 156 157 156 154 158 159 161 159 159 158 159 159 159 158 158 155 157 159 158 157 157 159 158 158 160 158 158 159 160 158 156 157 157 156 158 158 162 160 162 160 160 159 160 159 159 156 157 156 159 158 160 159 159 161 159 162 163 162 164 164 164 164 164 165 164 163 164 163 163 164 164 166 164 160 164 154 -193 -209 150 -193 150 152 153 153 155 156 157 156 160 158 157 161 159 160 159 159 159 157 159 160 157 159 159 159 159 161 159 -193 -209 -209 -209 -209 171 175 -193 168 168 0 0 0 0 0
    0 0 0 0 0 0 0 0 0 0 0 0 0 0 0 0 0 0 0 0 0 0 0 0 0 0 0 0 0 0 0 0 0 0 0 0 0 0 0 0 0 0 0 0 0 0 0 0 0 0 0 0 0 0 0 0 0 0 0 0 0 0 0 0 0 0 0 0 0 156 156 157 157 157 158 159 158 158 158 157 157 158 157 156 155 155 154 154 154 154 154 154 154 154 154 155 156 157 159 156 156 156 157 156 156 155 155 154 155 155 155 155 156 157 157 158 158 160 161 163 162 161 160 160 158 157 157 161 158 161 157 156 157 158 158 159 159 157 157 158 158 157 157 156 156 155 156 154 154 154 156 156 161 160 160 161 161 162 161 160 161 159 159 159 158 157 157 157 158 157 157 156 157 158 159 158 157 156 156 156 156 156 156 155 155 155 156 155 155 154 154 153 153 153 153 153 154 154 156 157 156 155 158 158 160 158 158 157 158 158 159 157 157 155 158 159 158 157 157 159 158 158 160 158 158 159 159 158 156 157 157 156 158 157 162 160 162 159 160 159 159 158 158 156 157 156 159 158 160 159 159 161 159 162 163 161 163 163 163 163 163 164 164 162 163 162 162 164 164 164 158 157 163 155 155 154 153 154 152 154 155 154 156 157 159 160 164 160 159 162 160 160 159 159 158 156 158 160 156 157 157 159 160 161 157 -193 -193 -209 -193 -209 171 177 170 172 171 0 0 0 0 0
    0 0 0 0 0 0 0 0 0 0 0 0 0 0 0 0 0 0 0 0 0 0 0 0 0 0 0 0 0 0 0 0 0 0 0 0 0 0 0 0 0 0 0 0 0 0 0 0 0 0 0 0 0 0 0 0 0 0 0 0 0 0 0 0 0 0 0 0 0 156 155 157 156 157 157 158 157 158 158 157 157 158 157 157 156 156 154 154 154 154 153 154 154 154 154 155 156 157 159 156 156 156 156 156 155 155 155 154 155 155 155 155 156 157 157 159 159 161 162 164 163 162 161 163 159 158 157 161 158 160 156 156 157 158 158 160 158 157 157 157 158 157 156 156 155 155 155 154 154 154 156 156 160 160 160 160 161 161 161 159 160 158 159 159 158 157 157 157 157 156 157 156 157 158 159 158 158 156 157 156 156 156 156 155 155 155 156 155 155 155 154 153 153 153 154 155 155 155 157 158 157 157 160 159 159 157 158 157 158 158 158 157 157 155 159 159 158 157 157 159 158 158 160 158 158 159 159 158 155 157 157 156 160 158 162 159 161 159 159 158 158 157 158 156 157 155 158 158 159 159 158 160 159 161 162 161 162 163 162 163 162 164 163 160 163 162 162 163 163 161 156 157 161 156 155 154 153 155 154 155 156 155 157 158 160 162 165 162 161 163 161 161 160 159 159 155 157 158 155 154 154 156 157 158 157 158 160 160 164 168 170 172 170 171 171 0 0 0 0 0
    0 0 0 0 0 0 0 0 0 0 0 0 0 0 0 0 0 0 0 0 0 0 0 0 0 0 0 0 0 0 0 0 0 0 0 0 0 0 0 0 0 0 0 0 0 0 0 0 0 0 0 0 0 0 0 0 0 0 0 0 0 0 0 0 0 0 0 0 0 155 155 156 155 156 156 157 156 157 157 156 157 158 157 156 155 155 154 154 154 153 153 153 153 154 154 155 156 157 158 156 155 156 156 156 155 155 155 154 156 156 156 156 158 158 159 161 161 163 163 165 163 162 162 163 159 158 157 161 158 161 156 156 156 157 157 159 157 156 156 157 157 156 156 156 155 155 155 154 154 154 156 156 159 159 159 159 160 160 160 158 160 158 158 158 158 157 157 156 156 156 157 156 157 158 159 158 157 156 157 156 156 156 156 155 155 155 156 155 155 155 154 154 154 154 155 155 156 156 157 158 158 158 160 159 159 157 157 157 158 157 158 157 157 155 159 159 157 157 156 158 157 158 159 158 158 159 160 158 155 157 157 156 160 158 162 159 161 159 159 158 158 157 157 155 156 155 158 157 159 158 158 160 159 161 162 160 161 161 161 162 161 162 161 159 162 161 161 163 161 158 155 156 160 156 155 154 153 154 154 155 156 157 158 160 161 163 166 162 161 163 161 160 159 159 158 155 156 156 154 152 152 153 153 154 154 154 156 156 161 165 166 167 167 168 169 0 0 0 0 0
    0 0 0 0 0 0 0 0 0 0 0 0 0 0 0 0 0 0 0 0 0 0 0 0 0 0 0 0 0 0 0 0 0 0 0 0 0 0 0 0 0 0 0 0 0 0 0 0 0 0 0 0 0 0 0 0 0 0 0 0 0 0 0 0 0 0 0 0 0 155 154 155 154 155 155 156 155 156 156 155 156 157 156 155 155 155 154 154 154 153 153 154 153 154 154 155 155 156 158 156 155 156 156 156 155 155 155 154 157 158 158 157 160 160 160 162 162 164 163 164 163 162 162 162 158 157 156 161 156 161 154 155 156 157 156 158 156 156 156 157 157 156 156 156 155 154 155 154 153 153 155 154 157 157 157 157 158 158 159 157 159 157 157 158 158 157 157 156 156 155 156 156 157 157 159 158 158 157 158 156 156 156 156 155 155 155 156 155 155 155 154 154 154 154 155 155 157 156 157 158 158 158 159 159 158 157 157 156 157 157 157 157 157 155 160 159 158 157 157 158 157 158 159 158 158 159 160 158 155 157 157 156 160 159 162 159 161 159 159 158 158 157 157 155 156 154 158 157 159 159 157 160 159 162 162 160 161 161 160 161 160 162 160 158 161 161 161 163 160 157 155 155 159 156 155 155 154 155 155 155 157 157 159 161 163 164 166 163 162 163 161 160 159 159 158 154 155 156 153 151 152 152 153 153 153 153 155 155 160 164 166 167 167 168 169 0 0 0 0 0
    0 0 0 0 0 0 0 0 0 0 0 0 0 0 0 0 0 0 0 0 0 0 0 0 0 0 0 0 0 0 0 0 0 0 0 0 0 0 0 0 0 0 0 0 0 0 0 0 0 0 0 0 0 0 0 0 0 0 0 0 0 0 0 0 0 0 0 0 0 154 153 154 154 154 154 154 155 155 155 155 156 156 155 154 154 154 154 155 154 154 154 155 155 155 155 156 156 156 158 155 155 155 156 155 155 155 155 154 157 158 158 158 161 161 162 164 163 164 163 164 162 161 161 160 157 156 155 160 155 159 153 155 156 157 156 158 156 156 156 157 157 156 156 156 155 155 155 154 153 -193 154 152 155 155 156 155 157 157 157 156 159 157 157 158 158 156 156 156 155 155 156 156 157 157 159 159 158 158 158 157 156 156 156 155 155 155 156 155 155 156 155 155 155 155 156 156 157 157 157 158 158 159 159 159 158 157 157 156 157 156 157 157 156 155 160 159 157 157 157 157 157 157 159 157 157 159 160 157 154 157 157 156 160 159 162 159 161 159 159 158 158 157 157 155 156 154 157 157 159 159 157 160 158 161 162 160 160 161 160 161 160 161 160 159 161 161 160 163 160 157 156 155 159 156 155 155 154 155 155 156 158 158 159 162 164 164 166 163 161 162 160 159 159 158 157 154 154 154 152 150 151 151 152 153 152 152 154 155 160 164 166 167 168 168 169 0 0 0 0 0
    0 0 0 0 0 0 0 0 0 0 0 0 0 0 0 0 0 0 0 0 0 0 0 0 0 0 0 0 0 0 0 0 0 0 0 0 0 0 0 0 0 0 0 0 0 0 0 0 0 0 0 0 0 0 0 0 0 0 0 0 0 0 0 0 0 0 0 0 0 153 152 153 153 153 153 153 154 155 155 155 156 156 155 154 155 155 155 156 155 154 154 155 155 156 156 156 155 156 158 155 155 155 155 155 155 155 155 153 157 157 158 158 162 162 162 164 163 164 162 162 160 159 159 159 156 156 156 160 154 157 152 153 154 -193 155 157 155 156 156 157 157 156 156 156 155 155 155 154 153 153 153 151 153 153 155 155 156 157 157 157 160 158 157 158 158 156 156 156 155 154 156 156 157 157 159 159 158 159 159 157 156 156 156 155 155 155 156 155 156 157 156 156 156 156 157 156 157 157 157 158 158 160 159 159 159 157 157 156 156 156 156 156 155 154 159 159 157 157 157 157 157 157 158 157 156 157 158 156 154 156 156 156 160 158 162 159 160 159 159 158 158 156 157 154 155 154 157 157 158 158 157 160 158 161 161 159 160 160 159 161 159 161 160 158 161 160 160 163 160 157 156 155 158 157 155 155 155 156 157 158 160 159 160 163 164 164 166 162 161 161 160 159 159 158 157 154 154 154 152 151 152 152 152 153 152 153 154 156 160 163 166 167 167 168 169 0 0 0 0 0
    0 0 0 0 0 0 0 0 0 0 0 0 0 0 0 0 0 0 0 0 0 0 0 0 0 0 0 0 0 0 0 0 0 0 0 0 0 0 0 0 0 0 0 0 0 0 0 0 0 0 0 0 0 0 0 0 0 0 0 0 0 0 0 0 0 0 0 0 0 151 149 151 151 152 152 152 153 153 153 154 155 155 155 154 154 154 154 155 154 154 154 154 155 155 155 156 155 155 157 155 155 155 155 155 155 155 155 154 158 159 159 159 162 162 162 163 162 162 160 160 159 158 158 158 157 156 156 159 155 156 152 152 153 -209 154 156 154 155 155 156 156 156 156 156 155 156 155 155 154 154 154 151 153 153 155 155 157 157 157 157 160 159 158 159 158 156 156 156 155 154 156 155 156 157 159 159 158 159 158 157 157 157 157 156 155 156 156 156 156 159 156 157 157 156 157 156 156 157 157 158 158 160 158 159 159 157 157 157 157 156 156 156 155 154 158 158 157 157 157 157 157 157 159 157 156 157 158 156 154 156 156 156 160 158 161 159 160 159 159 158 158 156 157 154 155 153 156 156 158 158 158 160 159 161 161 158 159 159 158 159 158 160 158 157 159 159 158 162 160 156 155 155 158 157 156 155 155 157 159 159 161 160 161 163 164 164 166 163 160 160 160 159 158 158 157 154 153 152 151 149 150 150 151 151 152 154 155 157 162 165 167 168 168 169 170 0 0 0 0 0
    0 0 0 0 0 0 0 0 0 0 0 0 0 0 0 0 0 0 0 0 0 0 0 0 0 0 0 0 0 0 0 0 0 0 0 0 0 0 0 0 0 0 0 0 0 0 0 0 0 0 0 0 0 0 0 0 0 0 0 0 0 0 0 0 0 0 0 0 0 152 150 152 152 151 151 151 153 153 152 154 155 155 156 154 155 155 154 156 154 154 153 153 154 155 154 155 154 155 157 155 155 155 155 155 155 155 156 155 160 161 160 160 161 161 161 161 160 160 158 158 157 157 157 157 157 156 156 159 155 156 -193 -193 -193 -209 -193 155 153 155 154 155 155 155 155 156 155 156 155 155 154 155 155 153 153 154 156 156 158 157 157 157 160 159 159 159 159 158 157 157 155 155 156 156 156 157 158 159 158 158 158 157 157 157 156 156 155 155 156 156 156 159 157 158 -193 157 156 156 156 157 157 157 157 159 158 159 158 157 157 157 157 157 156 157 155 155 158 158 157 157 157 157 157 157 159 157 156 157 158 156 155 156 157 156 161 159 161 159 160 159 159 158 158 156 157 154 155 153 156 156 158 159 159 161 160 162 161 158 159 159 158 159 158 158 157 156 158 157 156 159 157 154 153 153 156 156 155 155 -193 157 160 161 162 161 162 164 164 164 166 163 160 159 159 158 158 158 157 153 151 151 151 150 150 150 151 151 152 155 156 158 162 164 168 170 170 171 -193 0 0 0 0 0
    0 0 0 0 0 0 0 0 0 0 0 0 0 0 0 0 0 0 0 0 0 0 0 0 0 0 0 0 0 0 0 0 0 0 0 0 0 0 0 0 0 0 0 0 0 0 0 0 0 0 0 0 0 0 0 0 0 0 0 0 0 0 0 0 0 0 0 0 0 153 151 153 152 152 152 152 152 152 152 154 154 155 155 154 154 155 155 156 -209 153 152 153 153 154 154 155 154 154 157 155 155 155 155 156 155 156 156 155 160 161 161 160 159 159 160 159 158 158 157 157 156 156 156 157 157 157 157 159 156 156 -193 -193 -193 -209 153 154 152 154 154 155 155 155 155 155 155 156 155 156 155 155 155 154 154 155 156 156 157 157 157 157 160 159 158 159 159 158 158 157 156 155 156 156 156 157 158 159 159 158 158 157 156 156 156 155 154 154 155 155 156 160 158 158 -193 158 157 156 157 157 157 157 157 159 157 160 158 157 157 157 157 157 156 157 155 155 156 158 157 157 157 157 157 157 159 157 156 157 158 156 155 157 158 157 162 160 162 159 161 159 159 158 158 156 157 155 156 154 157 156 158 159 159 161 160 161 161 158 158 159 157 158 157 157 156 155 156 156 -193 156 155 153 152 153 155 155 155 155 -193 157 161 161 163 161 162 163 162 163 165 163 160 159 159 158 158 158 157 154 151 150 151 151 152 152 152 152 153 155 157 160 162 163 167 170 170 -209 -193 0 0 0 0 0
    0 0 0 0 0 0 0 0 0 0 0 0 0 0 0 0 0 0 0 0 0 0 0 0 0 0 0 0 0 0 0 0 0 0 0 0 0 0 0 0 0 0 0 0 0 0 0 0 0 0 0 0 0 0 0 0 0 0 0 0 0 0 0 0 0 0 0 0 0 152 151 152 -193 -193 150 150 151 151 152 154 -193 -209 -193 -209 -209 -209 -209 -209 -193 151 151 152 152 153 153 155 154 154 157 155 155 156 156 156 156 156 157 155 161 162 161 161 159 158 159 158 157 156 156 155 155 155 156 157 159 159 159 161 158 157 -193 -209 -193 -193 152 154 152 154 154 155 154 155 155 155 155 156 155 157 155 156 157 155 154 154 155 154 156 156 157 157 160 159 158 159 158 157 157 156 155 154 156 156 155 157 158 159 159 158 157 156 156 156 155 155 154 153 154 154 155 160 158 159 158 158 157 156 157 158 157 157 157 159 157 160 158 158 158 157 157 157 156 157 155 155 156 159 157 157 158 157 157 157 159 158 155 157 158 156 -193 158 159 157 162 161 162 160 162 160 159 159 159 157 157 155 157 154 157 157 158 159 159 160 160 161 161 158 158 158 157 157 156 156 155 155 156 156 154 157 156 155 154 154 155 155 154 155 155 157 161 161 163 162 161 163 161 161 164 163 160 159 159 159 159 159 158 155 152 152 153 154 154 153 153 154 155 159 163 165 166 166 168 171 172 172 -193 0 0 0 0 0
    0 0 0 0 0 0 0 0 0 0 0 0 0 0 0 0 0 0 0 0 0 0 0 0 0 0 0 0 0 0 0 0 0 0 0 0 0 0 0 0 0 0 0 0 0 0 0 0 0 0 0 0 0 0 0 0 0 0 0 0 0 0 0 0 0 0 0 0 0 151 150 -193 -193 -193 148 148 149 148 150 -193 150 151 150 150 -193 149 151 151 150 150 150 152 152 153 154 155 154 154 157 155 155 156 156 156 156 156 157 155 160 162 161 161 158 157 158 156 156 156 155 155 154 154 156 158 160 162 160 -193 -193 -193 -193 -193 -193 -193 153 154 153 155 154 155 155 155 155 156 156 157 155 157 156 157 159 156 153 -193 154 152 154 155 156 156 160 160 158 159 158 158 157 155 154 153 155 156 155 156 157 158 159 158 157 156 155 156 155 155 154 153 154 154 155 159 157 159 158 157 156 155 156 156 156 156 155 158 156 160 158 158 158 158 158 158 157 158 155 156 156 161 157 157 158 157 157 157 158 158 155 157 159 156 157 158 159 157 161 161 162 160 162 160 160 159 159 158 158 156 157 154 157 157 158 159 159 160 161 161 161 158 158 158 157 157 156 156 155 155 155 155 153 156 155 154 153 153 154 154 153 154 155 158 160 160 163 162 162 163 160 160 164 162 160 159 159 159 159 160 159 156 154 156 158 161 160 157 157 157 159 163 167 169 168 168 170 172 173 173 174 0 0 0 0 0
    0 0 0 0 0 0 0 0 0 0 0 0 0 0 0 0 0 0 0 0 0 0 0 0 0 0 0 0 0 0 0 0 0 0 0 0 0 0 0 0 0 0 0 0 0 0 0 0 0 0 0 0 0 0 0 0 0 0 0 0 0 0 0 0 0 0 0 0 0 152 150 -193 -193 -193 -193 148 149 148 -193 -193 -193 149 149 149 -193 -193 -193 151 150 151 151 -193 153 154 155 156 155 154 159 155 156 156 156 156 156 156 157 154 160 161 160 160 157 156 157 155 156 156 155 155 154 155 -193 -193 162 -193 -193 -193 -193 -209 -193 -209 -193 -193 153 154 153 156 154 156 155 155 155 156 156 157 156 158 156 159 162 157 -193 -209 154 154 156 157 157 158 162 162 160 160 159 159 158 155 153 154 155 155 154 156 156 158 159 158 157 155 155 155 155 155 154 153 154 153 155 159 157 158 157 157 155 155 155 155 154 154 153 156 155 159 158 158 158 158 158 158 157 158 156 156 156 162 157 156 158 156 157 157 158 157 155 156 158 156 158 158 159 157 161 162 163 161 163 161 160 160 160 158 158 156 157 155 157 157 158 159 160 160 162 160 161 159 158 158 157 157 156 156 156 155 155 155 153 157 156 156 153 153 154 153 153 155 154 157 160 161 164 164 163 164 161 159 164 162 160 159 159 159 159 160 159 156 154 163 165 167 167 167 166 166 168 168 170 170 170 169 171 174 176 177 177 0 0 0 0 0
    0 0 0 0 0 0 0 0 0 0 0 0 0 0 0 0 0 0 0 0 0 0 0 0 0 0 0 0 0 0 0 0 0 0 0 0 0 0 0 0 0 0 0 0 0 0 0 0 0 0 0 0 0 0 0 0 0 0 0 0 0 0 0 0 0 0 0 0 0 152 -193 -193 -193 -193 -193 149 150 -193 -209 -193 -193 148 148 149 -193 -193 -193 -209 150 151 152 -193 154 154 155 157 155 155 159 156 156 156 156 156 156 156 157 154 158 159 158 158 155 154 155 155 156 155 155 155 154 154 -193 -193 163 -209 -193 -193 -193 -209 -193 -209 -193 153 153 154 153 156 154 156 155 155 155 156 156 158 156 159 157 161 164 161 -193 -193 156 158 158 158 159 160 163 163 162 162 160 161 160 155 153 154 156 155 154 156 155 158 159 157 156 155 155 155 155 155 154 153 154 154 156 161 158 158 -193 -193 -193 -193 -209 -193 154 154 153 156 154 158 157 158 158 158 158 158 157 158 156 157 157 164 158 157 159 157 157 158 158 157 154 156 157 155 157 157 158 156 160 162 162 161 163 161 160 160 160 159 158 157 158 155 157 158 159 160 161 160 163 161 163 160 160 159 158 157 156 157 157 156 156 155 154 158 159 158 154 153 154 153 153 155 153 155 157 159 163 164 163 164 160 159 163 162 159 158 158 158 158 159 158 157 155 163 166 167 168 168 168 169 169 170 172 171 171 171 173 175 178 178 178 0 0 0 0 0
    0 0 0 0 0 0 0 0 0 0 0 0 0 0 0 0 0 0 0 0 0 0 0 0 0 0 0 0 0 0 0 0 0 0 0 0 0 0 0 0 0 0 0 0 0 0 0 0 0 0 0 0 0 0 0 0 0 0 0 0 0 0 0 0 0 0 0 0 0 151 -193 -193 -193 -193 -209 149 -193 -193 -209 -209 -209 143 147 149 -193 -193 150 -209 149 150 151 -193 152 153 155 156 155 155 159 155 156 156 156 156 156 156 157 154 158 158 157 158 154 154 155 154 155 155 155 155 154 155 157 -193 -193 -209 -193 -193 -193 -193 -193 -209 153 153 153 154 153 156 154 155 154 155 155 156 156 157 155 160 159 163 166 164 156 158 158 160 159 159 160 160 -193 163 164 -193 -193 163 162 -193 152 155 158 156 155 157 155 157 159 157 156 155 154 155 155 155 154 154 155 -209 -193 -193 -193 -193 -193 -193 -209 -209 -209 -193 154 154 153 155 154 157 156 157 158 157 158 157 157 158 156 157 157 164 159 158 160 158 158 158 159 158 154 155 157 155 157 157 157 155 160 162 162 161 164 162 161 160 161 159 159 157 159 156 157 158 158 160 161 161 163 161 163 161 161 159 158 157 157 157 157 156 158 156 155 161 162 163 156 155 155 153 153 154 152 154 155 156 161 160 161 162 158 158 161 160 158 158 158 158 158 158 158 157 156 164 165 165 167 167 167 169 170 170 173 172 173 174 175 177 180 180 179 0 0 0 0 0
    0 0 0 0 0 0 0 0 0 0 0 0 0 0 0 0 0 0 0 0 0 0 0 0 0 0 0 0 0 0 0 0 0 0 0 0 0 0 0 0 0 0 0 0 0 0 0 0 0 0 0 0 0 0 0 0 0 0 0 0 0 0 0 0 0 0 0 0 0 151 -193 -193 -193 -209 -209 -193 -209 -193 -209 -209 -209 141 -193 -209 -225 -225 -209 -209 149 150 -209 -209 -193 154 154 155 155 155 159 155 156 156 156 157 157 156 157 154 158 157 156 158 151 152 153 153 154 155 155 154 154 155 -193 -209 -209 -193 816 -209 -193 -193 -193 -209 153 153 152 154 153 155 153 154 154 154 154 155 155 157 155 160 160 164 166 165 158 159 158 160 159 158 160 -193 -193 -209 -193 -193 -193 -193 -193 -209 152 155 159 156 156 157 154 156 159 156 155 154 154 154 154 155 154 153 154 -209 -209 -209 -209 -193 -209 -193 -209 -209 -209 -193 154 153 153 154 153 156 156 157 157 157 158 157 157 159 157 159 159 165 160 158 160 158 158 158 159 158 154 155 156 155 157 158 157 155 160 163 163 161 164 161 160 160 161 159 159 158 159 156 157 158 159 160 161 160 162 161 163 161 161 159 158 158 157 157 158 157 159 157 156 163 163 -193 -209 -209 -209 -209 -193 153 152 153 153 154 157 156 157 158 156 156 159 159 157 157 157 157 157 158 157 157 156 164 165 165 167 168 167 169 169 170 174 173 174 176 177 179 181 181 180 0 0 0 0 0
    0 0 0 0 0 0 0 0 0 0 0 0 0 0 0 0 0 0 0 0 0 0 0 0 0 0 0 0 0 0 0 0 0 0 0 0 0 0 0 0 0 0 0 0 0 0 0 0 0 0 0 0 0 0 0 0 0 0 0 0 0 0 0 0 0 0 0 0 0 -193 -193 -193 -209 -193 -209 -209 -209 90 -225 -225 -225 -225 -225 -225 -225 -225 -225 -209 -209 -209 -209 -193 -193 154 154 155 156 156 161 157 157 157 157 158 158 157 158 154 157 -193 155 155 148 150 150 150 152 153 154 153 153 155 -193 -209 -193 -193 -193 -209 -193 -209 -193 -209 152 152 152 154 153 154 153 154 153 153 154 154 155 157 155 161 162 166 -193 -209 -209 -193 157 159 158 157 160 -193 -193 -209 -193 -193 -193 -193 -193 -209 -193 156 160 157 156 157 -193 155 160 155 155 153 153 154 153 154 153 152 -193 -209 -209 -209 -209 -209 -209 -209 -209 -209 -209 -193 153 151 152 154 153 156 155 156 157 157 157 157 157 159 157 160 160 166 160 159 160 158 158 158 158 157 154 155 156 155 156 157 157 154 160 163 163 161 164 162 161 160 161 160 159 158 159 156 158 158 159 160 161 160 162 160 163 161 162 160 159 158 158 158 158 158 160 158 156 164 -209 -209 -209 -209 -209 -209 -209 -193 152 154 152 152 156 155 155 156 155 154 156 157 156 156 156 156 157 158 158 158 157 166 166 167 168 169 169 169 170 170 173 173 174 174 174 177 180 180 179 0 0 0 0 0
    0 0 0 0 0 0 0 0 0 0 0 0 0 0 0 0 0 0 0 0 0 0 0 0 0 0 0 0 0 0 0 0 0 0 0 0 0 0 0 0 0 0 0 0 0 0 0 0 0 0 0 0 0 0 0 0 0 0 0 0 0 0 0 0 0 0 0 0 0 -225 -209 -193 -193 -225 -225 -225 -225 -225 -225 -225 -225 -225 -225 -225 -225 -225 -225 -209 -209 -209 -193 -193 -209 152 152 154 -225 -225 -225 160 160 160 159 161 161 -193 -193 -225 -225 -225 -209 152 147 147 148 149 150 152 153 152 -225 -225 -225 -225 -225 -209 -209 -209 -193 -193 -209 -209 148 151 152 155 153 154 153 153 153 153 154 155 155 -193 156 -193 -209 171 177 -209 619 -209 157 -209 157 155 158 -209 -209 -209 -193 46 47 -193 -209 -209 -209 -209 -209 -193 -193 -193 -209 -193 -193 155 155 153 153 154 153 154 153 151 152 -193 -209 -209 -209 -209 -209 -209 -209 -209 -209 -193 -209 140 149 153 152 155 155 156 157 156 157 156 157 159 158 161 161 166 161 158 160 157 157 158 158 157 153 154 155 154 156 157 156 154 159 164 162 161 165 162 161 161 161 160 159 158 159 156 157 158 158 160 160 160 162 160 163 161 162 160 159 159 158 159 160 159 161 159 159 165 -209 -209 -209 -209 -209 -209 -209 -209 152 154 151 152 155 -193 155 155 -193 152 153 156 155 155 155 156 156 157 157 158 158 166 166 166 167 169 169 170 170 170 173 172 173 174 173 174 175 174 174 0 0 0 0 0
    0 0 0 0 0 0 0 0 0 0 0 0 0 0 0 0 0 0 0 0 0 0 0 0 0 0 0 0 0 0 0 0 0 0 0 0 0 0 0 0 0 0 0 0 0 0 0 0 0 0 0 0 0 0 0 0 0 0 0 0 0 0 0 0 0 0 0 0 0 -225 -225 -225 -225 -225 -225 -225 -225 -225 -225 -225 -225 -225 -225 -225 -225 -225 -225 -225 -225 -225 -225 -225 -225 -225 -225 -225 -225 -225 -225 -225 -225 -225 -225 -225 -225 -225 -225 -225 -225 -225 -225 -225 -225 -225 -225 -225 -225 -225 -225 -225 -225 -225 -225 -225 -225 -225 -225 -225 -225 -209 -209 -209 141 149 -193 -193 154 154 154 154 -193 154 -209 -209 -209 -209 -209 -193 -209 -209 -209 -209 619 -193 -193 -209 -193 153 157 -193 43 44 44 49 50 -209 -209 -209 -193 -225 -209 -193 -193 -209 -209 -193 163 157 155 153 153 154 154 155 153 152 152 151 -209 -209 -209 -209 -209 -209 -209 -209 742 -193 -209 -209 144 153 151 155 155 157 158 158 158 158 158 162 162 165 166 168 162 158 159 157 156 156 157 156 153 153 154 154 155 156 155 153 157 163 162 161 165 162 160 161 161 160 158 158 159 156 157 158 158 160 160 160 163 160 164 162 162 161 159 159 159 160 161 160 162 161 162 -193 -209 -209 -209 -209 -209 -209 -209 -209 -193 154 -209 153 154 -209 155 -193 -193 150 152 154 154 154 154 154 155 156 156 157 157 166 166 166 167 168 169 170 171 171 175 173 175 178 177 178 177 174 174 0 0 0 0 0
    0 0 0 0 0 0 0 0 0 0 0 0 0 0 0 0 0 0 0 0 0 0 0 0 0 0 0 0 0 0 0 0 0 0 0 0 0 0 0 0 0 0 0 0 0 0 0 0 0 0 0 0 0 0 0 0 0 0 0 0 0 0 0 0 0 0 0 0 0 -225 -225 -225 -225 -225 -225 -225 -225 -225 -225 -225 -225 -225 -225 -225 -225 -225 -225 -225 -225 -225 -225 -225 -225 -225 -225 -225 -225 -225 -225 -225 -225 -225 -225 -225 -225 -225 -225 -225 -225 -225 -225 -225 -225 -225 -225 -225 -225 -225 -225 -225 -225 -225 -225 -225 -225 -225 -225 -225 -225 -225 -225 -209 -209 261 262 -193 -193 156 155 -193 -209 -209 -209 -209 -209 -193 438 -193 -193 -193 -209 -193 617 618 -209 -193 399 -193 -193 -193 -193 45 46 52 -193 -209 -193 522 -225 -225 -225 -225 -225 932 931 -193 163 158 154 152 152 153 153 154 151 -193 -193 -209 -209 -193 -209 -209 -209 -209 -209 -193 -193 -209 -193 118 -193 -209 150 154 156 157 160 162 163 -193 -193 -193 169 171 172 172 165 158 158 155 155 155 156 155 152 152 153 153 155 155 154 151 156 160 161 160 164 162 160 160 161 159 158 157 158 156 156 157 -193 -193 161 161 163 -193 -193 163 163 162 160 160 160 162 162 161 163 163 164 -209 -209 -209 -209 -209 -209 -209 -209 -209 -209 -209 -209 -209 -209 -209 -209 -209 -209 147 150 153 153 153 153 153 153 153 154 155 155 165 166 165 166 168 169 170 172 172 175 173 175 177 177 177 176 173 173 0 0 0 0 0
    0 0 0 0 0 0 0 0 0 0 0 0 0 0 0 0 0 0 0 0 0 0 0 0 0 0 0 0 0 0 0 0 0 0 0 0 0 0 0 0 0 0 0 0 0 0 0 0 0 0 0 0 0 0 0 0 0 0 0 0 0 0 0 0 0 0 0 0 0 -225 -225 -225 -225 -225 -225 -225 -225 -225 -225 -225 -225 -225 -225 -225 -225 -225 -225 -225 -225 -225 -225 -225 -225 -225 -225 -225 -225 -225 -225 -225 -225 -225 -225 -225 -225 -225 -225 -225 -225 -225 -225 -225 -225 -225 -225 -225 -225 -225 -225 -225 -225 -225 -225 -225 -225 -225 -225 -225 -225 -225 -225 -225 -225 -225 -225 -225 -225 -225 -225 -225 -225 -225 -209 -209 -209 -209 -209 -209 -225 -225 -225 -225 -225 -225 -225 -225 -225 -225 -225 -225 -225 -225 -225 -225 -225 -225 -225 -225 -225 -225 -225 -225 -225 -225 -225 -225 -225 -225 -225 -225 -225 -225 -209 -209 -209 -209 -209 -193 -193 -193 -209 -209 -209 -209 -193 -193 -193 -209 -193 118 -193 -209 145 153 155 157 158 -209 -209 -209 966 -209 -193 -193 -209 171 -193 -193 161 -209 153 154 154 -193 -193 150 150 151 153 153 153 151 154 158 159 158 161 162 159 159 160 160 160 158 160 157 156 159 -209 -209 -209 -193 -193 -193 -209 -209 -193 164 162 163 163 164 164 164 165 164 167 -209 -209 -209 -209 -209 -209 -209 -209 -209 -209 -209 -209 -209 -209 -209 -209 -209 -209 -193 140 142 141 144 141 140 147 151 152 155 154 163 164 163 165 167 168 170 172 171 174 172 174 175 174 174 174 171 172 0 0 0 0 0
    0 0 0 0 0 0 0 0 0 0 0 0 0 0 0 0 0 0 0 0 0 0 0 0 0 0 0 0 0 0 0 0 0 0 0 0 0 0 0 0 0 0 0 0 0 0 0 0 0 0 0 0 0 0 0 0 0 0 0 0 0 0 0 0 0 0 0 0 0 -225 -225 -225 -225 -225 -225 -225 -225 -225 -225 -225 -225 -225 -225 -225 -225 -225 -225 -225 -225 -225 -225 -225 -225 -225 -225 -225 -225 -225 -225 -225 -225 -225 -225 -225 -225 -225 -225 -225 -225 -225 -225 -225 -225 -225 -225 -225 -225 -225 -225 -225 -225 -225 -225 -225 -225 -225 -225 -225 -225 -225 -225 -225 -225 -225 -225 -225 -225 -225 -225 -225 -225 -225 -225 -225 -225 -225 -225 -225 -225 -225 -225 -225 -225 -225 -225 -225 -225 -225 -225 -225 -225 -225 -225 -225 -225 -225 -225 -225 -225 -225 -225 -225 -225 -225 -225 -225 -225 -225 -225 -225 -225 -225 -225 -225 -225 -225 -225 -209 -209 17 19 -225 -225 -225 -225 -225 -225 -225 -225 -225 -209 -193 -193 155 -225 -225 -225 -225 -225 -225 -225 -225 -225 -225 -225 -225 -209 -225 -225 -225 -225 -225 -225 -225 -193 149 146 148 149 150 148 147 -193 153 155 154 155 160 159 160 162 163 163 162 163 160 -225 -177 -193 -177 -177 -193 -193 -193 -193 -193 -193 -209 163 164 165 165 164 165 165 165 168 174 -209 -209 -209 -209 -209 -209 -209 -209 -209 -209 -209 -209 -209 -209 -209 -209 -209 -193 137 135 135 136 134 134 137 -209 -209 155 155 163 162 160 163 165 166 169 171 170 173 172 173 174 173 174 173 170 171 0 0 0 0 0
    0 0 0 0 0 0 0 0 0 0 0 0 0 0 0 0 0 0 0 0 0 0 0 0 0 0 0 0 0 0 0 0 0 0 0 0 0 0 0 0 0 0 0 0 0 0 0 0 0 0 0 0 0 0 0 0 0 0 0 0 0 0 0 0 0 0 0 0 0 -225 -225 -225 -225 -225 -225 -225 -225 -225 -225 -225 -225 -225 -225 -225 -225 -225 -225 -225 -225 -225 -225 -225 -225 -225 -225 -225 -225 -225 -225 -225 -225 -225 -225 -225 -225 -225 -225 -225 -225 -225 -225 -225 -225 -225 -225 -225 -225 -225 -225 -225 -225 -225 -225 -225 -225 -225 -225 -225 -225 -225 -225 -225 -225 -225 -225 -225 -225 -225 -225 -225 -225 -225 -225 -225 -225 -225 -225 -225 -225 -225 -225 -225 -225 -225 -225 -225 -225 -225 -225 -225 -225 -225 -225 -225 -225 -225 -225 -225 -225 -225 -225 -225 -225 -225 -225 -225 -225 -225 -225 -225 -225 -225 -225 -225 -225 -225 -225 -225 -225 -225 -225 -225 -225 -225 -225 -225 -225 -225 -225 -225 -225 -225 -225 -225 -225 -225 -225 -225 -225 -225 -225 -225 -225 -225 -225 -225 -225 -225 -225 -225 -225 -225 -225 -225 -225 -225 -225 -225 -225 -225 -225 -209 -225 -225 -225 -225 -225 161 -225 -225 -225 -225 -225 -225 -225 -225 -225 -225 -225 -225 -225 -225 -209 -209 -225 -225 -225 -225 -225 165 166 166 164 165 167 -193 -209 -209 -209 -209 -209 -209 -209 -209 -209 -209 -209 -209 -209 -209 -209 -209 -209 -209 -209 -209 132 132 130 133 125 122 -209 -209 -209 -209 167 168 163 160 163 165 166 168 171 169 172 172 173 173 172 172 171 169 170 0 0 0 0 0
    0 0 0 0 0 0 0 0 0 0 0 0 0 0 0 0 0 0 0 0 0 0 0 0 0 0 0 0 0 0 0 0 0 0 0 0 0 0 0 0 0 0 0 0 0 0 0 0 0 0 0 0 0 0 0 0 0 0 0 0 0 0 0 0 0 0 0 0 0 -225 -225 -225 -225 -225 -225 -225 -225 -225 -225 -225 -225 -225 -225 -225 -225 -225 -225 -225 -225 -225 -225 -225 -225 -225 -225 -225 -225 -225 -225 -225 -225 -225 -225 -225 -225 -225 -225 -225 -225 -225 -225 -225 -225 -225 -225 -225 -225 -225 -225 -225 -225 -225 -225 -225 -225 -225 -225 -225 -225 -225 -225 -225 -225 -225 -225 -225 -225 -225 -225 -225 -225 -225 -225 -225 -225 -225 -225 -225 -225 -225 -225 -225 -225 -225 -225 -225 -225 -225 -225 -225 -225 -225 -225 -225 -225 -225 -225 -225 -225 -225 -225 -225 -225 -225 -225 -225 -225 -225 -225 -225 -225 -225 -225 -225 -225 -225 -225 -225 -225 -225 -225 -225 -225 -225 -225 -225 -225 -225 -225 -225 -225 -225 -225 -225 -225 -225 -225 -225 -225 -225 -225 -225 -225 -225 -225 -225 -225 -225 -225 -225 -225 -225 -225 -225 -225 -225 -225 -225 -225 -225 -225 -225 -225 -225 -225 -225 -225 -225 -225 -225 -225 -225 -225 -225 -225 -225 -225 -225 -225 -225 -225 -225 -225 -225 -225 -225 -225 -225 -225 -225 -225 -225 -193 -209 -209 -209 -209 -209 -209 -209 -209 -209 -209 -209 -209 -209 -209 -209 -209 -209 -209 -209 -209 -209 -209 -209 -209 -209 -209 131 -209 119 -209 -209 -209 -209 173 172 168 165 166 167 167 168 170 168 171 171 172 172 171 172 171 169 169 0 0 0 0 0
    0 0 0 0 0 0 0 0 0 0 0 0 0 0 0 0 0 0 0 0 0 0 0 0 0 0 0 0 0 0 0 0 0 0 0 0 0 0 0 0 0 0 0 0 0 0 0 0 0 0 0 0 0 0 0 0 0 0 0 0 0 0 0 0 0 0 0 0 0 -225 -225 -225 -225 -225 -225 -225 -225 -225 -225 -225 -225 -225 -225 -225 -225 -225 -225 -225 -225 -225 -225 -225 -225 -225 -225 -225 -225 -225 -225 -225 -225 -225 -225 -225 -225 -225 -225 -225 -225 -225 -225 -225 -225 -225 -225 -225 -225 -225 -225 -225 -225 -225 -225 -225 -225 -225 -225 -225 -225 -225 -225 -225 -225 -225 -225 -225 -225 -225 -225 -225 -225 -225 -225 -225 -225 -225 -225 -225 -225 -225 -225 -225 -225 -225 -225 -225 -225 -225 -225 -225 -225 -225 -225 -225 -225 -225 -225 -225 -225 -225 -225 -225 -225 -225 -225 -225 -225 -225 -225 -225 -225 -225 -225 -225 -225 -225 -225 -225 -225 -225 -225 -225 -225 -225 -225 -225 -225 -225 -225 -225 -225 -225 -225 -225 -225 -225 -225 -225 -225 -225 -225 -225 -225 -225 -225 -225 -225 -225 -225 -225 -225 -225 -225 -225 -225 -225 -225 -225 -225 -225 -225 -225 -225 -225 -225 -225 -225 -225 -225 -225 -225 -225 -225 -225 -225 -225 -225 -225 -225 -225 -225 -225 -225 -225 -225 -225 -225 -225 -225 -225 -225 -225 -225 -225 -209 -209 -209 -209 -209 -209 -209 -209 -209 -209 -209 -209 -209 -209 -209 -209 -209 -209 -209 -209 -209 -209 -209 -209 -209 -209 -209 -209 -209 -209 -193 -193 177 179 176 169 167 168 168 168 169 168 169 170 171 171 170 170 170 168 169 0 0 0 0 0
    0 0 0 0 0 0 0 0 0 0 0 0 0 0 0 0 0 0 0 0 0 0 0 0 0 0 0 0 0 0 0 0 0 0 0 0 0 0 0 0 0 0 0 0 0 0 0 0 0 0 0 0 0 0 0 0 0 0 0 0 0 0 0 0 0 0 0 0 0 -225 -225 -225 -225 -225 -225 -225 -225 -225 -225 -225 -225 -225 -225 -225 -225 -225 -225 -225 -225 -225 -225 -225 -225 -225 -225 -225 -225 -225 -225 -225 -225 -225 -225 -225 -225 -225 -225 -225 -225 -225 -225 -225 -225 -225 -225 -225 -225 -225 -225 -225 -225 -225 -225 -225 -225 -225 -225 -225 -225 -225 -225 -225 -225 -225 -225 -225 -225 -225 -225 -225 -225 -225 -225 -225 -225 -225 -225 -225 -225 -225 -225 -225 -225 -225 -225 -225 -225 -225 -225 -225 -225 -225 -225 -225 -225 -225 -225 -225 -225 -225 -225 -225 -225 -225 -225 -225 -225 -225 -225 -225 -225 -225 -225 -225 -225 -225 -225 -225 -225 -225 -225 -225 -225 -225 -225 -225 -225 -225 -225 -225 -225 -225 -225 -225 -225 -225 -225 -225 -225 -225 -225 -225 -225 -225 -225 -225 -225 -225 -225 -225 -225 -225 -225 -225 -225 -225 -225 -225 -225 -225 -225 -225 -225 -225 -225 -225 -225 -225 -225 -225 -225 -225 -225 -225 -225 -225 -225 -225 -225 -225 -225 -225 -225 -225 -225 -225 -225 -225 -225 -225 -225 -225 -225 -225 -225 -225 -209 -209 -209 -209 -209 -209 -209 -209 -209 -209 -209 -209 -209 -209 -209 -209 -209 -209 -209 -209 -209 -209 -209 -209 -209 -209 -209 -209 -209 -209 179 181 180 171 167 168 168 167 169 167 168 169 169 170 170 169 169 168 169 0 0 0 0 0
    0 0 0 0 0 0 0 0 0 0 0 0 0 0 0 0 0 0 0 0 0 0 0 0 0 0 0 0 0 0 0 0 0 0 0 0 0 0 0 0 0 0 0 0 0 0 0 0 0 0 0 0 0 0 0 0 0 0 0 0 0 0 0 0 0 0 0 0 0 -225 -225 -225 -225 -225 -225 -225 -225 -225 -225 -225 -225 -225 -225 -225 -225 -225 -225 -225 -225 -225 -225 -225 -225 -225 -225 -225 -225 -225 -225 -225 -225 -225 -225 -225 -225 -225 -225 -225 -225 -225 -225 -225 -225 -225 -225 -225 -225 -225 -225 -225 -225 -225 -225 -225 -225 -225 -225 -225 -225 -225 -225 -225 -225 -225 -225 -225 -225 -225 -225 -225 -225 -225 -225 -225 -225 -225 -225 -225 -225 -225 -225 -225 -225 -225 -225 -225 -225 -225 -225 -225 -225 -225 -225 -225 -225 -225 -225 -225 -225 -225 -225 -225 -225 -225 -225 -225 -225 -225 -225 -225 -225 -225 -225 -225 -225 -225 -225 -225 -225 -225 -225 -225 -225 -225 -225 -225 -225 -225 -225 -225 -225 -225 -225 -225 -225 -225 -225 -225 -225 -225 -225 -225 -225 -225 -225 -225 -225 -225 -225 -225 -225 -225 -225 -225 -225 -225 -225 -225 -225 -225 -225 -225 -225 -225 -225 -225 -225 -225 -225 -225 -225 -225 -225 -225 -225 -225 -225 -225 -225 -225 -225 -225 -225 -225 -225 -225 -225 -225 -225 -225 -225 -225 -225 -225 -225 -225 -209 -209 -209 -209 -209 -209 -209 -209 -209 -209 -209 -209 -209 -209 -209 -209 -209 -209 -209 -209 -209 -209 -209 -209 -209 -209 -209 -209 38 -193 181 182 181 175 167 168 169 -193 -209 167 168 170 169 169 169 169 169 168 168 0 0 0 0 0
    0 0 0 0 0 0 0 0 0 0 0 0 0 0 0 0 0 0 0 0 0 0 0 0 0 0 0 0 0 0 0 0 0 0 0 0 0 0 0 0 0 0 0 0 0 0 0 0 0 0 0 0 0 0 0 0 0 0 0 0 0 0 0 0 0 0 0 0 0 -225 -225 -225 -225 204 206 204 197 200 200 204 204 199 199 -225 -225 197 197 -193 -193 -193 195 195 -177 -193 -209 -209 -193 -177 -177 530 -177 532 -193 -193 -209 -193 -209 -209 -193 -193 49 46 -193 -193 -225 -225 -225 -225 -225 -225 -225 -225 -225 -225 -225 -225 -225 -225 -225 -225 -225 -225 -225 -225 -225 -225 -225 -225 -225 -225 -225 -225 -225 -225 -225 -225 -225 -225 -225 -225 -225 -225 -225 -225 -225 -225 -225 -225 -225 -225 -225 -225 -225 -225 -225 -225 -225 -225 -225 -225 -225 -225 -225 -225 -225 -225 -225 -225 -225 -225 -225 -225 -225 -225 -225 -225 -225 -225 -225 -225 -225 -225 -225 -225 -225 -225 -225 -225 -225 -225 -225 -225 -225 -225 -225 -225 -225 -225 -225 -225 -225 -225 -225 -225 -225 -225 -225 -225 -225 -225 -225 -225 -225 -225 -225 -225 -225 -225 -225 -225 -225 -225 -225 -225 -225 -225 -225 -225 -225 -225 -225 -225 -225 -225 -225 -225 -225 -225 -225 -225 -225 -225 -225 -225 -225 -225 -225 -225 -225 -225 -225 -225 -225 -225 -225 -225 -209 -209 -209 -209 -209 -209 -209 -209 -209 -209 -209 -209 -209 -209 -209 -209 -209 -209 -209 -209 -209 -209 -209 -209 -209 -209 187 -193 -209 -193 -193 185 184 183 -193 169 170 165 167 165 165 166 166 165 166 166 167 166 167 0 0 0 0 0
    0 0 0 0 0 0 0 0 0 0 0 0 0 0 0 0 0 0 0 0 0 0 0 0 0 0 0 0 0 0 0 0 0 0 0 0 0 0 0 0 0 0 0 0 0 0 0 0 0 0 0 0 0 0 0 0 0 0 0 0 0 0 0 0 0 0 0 0 0 -193 -225 -209 -193 203 -193 -209 190 198 198 200 201 198 198 198 198 197 197 198 198 196 197 197 -209 -193 199 198 197 -193 -209 -177 525 -193 -193 -177 45 50 47 46 -209 50 51 47 -193 -193 -177 -209 -193 -225 -225 -225 -225 -225 -225 -225 -225 -225 -225 -225 -225 -225 -225 -225 -225 -225 -225 -225 -225 -193 -193 -209 -209 -193 -209 -209 -193 550 -193 -209 -209 -209 -193 -209 -209 -209 -209 -209 -209 -209 -193 -193 -193 -225 -225 -225 -225 194 -225 -225 -225 -225 -225 -225 -225 -225 -225 -225 -225 -225 -225 -225 -225 -225 -225 -225 -225 -225 -225 -225 -225 -225 -225 -225 -225 -225 -225 -225 -225 -225 -225 -225 -225 -225 -225 -225 -225 -225 -225 -225 -225 -225 -225 -225 -225 -225 -225 -225 -225 -225 -225 -225 -225 -225 -225 -225 -225 -225 -225 -225 -225 -225 -225 -225 -225 -225 -225 -225 -225 -225 -225 -225 -225 -225 -225 -225 -225 -225 -225 -225 -225 -225 -225 -225 -225 -225 -225 -225 -225 -225 -225 -225 -225 -225 -225 -225 -225 -225 -209 -209 -209 -209 -209 -209 -209 -209 -209 -209 -209 -209 -209 -209 -209 -209 -209 -209 -209 -209 -209 -209 -209 -193 -193 -193 189 189 187 186 186 188 186 185 171 170 171 -193 164 163 163 164 165 164 165 164 166 165 166 0 0 0 0 0
    0 0 0 0 0 0 0 0 0 0 0 0 0 0 0 0 0 0 0 0 0 0 0 0 0 0 0 0 0 0 0 0 0 0 0 0 0 0 0 0 0 0 0 0 0 0 0 0 0 0 0 0 0 0 0 0 0 0 0 0 0 0 0 0 0 0 0 0 0 -193 -193 -209 -209 -193 -209 -209 192 198 196 198 199 197 197 198 198 198 198 199 198 197 197 198 -193 198 199 198 198 -193 -209 -177 -177 -193 -193 -193 -193 51 -193 -193 -209 50 51 -177 -193 -193 -209 -209 -209 -225 -225 -225 -225 -225 -225 -225 -209 -209 211 318 319 321 -209 -193 197 201 204 202 202 204 204 205 206 -209 -209 -209 -209 -209 -209 -209 -209 -209 -209 -209 -209 -209 -209 -209 -209 -209 195 195 195 193 194 194 195 196 200 -193 -209 -225 -225 -225 -225 -225 -225 -225 -225 -225 -225 -225 -225 -225 -225 681 -225 -225 -225 -225 -209 -209 -209 -225 -225 -225 -225 -225 -225 -225 -225 -225 -225 -225 -225 -225 -225 -225 -225 -225 -225 -225 -225 -225 -225 -225 -225 -225 -225 -225 -225 -225 -225 -225 -225 -225 -225 -225 -225 -225 -225 -225 -225 -225 -209 -193 -225 -225 -225 -225 -225 -225 -225 -225 -225 -225 -225 -225 -225 -225 -225 -225 -225 -225 -225 -225 -225 -225 -225 -225 -225 -225 -225 -225 -225 -225 -225 -225 -209 -209 -209 -209 -209 -209 -209 -209 -209 -209 -209 -209 -209 -209 -209 -209 -209 -209 -209 -209 -209 -209 -193 188 188 191 190 191 189 187 187 189 189 187 178 173 173 -193 166 164 165 166 167 165 166 165 166 167 167 0 0 0 0 0
    0 0 0 0 0 0 0 0 0 0 0 0 0 0 0 0 0 0 0 0 0 0 0 0 0 0 0 0 0 0 0 0 0 0 0 0 0 0 0 0 0 0 0 0 0 0 0 0 0 0 0 0 0 0 0 0 0 0 0 0 0 0 0 0 0 0 0 0 0 196 200 199 200 -193 -193 195 194 197 196 196 198 197 197 198 199 198 198 199 199 198 198 198 198 198 199 199 199 -209 -209 -193 -193 334 -193 -209 -193 -193 -193 -193 -193 -193 -193 -209 -209 -193 -209 -209 -209 -193 -193 -209 -225 -225 -225 166 -209 -193 205 -193 -193 -209 197 196 197 200 203 202 202 204 204 205 205 -193 -209 -209 -209 -209 -209 -209 -209 -209 -209 -209 -209 -209 -209 -209 -209 192 195 -177 -177 193 194 194 197 198 201 200 202 -193 -193 -225 -225 500 503 504 506 501 496 495 -193 -193 666 679 -193 -209 -209 -193 -209 199 -193 -209 -209 -209 -209 -225 -225 -225 -225 -225 -225 -225 -225 -225 -225 -225 -225 -225 -225 -225 -225 -225 -209 254 -193 -209 -209 -209 305 -193 -209 -193 -209 -225 407 408 406 407 -193 477 471 -177 -209 -193 19 19 -209 -177 -177 -177 197 188 189 -225 -225 -225 187 -225 -225 -225 -225 -225 -193 -209 -193 -193 533 533 535 533 532 -193 -193 353 -209 -209 -209 -209 -209 -209 -209 -209 -209 -209 -209 -209 -209 -209 -209 -209 -209 -209 -209 -209 -209 -209 190 190 190 191 190 192 191 191 191 189 189 191 191 189 185 184 181 183 -193 167 167 166 168 165 166 164 166 167 167 0 0 0 0 0
    0 0 0 0 0 0 0 0 0 0 0 0 0 0 0 0 0 0 0 0 0 0 0 0 0 0 0 0 0 0 0 0 0 0 0 0 0 0 0 0 0 0 0 0 0 0 0 0 0 0 0 0 0 0 0 0 0 0 0 0 0 0 0 0 0 0 0 0 0 197 200 199 200 200 200 197 196 198 197 196 198 197 197 198 199 198 198 199 199 198 198 198 198 197 198 198 199 199 -193 -193 -193 -193 -193 -193 -193 -193 193 -193 -193 -193 -193 -193 -209 202 -209 -209 -209 -193 202 202 -209 -209 -209 -209 -209 203 202 201 198 196 197 195 197 200 202 202 202 203 203 204 205 206 -209 -209 -209 -209 -209 -209 -209 -209 -209 -209 -209 -209 195 -177 -177 192 195 195 194 193 193 194 197 198 201 200 202 200 203 207 -193 -209 -209 505 506 -177 -177 -193 -193 654 662 -209 -193 -209 -209 -193 200 199 199 -209 -209 194 198 196 -193 198 -193 -225 198 199 200 -209 -193 201 202 202 201 201 -177 -177 -209 255 -209 -209 -209 -209 -209 -209 -209 -177 -209 406 409 408 405 407 -193 -193 -193 -209 -209 -209 -193 -209 -193 205 -177 201 198 189 192 186 189 188 187 -225 -225 -225 -225 -225 -193 -193 -193 204 -193 533 535 532 -193 -209 -193 -209 -177 -209 -209 -209 -209 -209 -209 -209 -209 -209 -209 -209 -209 -209 -209 -209 -209 -209 194 194 -193 191 192 192 191 191 190 192 192 193 193 191 191 193 194 194 191 -209 -209 -209 -209 -209 -209 166 167 -209 -193 163 167 168 168 0 0 0 0 0
    0 0 0 0 0 0 0 0 0 0 0 0 0 0 0 0 0 0 0 0 0 0 0 0 0 0 0 0 0 0 0 0 0 0 0 0 0 0 0 0 0 0 0 0 0 0 0 0 0 0 0 0 0 0 0 0 0 0 0 0 0 0 0 0 0 0 0 0 0 198 200 199 200 200 200 198 197 198 197 197 199 198 198 199 200 199 199 200 199 198 198 198 197 196 197 197 197 199 196 -193 -193 -193 -193 -193 -193 -193 195 -193 196 197 198 199 201 202 200 202 201 203 203 204 202 201 201 199 198 200 199 199 197 196 197 194 197 201 202 202 202 203 203 204 205 206 -209 -209 -209 -209 -209 -209 -193 -209 -193 -193 -193 -193 195 -177 -177 193 195 195 194 193 193 194 197 198 200 198 200 198 201 203 204 202 -193 506 507 -209 -193 -193 -193 653 660 -209 -193 199 200 200 199 198 198 198 194 194 197 196 197 198 -193 199 198 199 201 201 201 201 202 202 201 202 202 199 201 -193 -209 -209 -209 -209 296 -193 -209 -209 -209 401 408 -193 -193 408 -209 -193 -193 -209 -209 -209 206 -193 -193 204 -193 -193 199 192 194 186 191 190 189 196 -225 -225 -225 -209 -193 206 205 205 205 -193 -193 -193 -193 -209 -209 -209 -209 -209 -193 -209 -209 -209 -209 -209 -209 -209 -209 -209 -209 -209 -209 -209 -209 -193 195 195 193 193 194 193 193 191 191 193 194 194 194 193 192 194 196 195 195 -209 -193 -209 -193 306 -193 -209 -209 -209 -209 -209 -193 177 173 0 0 0 0 0
    0 0 0 0 0 0 0 0 0 0 0 0 0 0 0 0 0 0 0 0 0 0 0 0 0 0 0 0 0 0 0 0 0 0 0 0 0 0 0 0 0 0 0 0 0 0 0 0 0 0 0 0 0 0 0 0 0 0 0 0 0 0 0 0 0 0 0 0 0 198 200 199 201 200 201 198 198 199 198 197 199 198 198 199 200 199 199 200 199 198 198 198 197 196 196 196 196 198 196 -193 195 -193 -193 -193 -193 -193 196 -193 198 198 199 200 201 202 200 202 201 202 201 202 200 199 198 197 197 198 198 197 195 195 196 193 197 200 201 202 202 203 203 203 204 204 -209 -209 -209 -209 -193 198 198 197 -209 -193 197 -177 195 193 193 193 195 195 195 193 193 195 198 198 199 198 199 198 201 202 203 201 201 -193 -193 -193 -209 -193 -193 653 659 -193 -193 199 200 199 198 198 197 197 194 194 196 196 197 197 199 199 199 199 201 201 201 201 202 202 201 201 202 200 203 205 205 210 -193 -209 -193 -193 -193 -209 -209 -209 -209 -193 -209 -177 -209 -193 -209 -209 214 -193 205 -193 203 203 -193 -209 199 -209 192 185 189 190 190 196 -209 -193 -209 -193 -193 206 -193 205 205 204 -193 203 -193 -193 -193 -209 -209 -209 -193 -193 199 -193 -209 -209 -209 -209 -193 -193 -193 -193 -193 -209 -209 -193 196 196 194 194 195 195 195 193 192 193 195 195 195 195 195 196 197 198 198 -209 -193 192 -209 -209 -193 319 -209 -209 -193 -193 -209 -209 -209 0 0 0 0 0
    0 0 0 0 0 0 0 0 0 0 0 0 0 0 0 0 0 0 0 0 0 0 0 0 0 0 0 0 0 0 0 0 0 0 0 0 0 0 0 0 0 0 0 0 0 0 0 0 0 0 0 0 0 0 0 0 0 0 0 0 0 0 0 0 0 0 0 0 0 198 200 199 200 200 201 198 198 199 198 197 198 198 198 198 199 198 199 199 198 197 197 197 196 196 196 196 197 198 197 197 195 194 195 197 197 198 197 198 198 198 199 200 200 200 199 199 199 200 199 201 198 198 198 197 197 197 197 197 194 195 195 193 197 200 201 201 201 202 202 203 203 204 -209 198 -209 198 198 197 198 197 -193 197 197 196 196 194 195 194 196 196 196 194 193 195 197 198 199 198 199 197 200 201 202 201 201 -193 -193 199 -193 -209 -193 -193 -193 200 198 199 199 199 198 198 197 197 194 194 197 196 197 197 199 199 199 199 201 201 200 201 201 201 201 201 202 200 202 204 205 209 211 -193 -193 -209 -209 -209 -209 -209 -209 -209 -209 -209 -209 -209 -209 -209 213 -193 204 202 202 202 202 200 199 -209 192 187 190 191 191 196 197 198 -209 202 201 204 203 204 204 204 204 203 -193 -209 -209 -193 -209 -209 -193 -193 200 -193 -193 -193 -193 -193 191 192 194 -193 -193 -193 -193 195 197 196 195 195 195 195 195 193 192 192 194 194 195 194 195 195 197 198 199 -193 192 193 -209 -193 -209 -193 -209 193 -209 -209 -209 -209 -209 0 0 0 0 0
    0 0 0 0 0 0 0 0 0 0 0 0 0 0 0 0 0 0 0 0 0 0 0 0 0 0 0 0 0 0 0 0 0 0 0 0 0 0 0 0 0 0 0 0 0 0 0 0 0 0 0 0 0 0 0 0 0 0 0 0 0 0 0 0 0 0 0 0 0 197 199 198 199 199 200 197 198 199 198 197 198 197 197 198 199 198 199 199 198 197 197 197 196 196 196 196 197 198 197 197 195 194 195 197 197 197 197 198 197 198 199 199 199 199 198 198 198 199 199 200 198 198 198 197 197 197 197 197 194 195 195 192 196 200 200 201 201 201 201 202 203 203 200 198 199 197 198 198 198 197 197 197 197 196 196 194 196 195 197 196 197 195 194 196 197 198 198 198 199 197 200 201 202 201 201 202 200 199 199 199 198 -193 199 200 198 199 199 199 198 198 197 197 194 195 197 196 197 197 199 200 199 200 201 201 200 200 200 201 200 200 201 200 201 203 205 208 207 -193 -193 -193 -209 -209 -209 -209 -209 -209 -209 -209 -209 -209 -209 -209 213 -209 204 202 202 202 201 200 199 194 193 190 194 194 194 197 197 199 -209 201 201 204 202 204 204 203 203 202 -209 -209 -209 203 -209 -209 200 201 200 198 198 196 -193 -193 192 193 195 194 196 194 196 196 197 197 196 195 196 195 195 193 190 190 192 191 192 190 192 193 195 195 197 194 193 195 -193 -193 -193 -193 195 196 199 -209 -209 -209 -209 0 0 0 0 0
    0 0 0 0 0 0 0 0 0 0 0 0 0 0 0 0 0 0 0 0 0 0 0 0 0 0 0 0 0 0 0 0 0 0 0 0 0 0 0 0 0 0 0 0 0 0 0 0 0 0 0 0 0 0 0 0 0 0 0 0 0 0 0 0 0 0 0 0 0 197 198 198 198 198 199 196 198 198 198 197 198 198 198 198 200 199 199 199 198 198 197 197 196 195 195 195 196 197 196 196 195 195 195 198 198 198 198 198 197 198 199 199 199 198 198 197 198 199 198 200 197 197 197 197 197 197 197 196 193 196 195 193 197 199 199 200 200 201 201 201 202 202 199 199 199 198 198 197 198 197 197 197 197 196 196 195 196 196 197 197 197 196 195 197 198 199 199 199 199 198 200 201 201 200 200 200 199 199 199 198 198 198 199 199 198 199 198 199 198 198 198 197 196 195 197 197 197 197 199 199 199 199 201 200 200 200 200 201 201 201 201 200 201 202 203 205 204 203 202 201 201 201 203 -209 -209 -209 -209 -193 -209 -193 -209 -209 214 210 204 202 202 202 201 200 200 196 196 -193 -209 196 -193 199 -193 199 -193 201 201 204 202 204 203 203 203 -193 -209 -209 -209 -209 -209 -193 200 200 200 198 199 197 -193 -193 194 195 196 195 196 195 197 197 198 198 197 197 197 197 197 195 192 191 194 194 193 191 193 193 195 195 196 -209 191 194 -193 -193 -193 -193 -209 197 199 -193 204 201 -193 0 0 0 0 0
    0 0 0 0 0 0 0 0 0 0 0 0 0 0 0 0 0 0 0 0 0 0 0 0 0 0 0 0 0 0 0 0 0 0 0 0 0 0 0 0 0 0 0 0 0 0 0 0 0 0 0 0 0 0 0 0 0 0 0 0 0 0 0 0 0 0 0 0 0 197 198 197 198 198 199 196 198 198 198 198 198 198 198 198 200 200 200 199 198 198 197 196 196 195 194 195 195 196 193 195 194 194 195 198 198 198 198 198 197 198 199 199 198 197 197 196 197 198 197 199 197 197 197 197 197 198 197 197 193 197 195 193 196 199 198 199 199 199 199 201 201 201 199 199 200 198 198 197 198 197 197 197 197 196 196 195 196 196 197 197 198 197 196 198 199 200 199 199 199 198 200 201 200 199 199 200 199 198 198 198 198 198 199 199 198 199 198 199 198 198 198 198 197 196 198 197 196 197 198 199 199 199 201 200 201 200 200 201 201 200 200 200 200 201 202 203 202 202 201 201 201 201 202 202 202 202 203 206 -209 -209 -209 211 213 208 203 202 202 201 201 200 200 198 198 -193 -209 -209 -209 -193 -193 199 -193 200 201 204 203 204 204 204 203 -209 -209 -209 -209 -209 -209 -193 200 201 201 200 200 198 -193 197 197 196 197 195 197 196 198 198 199 199 198 199 199 199 199 197 196 194 197 197 195 194 196 196 196 196 197 196 192 196 -193 -209 -193 -193 -209 199 199 202 204 200 200 0 0 0 0 0
    0 0 0 0 0 0 0 0 0 0 0 0 0 0 0 0 0 0 0 0 0 0 0 0 0 0 0 0 0 0 0 0 0 0 0 0 0 0 0 0 0 0 0 0 0 0 0 0 0 0 0 0 0 0 0 0 0 0 0 0 0 0 0 0 0 0 0 0 0 197 197 197 197 197 198 196 198 198 198 198 198 198 198 198 200 199 199 198 198 197 196 196 196 195 194 194 194 196 193 196 194 193 195 198 198 198 198 198 196 198 198 198 197 196 196 194 196 197 197 199 197 197 198 197 197 198 197 196 193 197 194 191 195 197 196 197 197 198 197 200 200 200 198 198 199 198 198 197 197 197 197 197 197 196 196 195 196 196 197 197 198 198 197 199 200 200 199 199 199 198 199 200 199 198 199 200 198 198 198 198 197 198 198 199 197 198 198 199 198 199 198 198 197 197 198 198 196 197 199 200 200 200 201 200 200 200 200 -193 201 200 201 200 200 201 202 203 202 201 201 201 201 201 202 202 202 202 202 204 -193 -193 210 208 211 206 202 202 202 201 201 200 201 200 201 -193 -209 -209 -209 -193 -193 200 -193 200 201 204 203 205 204 205 204 -193 -209 -209 -193 202 -193 199 199 201 202 201 201 199 -193 -193 198 198 198 194 196 196 199 199 201 200 200 201 201 -193 201 200 201 197 200 200 197 198 198 199 196 197 197 199 196 200 200 201 199 -193 200 200 199 -193 -193 199 199 0 0 0 0 0
    0 0 0 0 0 0 0 0 0 0 0 0 0 0 0 0 0 0 0 0 0 0 0 0 0 0 0 0 0 0 0 0 0 0 0 0 0 0 0 0 0 0 0 0 0 0 0 0 0 0 0 0 0 0 0 0 0 0 0 0 0 0 0 0 0 0 0 0 0 196 196 196 196 196 197 196 197 197 198 198 198 198 198 198 199 199 199 198 197 197 196 196 196 195 194 194 193 195 192 196 194 194 195 198 198 198 199 198 197 -193 198 197 197 196 196 194 196 197 197 199 197 197 198 197 197 197 197 196 194 197 194 192 194 197 196 197 197 197 197 199 200 199 197 198 199 198 198 197 197 196 197 197 197 195 196 195 197 196 198 198 199 198 197 198 199 199 199 199 199 198 199 200 200 199 199 200 198 198 198 198 197 197 198 198 196 197 197 198 197 198 197 197 196 197 198 197 195 197 198 200 200 199 201 200 200 200 199 200 200 200 201 199 200 201 201 202 202 202 201 201 202 202 202 203 202 202 202 202 203 204 205 204 207 203 202 201 201 200 200 200 201 201 201 202 -209 -209 -193 203 202 200 201 200 202 204 204 206 205 206 205 -193 -209 201 201 203 197 199 -193 201 204 202 202 200 199 199 199 199 198 194 196 195 199 200 201 201 201 202 202 202 202 202 202 200 202 202 197 199 199 199 197 199 199 201 199 202 204 205 202 -193 200 201 200 201 201 199 199 0 0 0 0 0
    0 0 0 0 0 0 0 0 0 0 0 0 0 0 0 0 0 0 0 0 0 0 0 0 0 0 0 0 0 0 0 0 0 0 0 0 0 0 0 0 0 0 0 0 0 0 0 0 0 0 0 0 0 0 0 0 0 0 0 0 0 0 0 0 0 0 0 0 0 195 195 195 195 195 196 195 -193 -193 198 198 197 198 198 197 199 198 199 198 197 197 195 196 195 194 194 194 192 194 191 195 193 192 194 197 198 198 199 198 -193 -193 198 197 196 195 195 193 196 195 196 197 196 196 197 196 197 196 196 195 194 196 194 192 194 196 196 197 197 197 196 199 199 199 197 198 199 198 198 197 197 196 197 196 197 195 197 195 198 197 198 198 200 199 197 198 198 198 198 199 198 198 199 200 200 199 199 200 198 198 198 197 197 197 197 198 196 197 197 198 197 197 196 196 196 196 197 197 195 195 198 199 199 199 200 199 200 199 199 200 200 200 200 199 200 200 201 202 201 201 201 201 202 202 202 202 202 -193 200 201 201 202 202 201 203 201 201 200 200 199 199 199 200 199 201 -193 -209 -209 -209 -193 201 200 200 199 201 202 201 204 203 204 -193 -193 -193 -209 199 202 196 198 -209 -193 -193 202 -193 200 199 199 199 199 198 193 195 194 198 200 202 201 202 203 203 204 203 203 202 201 202 202 198 199 200 200 198 200 199 201 199 202 205 206 203 -193 199 200 199 200 200 198 198 0 0 0 0 0
    0 0 0 0 0 0 0 0 0 0 0 0 0 0 0 0 0 0 0 0 0 0 0 0 0 0 0 0 0 0 0 0 0 0 0 0 0 0 0 0 0 0 0 0 0 0 0 0 0 0 0 0 0 0 0 0 0 0 0 0 0 0 0 0 0 0 0 0 0 194 194 194 194 194 195 194 -193 -193 197 197 197 198 197 197 198 197 198 197 196 196 195 195 195 194 194 194 191 194 191 194 190 189 190 -193 197 196 -193 -193 -193 -177 -193 196 195 193 194 191 195 194 194 196 194 196 196 196 197 196 196 195 194 196 194 193 194 195 195 196 196 197 196 199 199 199 197 198 199 198 198 197 197 196 196 196 196 195 196 196 198 197 199 199 -193 -193 197 198 198 198 198 199 198 198 199 201 200 199 199 200 197 197 197 197 196 197 197 197 196 197 197 197 197 197 196 196 196 196 197 197 194 195 197 198 198 198 198 198 198 198 198 199 199 200 200 199 200 200 201 201 201 200 200 200 200 201 200 201 201 200 199 200 200 202 199 200 201 200 200 199 199 198 198 199 199 197 200 -193 -193 -209 -209 -209 200 199 198 198 198 198 198 201 200 202 201 197 195 196 199 202 197 199 -209 -209 -193 -193 -193 200 199 199 199 198 197 193 194 193 198 200 202 201 202 202 203 203 202 202 201 199 201 201 198 199 199 200 199 200 199 200 199 202 204 205 201 198 198 199 198 198 197 195 195 0 0 0 0 0
    0 0 0 0 0 0 0 0 0 0 0 0 0 0 0 0 0 0 0 0 0 0 0 0 0 0 0 0 0 0 0 0 0 0 0 0 0 0 0 0 0 0 0 0 0 0 0 0 0 0 0 0 0 0 0 0 0 0 0 0 0 0 0 0 0 0 0 0 0 193 193 193 192 193 193 193 -193 -193 -193 196 196 197 197 196 198 196 197 196 196 196 194 195 195 193 194 194 191 194 191 193 190 189 189 -193 194 193 196 -193 -193 0 -193 194 193 191 192 189 193 193 194 195 194 195 197 196 197 197 197 196 195 197 194 193 194 194 195 195 195 196 195 198 199 198 197 198 199 197 197 196 196 195 196 196 196 194 196 195 198 196 198 198 199 -193 -193 198 198 198 198 199 199 199 200 201 200 199 199 199 197 196 197 196 195 196 197 197 195 197 197 197 197 197 196 196 196 196 197 197 194 196 197 197 198 197 197 197 198 197 197 197 199 199 200 199 199 199 199 200 200 199 199 200 200 201 200 201 200 200 199 199 199 201 197 198 200 199 199 199 199 198 198 199 199 197 200 200 -209 -209 -209 -209 -209 199 198 198 197 197 198 201 200 202 201 198 196 196 -193 -193 197 199 -209 -193 -193 203 203 200 199 199 198 198 197 193 194 193 198 -193 202 201 201 202 202 203 201 202 201 199 201 201 198 197 198 199 198 198 197 198 198 200 202 203 200 197 196 197 196 196 194 192 192 0 0 0 0 0
    0 0 0 0 0 0 0 0 0 0 0 0 0 0 0 0 0 0 0 0 0 0 0 0 0 0 0 0 0 0 0 0 0 0 0 0 0 0 0 0 0 0 0 0 0 0 0 0 0 0 0 0 0 0 0 0 0 0 0 0 0 0 0 0 0 0 0 0 0 192 192 192 191 192 192 192 192 -193 195 195 196 197 196 196 198 196 197 196 196 196 195 196 195 192 194 195 191 194 191 191 189 188 188 -193 192 191 194 192 -193 -193 -193 193 192 190 191 188 192 191 193 194 193 195 196 196 198 197 196 195 195 196 194 193 193 194 194 194 195 196 194 197 198 197 196 197 198 197 197 195 196 194 195 195 195 194 195 194 196 195 197 197 198 -193 -193 -193 -193 198 199 200 200 199 200 201 200 199 199 199 197 196 196 195 194 195 196 196 195 196 196 197 197 197 196 196 195 195 197 196 194 196 197 197 198 197 198 197 198 197 197 197 199 199 199 199 199 199 199 200 200 199 200 200 200 201 200 201 200 200 198 198 198 199 195 197 200 199 199 199 199 199 199 200 200 198 200 200 -209 -209 -209 -209 -209 199 198 198 198 196 198 200 200 201 199 197 196 196 -193 -193 -193 199 -193 201 207 203 203 200 199 199 198 198 198 193 193 192 198 200 201 200 201 202 202 203 201 202 201 200 202 201 198 196 197 198 196 197 195 196 195 198 200 202 199 196 194 194 194 193 191 189 190 0 0 0 0 0
    0 0 0 0 0 0 0 0 0 0 0 0 0 0 0 0 0 0 0 0 0 0 0 0 0 0 0 0 0 0 0 0 0 0 0 0 0 0 0 0 0 0 0 0 0 0 0 0 0 0 0 0 0 0 0 0 0 0 0 0 0 0 0 0 0 0 0 0 0 192 192 191 191 191 191 192 191 191 194 194 195 196 195 195 197 196 196 196 196 196 195 196 195 192 195 194 190 194 190 190 189 187 187 -193 191 190 194 191 191 191 192 192 191 189 190 187 191 189 192 193 192 194 196 196 198 197 196 195 195 196 194 193 193 193 193 193 194 195 194 196 197 197 195 197 198 197 197 195 195 193 194 195 194 193 194 193 195 194 195 196 197 -193 -193 197 -193 198 199 200 200 200 201 202 201 199 199 200 197 197 196 196 195 195 197 197 195 196 197 197 197 197 196 196 195 195 197 196 194 -193 -193 -193 198 197 198 197 198 197 197 197 199 199 200 200 200 199 199 200 200 200 200 201 200 201 200 201 199 200 198 198 197 198 194 197 200 199 199 199 199 199 199 200 200 198 200 200 -193 -209 -209 -193 -209 -193 -193 197 196 192 197 199 200 200 200 198 197 197 -193 -193 -193 -193 -193 202 209 204 203 -193 199 198 198 198 197 192 191 189 196 199 200 199 -193 202 202 202 200 201 201 200 203 200 198 197 197 198 196 197 195 195 193 196 199 203 -193 195 194 194 194 193 191 188 190 0 0 0 0 0
    0 0 0 0 0 0 0 0 0 0 0 0 0 0 0 0 0 0 0 0 0 0 0 0 0 0 0 0 0 0 0 0 0 0 0 0 0 0 0 0 0 0 0 0 0 0 0 0 0 0 0 0 0 0 0 0 0 0 0 0 0 0 0 0 0 0 0 0 0 192 193 192 192 192 191 192 191 191 193 193 194 195 194 194 197 195 196 196 195 195 195 195 195 190 194 193 -193 -193 189 189 189 -193 -209 -209 -193 -193 192 190 190 190 191 191 190 189 189 187 191 189 191 191 191 194 196 196 198 197 196 195 195 196 194 192 193 193 192 193 193 195 194 196 197 197 195 197 198 197 197 195 195 193 194 195 194 194 194 193 195 193 194 195 195 -193 -193 196 -193 197 199 199 200 200 201 202 202 200 200 201 198 197 197 197 196 196 197 197 195 196 197 197 197 197 196 195 195 195 196 196 195 196 198 198 198 197 198 197 197 197 197 197 198 199 200 200 201 200 200 200 201 201 201 201 200 201 199 200 199 199 198 197 197 197 194 197 200 199 199 199 199 199 200 200 201 198 201 200 -209 -209 -193 -209 -209 -193 -193 195 193 189 193 197 198 199 200 199 198 199 201 203 -193 -193 -193 203 211 205 204 -193 199 198 198 198 196 191 190 188 194 197 198 197 -193 200 200 201 199 200 200 199 202 199 198 196 196 198 197 198 197 195 195 197 200 205 201 197 195 195 195 193 191 188 190 0 0 0 0 0
    0 0 0 0 0 0 0 0 0 0 0 0 0 0 0 0 0 0 0 0 0 0 0 0 0 0 0 0 0 0 0 0 0 0 0 0 0 0 0 0 0 0 0 0 0 0 0 0 0 0 0 0 0 0 0 0 0 0 0 0 0 0 0 0 0 0 0 0 0 193 193 193 193 192 192 193 191 191 192 193 193 194 194 194 196 194 195 195 195 195 194 195 194 190 194 192 -193 -193 188 -193 -193 -193 -209 -209 -209 -209 -193 -193 -193 -193 191 192 191 189 191 187 193 190 191 191 191 195 196 196 198 196 196 195 195 195 194 192 192 193 192 193 193 195 194 196 197 197 195 197 197 197 196 194 194 193 193 194 193 194 194 193 194 192 193 195 -193 -193 -193 -193 -193 197 199 200 200 200 201 202 202 201 200 201 199 198 198 197 197 196 197 197 196 197 197 197 197 197 196 195 194 195 196 196 195 197 198 198 198 197 198 196 196 196 197 196 198 198 200 200 201 201 200 200 202 -193 202 202 200 201 199 200 199 199 198 197 197 197 195 197 199 199 199 199 199 199 200 200 201 198 200 199 -193 -209 -193 -193 -193 -193 -209 -193 -193 187 189 191 195 196 199 198 198 200 202 204 204 204 -209 204 211 205 203 -193 199 199 198 198 197 192 191 188 194 196 196 195 -193 -193 199 200 198 198 199 198 201 199 198 196 196 198 198 200 199 197 198 199 202 205 202 198 194 194 194 193 191 188 190 0 0 0 0 0
    0 0 0 0 0 0 0 0 0 0 0 0 0 0 0 0 0 0 0 0 0 0 0 0 0 0 0 0 0 0 0 0 0 0 0 0 0 0 0 0 0 0 0 0 0 0 0 0 0 0 0 0 0 0 0 0 0 0 0 0 0 0 0 0 0 0 0 0 0 193 194 194 193 192 192 193 191 191 192 193 193 194 193 193 196 194 195 195 194 194 194 194 194 189 192 190 -193 189 189 188 190 -193 -193 -209 -209 -209 -193 -193 -193 -193 -193 193 192 191 193 189 196 193 194 193 191 195 195 196 197 195 195 194 194 195 193 192 192 193 192 193 194 195 195 196 197 197 196 197 197 196 196 194 194 193 193 194 193 194 193 193 194 192 192 194 -193 -193 -209 196 197 197 199 199 200 200 201 202 202 201 201 201 199 198 198 197 197 196 197 198 196 197 197 197 197 197 196 195 194 194 195 195 195 197 198 198 198 197 197 197 196 196 197 197 198 199 200 201 202 202 201 201 202 201 202 202 199 200 198 199 198 198 197 196 197 197 194 197 199 198 198 198 199 199 199 200 200 198 198 199 200 -193 -209 -193 -209 -193 -193 -193 189 187 188 189 192 193 197 197 198 200 202 204 204 204 204 204 210 205 203 200 199 199 199 199 198 194 193 190 197 196 196 195 -193 198 198 199 197 196 197 196 201 199 198 196 197 199 199 200 200 197 199 199 202 205 204 198 193 192 193 192 189 188 189 0 0 0 0 0
    0 0 0 0 0 0 0 0 0 0 0 0 0 0 0 0 0 0 0 0 0 0 0 0 0 0 0 0 0 0 0 0 0 0 0 0 0 0 0 0 0 0 0 0 0 0 0 0 0 0 0 0 0 0 0 0 0 0 0 0 0 0 0 0 0 0 0 0 0 193 194 194 194 193 193 193 191 192 193 193 194 194 194 194 196 194 195 195 194 193 193 193 192 189 192 189 187 189 190 189 191 190 -193 -193 -209 -193 -193 -193 -193 -193 192 193 193 191 194 189 196 194 194 193 190 194 195 195 197 196 196 195 194 194 193 192 193 194 193 193 193 195 195 196 197 197 196 197 196 197 196 195 195 194 193 194 193 194 194 193 194 193 192 194 192 -209 -193 195 196 196 198 198 199 200 201 201 201 201 200 201 199 198 198 198 197 196 198 198 197 197 198 197 197 197 197 195 194 194 195 195 195 197 198 198 198 197 197 197 196 196 197 197 199 199 200 201 202 202 202 202 203 202 202 202 200 200 198 198 197 197 197 196 197 197 195 197 199 198 198 198 198 198 199 200 200 197 198 198 200 199 -193 197 198 195 193 193 190 188 189 189 190 190 196 196 197 200 202 204 205 206 206 -193 210 205 203 201 200 200 200 199 198 195 195 194 199 197 196 195 195 197 197 197 196 194 196 195 199 199 198 197 197 199 199 200 200 197 197 197 -209 205 205 198 192 192 192 192 190 189 189 0 0 0 0 0
    0 0 0 0 0 0 0 0 0 0 0 0 0 0 0 0 0 0 0 0 0 0 0 0 0 0 0 0 0 0 0 0 0 0 0 0 0 0 0 0 0 0 0 0 0 0 0 0 0 0 0 0 0 0 0 0 0 0 0 0 0 0 0 0 0 0 0 0 0 193 194 195 194 193 194 194 192 193 194 194 193 194 194 193 196 193 194 193 193 192 192 192 191 188 191 189 187 190 191 190 194 192 192 192 -193 191 193 191 191 191 191 192 192 191 195 191 197 195 197 197 195 196 196 197 198 196 196 195 194 194 193 192 193 194 192 192 192 194 194 195 196 196 194 196 195 196 195 195 195 194 193 194 193 194 193 193 193 193 192 194 193 -193 194 196 197 196 197 198 199 200 201 201 201 200 201 201 200 199 199 198 197 197 198 199 198 197 198 197 197 197 197 195 193 193 195 195 195 197 198 197 198 197 197 197 196 196 196 196 198 198 199 200 201 202 201 202 203 202 202 202 200 200 199 199 -193 198 197 197 198 197 196 197 199 198 198 198 199 199 199 200 201 200 199 200 200 199 200 197 198 195 194 193 191 189 189 189 190 189 195 196 197 201 203 206 208 209 210 -193 211 205 203 -193 200 200 200 200 199 196 196 -193 199 196 196 194 194 196 197 196 196 193 195 194 198 198 197 196 197 198 198 199 199 196 194 193 195 199 199 197 193 193 193 194 194 192 190 0 0 0 0 0</data></disparity>
</opencv_storage>
