<?xml version="1.0"?>
<opencv_storage>
<gps_time_stamp>39140</gps_time_stamp>
<gps_x>-1.3967254638671875e+001</gps_x>
<gps_y>1.5490301847457886e+000</gps_y>
<gps_z>-4.1950368881225586e+000</gps_z>
<image_time_stamp>27064</image_time_stamp>
<disparity type_id="opencv-matrix">
  <rows>85</rows>
  <cols>320</cols>
  <dt>s</dt>
  <data>
    0 0 0 0 0 0 0 0 0 0 0 0 0 0 0 0 0 0 0 0 0 0 0 0 0 0 0 0 0 0 0 0 0 0 0 0 0 0 0 0 0 0 0 0 0 0 0 0 0 0 0 0 0 0 0 0 0 0 0 0 0 0 0 0 0 0 0 0 0 -209 -209 0 11 11 11 15 15 15 15 14 14 14 15 17 14 13 13 13 13 13 12 11 9 0 0 0 0 0 0 0 0 0 0 0 0 0 0 0 0 0 0 0 0 0 0 0 0 0 0 0 0 12 10 10 9 0 0 0 0 0 0 0 0 0 0 0 0 0 0 0 0 0 0 0 0 0 0 0 0 0 0 0 0 0 0 0 0 0 0 0 0 0 0 0 0 -193 0 0 0 0 0 0 9 9 0 9 11 10 10 11 10 11 10 10 9 0 9 10 9 9 0 0 9 10 11 12 10 11 13 13 13 14 13 12 10 12 0 0 0 11 10 11 18 15 14 14 16 16 15 16 16 13 13 14 20 16 15 15 19 16 19 20 18 14 22 18 18 14 17 15 14 16 16 11 15 13 14 15 19 15 15 16 20 17 18 17 17 14 19 20 19 13 25 27 27 28 33 37 37 39 43 41 39 39 39 37 34 34 32 28 27 27 28 27 31 39 39 39 43 49 48 49 44 43 44 40 42 35 32 30 28 28 29 28 31 31 34 36 36 37 36 36 36 36 36 0 0 0 0 0
    0 0 0 0 0 0 0 0 0 0 0 0 0 0 0 0 0 0 0 0 0 0 0 0 0 0 0 0 0 0 0 0 0 0 0 0 0 0 0 0 0 0 0 0 0 0 0 0 0 0 0 0 0 0 0 0 0 0 0 0 0 0 0 0 0 0 0 0 0 -209 -209 0 11 10 11 15 15 15 15 14 14 14 14 16 13 12 13 12 13 14 12 12 9 9 0 0 0 0 0 0 0 0 0 0 0 0 0 0 0 0 0 0 0 0 0 0 0 0 9 0 0 12 10 10 9 0 0 0 0 0 0 0 0 0 0 0 0 0 0 0 0 0 0 0 0 0 0 0 0 0 0 0 0 0 0 0 0 0 0 0 0 0 0 0 0 -193 -193 9 0 0 0 0 0 9 0 9 11 10 10 11 10 11 10 9 9 0 9 9 9 9 0 0 9 9 10 12 10 11 13 13 13 14 13 12 11 12 9 0 9 12 11 11 19 16 15 14 15 15 14 15 15 12 12 13 20 15 15 15 19 17 19 20 18 13 22 18 17 13 17 15 14 17 16 11 17 16 17 18 21 17 17 18 22 19 19 19 18 16 -193 -193 -193 15 26 30 29 31 37 39 39 40 45 43 41 40 41 38 35 36 35 29 28 28 28 27 39 42 42 41 44 48 47 49 45 44 45 42 43 -193 37 35 30 30 31 -193 -193 33 -193 -193 -193 -193 -193 -193 38 39 38 0 0 0 0 0
    0 0 0 0 0 0 0 0 0 0 0 0 0 0 0 0 0 0 0 0 0 0 0 0 0 0 0 0 0 0 0 0 0 0 0 0 0 0 0 0 0 0 0 0 0 0 0 0 0 0 0 0 0 0 0 0 0 0 0 0 0 0 0 0 0 0 0 0 0 0 0 0 12 12 12 16 16 16 15 14 14 13 14 15 13 12 13 12 13 14 13 13 11 11 10 0 0 0 0 0 0 0 0 0 0 0 0 0 0 0 0 0 0 0 0 0 0 0 9 0 0 12 10 10 10 9 0 9 9 0 0 0 0 0 0 0 0 0 0 0 0 0 0 0 0 0 0 0 0 0 0 0 0 0 0 0 0 0 0 0 0 0 0 0 0 -193 -193 9 0 0 0 0 9 9 9 9 11 10 10 11 9 11 10 10 9 0 0 9 9 10 0 0 9 10 10 12 11 12 13 13 13 13 13 13 13 13 11 9 10 13 12 12 19 16 15 14 15 15 14 15 15 12 12 12 19 15 15 15 19 17 19 20 18 13 22 18 18 13 17 15 14 17 17 12 19 18 19 20 21 19 19 20 22 20 20 -193 -193 20 -177 -177 -193 -193 28 33 31 34 38 39 39 41 45 43 42 41 41 39 37 38 38 32 30 31 31 30 43 44 44 43 44 47 46 48 45 44 45 43 44 42 40 39 34 -193 35 -193 -193 -193 -193 -193 -193 -193 -193 -193 41 42 41 0 0 0 0 0
    0 0 0 0 0 0 0 0 0 0 0 0 0 0 0 0 0 0 0 0 0 0 0 0 0 0 0 0 0 0 0 0 0 0 0 0 0 0 0 0 0 0 0 0 0 0 0 0 0 0 0 0 0 0 0 0 0 0 0 0 0 0 0 0 0 0 0 0 0 -193 9 0 13 12 12 17 17 17 16 15 15 14 14 15 13 13 13 13 14 15 14 16 12 14 12 9 0 0 0 0 0 0 0 0 0 0 0 0 0 0 0 0 0 0 0 0 0 0 0 0 0 12 10 10 10 9 9 9 9 9 0 0 0 0 0 0 0 0 0 0 0 0 0 0 0 0 0 0 0 0 0 0 0 0 0 0 0 0 0 0 0 0 0 0 0 -193 -193 9 0 0 0 0 0 9 0 9 11 10 11 11 10 12 10 10 10 9 9 9 10 11 0 9 10 11 11 13 13 12 14 14 13 13 14 13 13 13 12 10 11 14 12 12 20 16 15 14 14 14 13 14 14 11 11 11 19 15 15 15 19 16 19 19 18 13 22 18 17 13 17 16 15 17 18 12 20 20 21 21 22 20 20 22 24 22 22 -193 -193 -193 -177 -193 -193 -209 29 34 33 37 39 40 39 41 44 42 42 42 42 40 39 41 42 38 41 41 41 41 45 46 45 43 44 46 45 47 45 45 45 44 45 44 42 42 38 39 38 39 41 39 42 42 43 45 45 47 45 46 44 0 0 0 0 0
    0 0 0 0 0 0 0 0 0 0 0 0 0 0 0 0 0 0 0 0 0 0 0 0 0 0 0 0 0 0 0 0 0 0 0 0 0 0 0 0 0 0 0 0 0 0 0 0 0 0 0 0 0 0 0 0 0 0 0 0 0 0 0 0 0 0 0 0 0 9 10 9 14 13 13 18 17 18 17 16 15 14 13 14 12 13 13 13 14 17 16 19 16 20 15 12 10 0 0 0 0 0 0 0 0 0 0 0 0 0 0 0 0 0 0 0 0 0 0 0 0 12 11 11 11 10 10 10 10 10 0 0 0 0 0 0 0 0 0 0 0 0 0 0 0 0 0 0 0 0 0 0 0 0 0 0 0 0 0 0 0 0 0 0 0 -193 -177 0 0 0 0 0 0 0 0 9 10 10 11 10 9 11 10 10 -193 -193 0 9 10 12 0 12 13 13 14 16 17 14 15 15 13 13 14 13 13 13 12 10 11 13 12 12 20 15 15 14 14 14 13 14 14 12 11 11 19 15 14 15 19 17 19 19 18 13 22 18 18 13 17 16 15 18 18 12 22 22 22 23 22 21 22 23 28 23 -209 -177 -209 26 29 31 29 27 32 35 34 37 39 39 39 40 43 41 42 42 42 39 40 41 43 41 43 43 44 44 46 47 46 44 44 46 45 46 45 44 45 44 45 45 43 44 41 41 41 42 43 42 44 44 45 47 48 49 48 48 46 0 0 0 0 0
    0 0 0 0 0 0 0 0 0 0 0 0 0 0 0 0 0 0 0 0 0 0 0 0 0 0 0 0 0 0 0 0 0 0 0 0 0 0 0 0 0 0 0 0 0 0 0 0 0 0 0 0 0 0 0 0 0 0 0 0 0 0 0 0 0 0 0 0 0 10 11 10 15 14 14 19 18 19 18 16 16 14 13 14 12 13 14 14 16 18 18 21 20 23 18 14 12 10 0 0 0 0 0 0 0 0 0 0 0 0 0 0 0 0 0 0 0 0 0 0 0 13 11 11 12 11 10 10 11 10 0 0 0 0 0 0 0 0 0 0 0 0 0 0 0 0 0 0 0 0 0 0 0 0 0 0 0 0 0 0 0 0 0 0 -193 -193 -177 9 0 0 0 0 0 9 9 9 10 10 10 0 0 -193 -193 -193 -177 -193 0 0 10 13 -193 13 17 17 18 19 20 17 17 15 14 13 14 13 13 12 12 10 11 12 12 12 19 14 15 14 14 14 13 14 13 11 11 10 18 14 14 15 -193 17 18 19 17 13 22 18 17 13 17 17 16 19 19 13 24 24 24 26 24 23 26 28 34 28 28 -193 28 30 33 34 33 30 35 36 36 38 39 40 40 40 42 41 41 41 41 39 39 40 43 41 43 44 45 44 47 46 45 44 44 45 44 45 44 44 45 44 45 45 44 45 42 43 42 43 44 43 45 45 46 47 48 49 48 49 47 0 0 0 0 0
    0 0 0 0 0 0 0 0 0 0 0 0 0 0 0 0 0 0 0 0 0 0 0 0 0 0 0 0 0 0 0 0 0 0 0 0 0 0 0 0 0 0 0 0 0 0 0 0 0 0 0 0 0 0 0 0 0 0 0 0 0 0 0 0 0 0 0 0 0 11 12 11 15 16 15 20 19 19 19 18 17 15 14 14 12 14 16 16 17 20 21 23 23 25 21 17 14 11 0 0 0 9 0 0 0 0 0 0 0 0 0 0 0 0 0 0 0 0 0 0 0 13 11 11 12 11 11 10 11 11 0 0 0 0 0 0 0 0 0 0 0 0 0 0 0 0 0 0 0 0 0 0 0 0 0 0 0 0 0 0 0 0 0 -193 -193 -193 -177 -193 9 0 0 9 9 9 9 9 9 9 10 0 0 -193 -193 -193 -193 0 0 0 9 12 -193 14 20 21 20 21 21 19 18 16 15 14 13 13 13 12 12 9 10 11 11 11 18 14 15 13 13 14 13 14 14 11 11 10 17 14 14 15 -193 16 18 19 18 13 22 17 17 14 18 18 17 20 20 15 25 26 27 28 27 28 34 34 37 35 34 35 34 35 36 36 36 34 37 38 38 39 40 40 40 41 42 40 40 40 39 36 38 38 41 41 43 45 45 45 47 46 45 44 43 44 43 44 43 43 44 44 45 45 44 45 43 44 43 43 44 43 44 45 46 47 47 48 48 48 46 0 0 0 0 0
    0 0 0 0 0 0 0 0 0 0 0 0 0 0 0 0 0 0 0 0 0 0 0 0 0 0 0 0 0 0 0 0 0 0 0 0 0 0 0 0 0 0 0 0 0 0 0 0 0 0 0 0 0 0 0 0 0 0 0 0 0 0 0 0 0 0 0 0 0 12 13 11 16 18 16 20 20 20 20 19 18 16 14 15 13 16 18 18 19 -193 -209 -193 25 26 21 18 15 12 0 0 0 9 0 0 0 0 0 0 0 0 0 0 0 0 0 0 0 0 9 0 0 13 12 12 12 11 11 10 11 11 0 0 0 0 0 0 0 0 0 0 0 0 -177 0 0 0 0 0 0 0 0 0 0 0 0 0 0 0 0 0 0 0 0 -193 -193 -193 390 -193 9 9 0 9 9 9 0 0 9 9 9 0 0 -193 -193 -193 -193 0 0 0 9 11 10 16 22 23 23 23 23 20 20 16 15 14 13 13 13 12 12 9 9 10 10 10 16 13 14 13 13 14 14 14 14 12 12 10 18 15 15 16 19 17 19 20 18 14 22 18 16 14 18 19 18 20 21 17 26 27 28 30 28 33 37 37 38 37 37 38 36 37 38 38 38 37 38 38 38 40 40 41 40 41 42 40 40 40 39 37 38 39 42 41 44 45 46 46 47 46 46 44 43 43 42 42 42 42 43 43 45 46 45 46 45 45 45 44 45 44 45 45 46 47 47 47 48 47 46 0 0 0 0 0
    0 0 0 0 0 0 0 0 0 0 0 0 0 0 0 0 0 0 0 0 0 0 0 0 0 0 0 0 0 0 0 0 0 0 0 0 0 0 0 0 0 0 0 0 0 0 0 0 0 0 0 0 0 0 0 0 0 0 0 0 0 0 0 0 0 0 0 0 0 12 13 12 16 18 15 20 20 20 20 19 19 18 16 17 15 18 20 20 22 -193 26 26 25 26 22 16 15 12 0 9 0 0 0 0 0 0 0 0 0 0 0 0 0 0 0 0 0 0 10 9 9 13 12 12 12 11 11 10 11 11 0 0 0 0 0 0 0 0 0 0 0 0 -177 0 0 0 0 0 0 0 0 0 0 0 0 0 0 0 0 0 0 0 -193 -193 -177 -193 391 -193 0 0 0 0 9 0 0 0 0 9 9 0 0 0 -193 -193 0 0 0 0 0 10 11 19 24 25 25 25 24 21 21 17 15 14 13 13 13 12 12 0 0 0 9 -193 -193 11 14 12 12 14 14 14 14 13 14 11 18 16 16 18 19 18 19 20 19 15 22 18 16 14 18 19 19 21 21 18 26 27 28 30 29 34 38 37 38 38 38 39 37 38 39 39 39 38 39 39 38 40 40 40 40 41 42 40 40 40 38 37 39 39 43 42 45 46 46 46 47 46 46 44 43 42 41 41 41 41 42 43 45 46 46 47 46 46 46 45 45 45 45 45 46 47 46 47 48 47 45 0 0 0 0 0
    0 0 0 0 0 0 0 0 0 0 0 0 0 0 0 0 0 0 0 0 0 0 0 0 0 0 0 0 0 0 0 0 0 0 0 0 0 0 0 0 0 0 0 0 0 0 0 0 0 0 0 0 0 0 0 0 0 0 0 0 0 0 0 0 0 0 0 0 0 13 14 12 15 18 15 19 19 19 20 19 19 19 18 20 19 21 23 23 24 27 28 27 27 27 23 18 18 14 9 10 9 9 0 0 0 0 0 0 0 0 0 0 0 0 0 0 0 0 10 9 9 13 12 12 12 11 11 10 11 12 0 0 0 0 0 0 0 0 0 0 -177 0 -177 0 0 0 0 0 0 0 0 0 0 0 0 0 0 0 0 0 0 0 -193 -193 389 -193 391 -193 0 9 0 0 9 9 0 0 9 9 9 0 0 0 -193 -193 0 0 0 0 9 12 14 22 25 26 27 26 24 22 22 18 16 14 13 13 13 11 13 0 0 0 0 0 11 10 13 11 12 14 14 14 14 13 15 11 18 16 17 19 20 19 20 21 19 17 23 18 16 15 18 19 19 21 22 19 26 27 28 30 29 35 38 37 38 38 38 39 38 39 39 39 39 39 39 39 38 40 39 40 40 40 41 39 40 40 37 37 39 39 43 42 45 46 46 46 46 45 46 44 43 42 41 41 41 41 42 42 44 45 45 46 46 46 46 45 45 45 46 -193 -193 -193 -193 -193 -193 -193 -193 0 0 0 0 0
    0 0 0 0 0 0 0 0 0 0 0 0 0 0 0 0 0 0 0 0 0 0 0 0 0 0 0 0 0 0 0 0 0 0 0 0 0 0 0 0 0 0 0 0 0 0 0 0 0 0 0 0 0 0 0 0 0 0 0 0 0 0 0 0 0 0 0 0 0 14 14 12 15 19 15 19 19 19 19 19 20 20 20 22 22 24 27 26 27 29 30 29 28 27 22 16 16 15 11 11 9 10 0 9 9 0 0 0 0 0 0 0 0 0 0 0 0 0 10 9 9 14 12 12 12 11 11 10 11 12 0 0 0 0 0 0 0 0 0 -177 -177 0 0 0 0 0 0 0 0 0 0 0 0 -193 -209 -193 -193 0 0 0 -193 -193 -193 389 389 -193 -193 -209 9 9 0 9 12 12 11 10 11 10 10 0 0 0 -193 -193 0 0 0 0 10 16 18 24 26 28 29 29 26 23 22 18 16 14 13 12 13 11 12 0 0 0 0 0 10 9 12 11 12 14 15 15 15 15 16 12 18 17 18 20 21 20 20 21 20 18 23 18 16 15 19 19 19 21 22 -193 26 27 29 30 29 35 38 37 38 39 39 39 38 39 39 39 40 39 39 39 39 40 39 40 40 -193 41 39 39 39 35 37 39 39 43 42 45 45 45 45 46 45 45 44 43 43 42 42 42 42 43 43 44 45 45 45 45 45 45 44 45 45 46 -193 -193 -193 -193 -193 -193 -193 -193 0 0 0 0 0
    0 0 0 0 0 0 0 0 0 0 0 0 0 0 0 0 0 0 0 0 0 0 0 0 0 0 0 0 0 0 0 0 0 0 0 0 0 0 0 0 0 0 0 0 0 0 0 0 0 0 0 0 0 0 0 0 0 0 0 0 0 0 0 0 0 0 0 0 0 15 14 11 15 19 14 19 18 19 19 20 21 21 21 23 24 26 30 29 29 30 31 31 28 27 22 15 15 15 13 12 10 11 9 11 11 10 0 0 10 9 0 0 0 0 0 0 0 0 12 10 10 16 13 14 13 12 12 11 12 13 9 9 0 10 9 9 0 0 0 -177 -177 -177 0 0 0 0 0 0 9 10 10 0 -209 354 -193 -193 27 -209 -193 -193 -193 -193 -193 389 388 389 -193 -209 -209 9 9 11 23 22 20 -193 14 11 11 0 0 0 -193 -193 0 0 0 0 11 19 21 25 27 29 31 31 28 24 23 19 17 15 13 13 13 11 12 0 0 0 0 0 0 0 12 11 12 14 16 16 15 16 17 13 18 17 19 20 21 20 21 22 21 19 23 18 16 15 19 19 19 21 22 -193 26 27 29 30 30 36 38 37 38 39 39 39 38 39 39 39 40 39 39 -193 39 41 -193 40 -193 39 41 39 39 39 35 38 39 39 43 42 44 45 45 45 45 44 45 44 43 43 42 42 42 42 43 43 44 45 45 45 45 45 45 44 45 45 46 -193 -193 -193 46 47 -193 -193 44 0 0 0 0 0
    0 0 0 0 0 0 0 0 0 0 0 0 0 0 0 0 0 0 0 0 0 0 0 0 0 0 0 0 0 0 0 0 0 0 0 0 0 0 0 0 0 0 0 0 0 0 0 0 0 0 0 0 0 0 0 0 0 0 0 0 0 0 0 0 0 0 0 0 0 15 14 11 13 19 14 18 18 19 20 20 21 22 21 25 24 27 31 28 28 30 30 29 27 27 23 17 18 18 14 13 11 14 11 15 17 16 0 11 17 13 15 14 13 9 0 9 0 0 14 11 11 18 14 16 15 13 13 12 13 13 10 11 10 11 10 9 10 0 0 0 0 0 10 10 10 9 9 9 13 14 16 -193 25 -193 -193 30 29 28 -209 -209 389 392 -193 -193 -193 -193 -193 11 -193 11 11 17 26 26 -193 -193 16 12 11 0 0 0 0 0 0 0 0 0 12 20 23 26 28 31 32 32 29 25 24 20 18 16 13 13 13 11 12 0 0 0 0 0 0 0 12 11 13 15 17 16 16 16 18 14 18 18 19 21 22 21 21 22 21 20 23 18 16 16 19 19 19 21 22 -177 26 26 28 30 30 36 39 37 37 38 38 38 37 -193 39 -193 -193 39 39 -193 39 -193 -193 40 40 39 41 39 39 39 35 38 40 39 43 41 44 44 44 44 45 44 45 44 44 43 43 42 42 41 43 43 44 45 45 45 45 46 46 44 45 45 47 -193 47 47 47 47 47 46 45 0 0 0 0 0
    0 0 0 0 0 0 0 0 0 0 0 0 0 0 0 0 0 0 0 0 0 0 0 0 0 0 0 0 0 0 0 0 0 0 0 0 0 0 0 0 0 0 0 0 0 0 0 0 0 0 0 0 0 0 0 0 0 0 0 0 0 0 0 0 0 0 0 0 0 15 14 11 13 18 13 18 18 19 20 21 23 23 23 26 27 29 32 28 29 30 30 30 30 28 26 22 23 23 19 15 14 17 14 20 22 23 13 16 22 21 24 25 24 23 11 15 15 11 20 12 14 20 16 18 18 -193 -193 -193 15 14 11 13 11 12 12 10 13 11 12 11 9 11 14 14 18 16 14 12 20 21 23 23 27 32 30 31 30 29 28 -209 -209 -193 391 -193 -193 0 9 13 -193 13 15 23 27 27 25 -193 18 12 12 0 0 0 0 0 0 0 0 0 13 22 24 28 28 31 32 32 29 26 -193 21 18 16 14 13 13 11 13 0 0 0 0 0 9 9 12 11 13 15 18 17 17 17 19 15 18 18 20 21 22 22 22 23 22 21 23 18 16 16 19 19 19 22 146 -177 26 27 29 31 31 37 38 36 37 38 38 37 37 -193 38 -177 -177 -193 39 -193 40 -193 -193 -193 -193 39 41 39 40 39 36 38 40 39 42 41 43 44 44 44 44 44 45 44 44 44 43 43 43 42 43 43 44 44 44 45 45 45 45 44 45 45 47 -193 47 47 46 47 47 46 45 0 0 0 0 0
    0 0 0 0 0 0 0 0 0 0 0 0 0 0 0 0 0 0 0 0 0 0 0 0 0 0 0 0 0 0 0 0 0 0 0 0 0 0 0 0 0 0 0 0 0 0 0 0 0 0 0 0 0 0 0 0 0 0 0 0 0 0 0 0 0 0 0 0 0 14 13 10 12 17 13 18 18 19 -193 22 23 24 24 28 29 31 32 29 30 32 31 31 31 29 27 26 27 26 25 21 20 21 20 24 25 26 22 21 26 25 26 27 26 27 13 19 23 17 22 14 18 23 19 20 21 17 -193 -193 16 14 11 13 12 12 12 11 17 18 23 20 19 20 23 22 25 25 23 24 25 25 26 26 28 33 32 31 30 30 29 27 27 27 -209 -209 -209 0 10 15 -193 17 21 27 29 29 26 -193 20 14 13 0 0 0 0 0 0 0 0 -177 19 25 25 29 30 31 33 33 29 28 27 -193 19 18 15 13 13 11 13 0 0 0 0 0 9 9 12 11 13 15 19 17 17 18 19 16 18 18 20 -193 -193 -193 23 24 -193 -193 163 19 16 16 19 18 -193 -193 146 -177 26 28 29 30 31 36 38 36 37 38 37 37 37 -193 38 -177 -177 -193 39 -193 -193 -193 -193 -193 -193 39 41 39 40 39 36 38 40 39 42 41 43 43 43 43 44 44 45 44 44 45 44 44 44 43 44 43 44 -193 -193 -193 44 45 45 -193 -193 -193 47 -193 47 47 46 46 47 47 45 0 0 0 0 0
    0 0 0 0 0 0 0 0 0 0 0 0 0 0 0 0 0 0 0 0 0 0 0 0 0 0 0 0 0 0 0 0 0 0 0 0 0 0 0 0 0 0 0 0 0 0 0 0 0 0 0 0 0 0 0 0 0 0 0 0 0 0 0 0 0 0 0 0 0 15 13 10 12 17 13 -193 18 19 -193 23 24 25 26 29 31 33 34 31 33 33 32 32 32 30 29 28 28 28 26 24 23 24 23 25 27 27 26 24 29 28 28 29 28 29 -193 26 27 22 24 18 22 27 21 22 23 -193 -193 -193 -193 13 11 12 12 11 12 12 21 25 26 27 26 26 26 26 27 28 26 27 26 27 28 28 29 33 33 32 31 32 31 29 29 29 -193 -209 -209 -193 13 20 25 23 26 31 31 30 27 25 21 15 14 0 0 -193 0 0 0 0 11 19 25 27 27 30 31 32 32 33 30 29 29 -193 21 19 17 14 14 11 12 0 0 0 0 9 10 9 13 11 13 15 18 17 16 18 19 16 18 18 20 -193 -193 -193 23 24 -177 -177 162 19 16 16 19 18 143 143 145 -193 26 29 29 30 31 36 38 36 37 37 37 37 37 39 38 -193 -177 -193 39 -193 -209 -209 -193 -209 -209 39 41 39 40 40 36 38 39 39 42 40 43 43 43 43 43 43 44 44 44 45 45 45 45 45 45 44 44 -193 -193 -193 -193 -193 -193 -193 -193 -193 47 -193 48 47 47 47 47 47 46 0 0 0 0 0
    0 0 0 0 0 0 0 0 0 0 0 0 0 0 0 0 0 0 0 0 0 0 0 0 0 0 0 0 0 0 0 0 0 0 0 0 0 0 0 0 0 0 0 0 0 0 0 0 0 0 0 0 0 0 0 0 0 0 0 0 0 0 0 0 0 0 0 0 0 15 13 10 12 17 13 -193 19 20 -193 -193 26 28 28 30 33 34 35 33 35 34 32 33 34 31 30 30 30 29 27 25 24 25 25 26 28 29 29 28 35 32 31 32 30 31 29 29 30 24 25 23 24 35 24 25 26 -193 960 -193 -193 12 10 11 10 10 11 12 23 26 28 31 28 28 29 28 29 30 28 28 27 28 29 29 30 33 33 33 32 33 32 31 31 31 28 26 -209 -209 24 25 29 28 31 35 33 31 28 24 21 15 14 -193 -209 -209 -209 -193 -209 -193 -209 26 27 29 29 31 32 32 32 34 31 30 31 26 23 21 19 14 14 12 13 0 9 9 9 10 11 10 13 12 14 15 18 17 16 18 19 16 17 18 20 -193 -193 -193 23 24 -177 -177 -177 19 16 17 19 18 143 143 146 -193 27 29 30 30 31 35 37 35 36 37 37 37 37 38 38 37 -193 39 39 40 -193 -193 -193 -193 -193 -193 42 -193 40 40 36 39 40 39 42 41 43 43 43 43 43 43 44 44 44 45 45 45 46 46 45 44 44 -193 -193 -193 -193 -193 -193 -193 -193 -193 48 49 49 48 48 48 48 48 47 0 0 0 0 0
    0 0 0 0 0 0 0 0 0 0 0 0 0 0 0 0 0 0 0 0 0 0 0 0 0 0 0 0 0 0 0 0 0 0 0 0 0 0 0 0 0 0 0 0 0 0 0 0 0 0 0 0 0 0 0 0 0 0 0 0 0 0 0 0 0 0 0 0 0 15 13 10 13 17 13 -193 19 21 -193 25 28 30 30 32 34 35 36 35 37 35 34 35 36 33 32 33 32 30 29 26 26 27 28 29 30 31 32 33 36 34 32 33 31 32 31 31 32 24 28 28 31 37 29 28 29 -193 959 -193 -193 10 9 9 9 9 -193 12 24 27 29 34 31 31 31 31 32 31 29 29 28 29 30 30 31 33 34 34 33 34 34 33 33 33 31 29 28 30 31 31 35 33 36 37 35 32 29 23 20 16 -193 -209 -193 -193 -209 -209 -209 -177 -209 33 30 31 30 32 33 33 32 33 31 31 32 28 25 23 21 16 15 12 13 9 10 9 9 10 11 10 13 12 13 14 18 16 16 18 19 16 17 18 20 -193 -193 -193 23 24 -193 -193 -193 19 16 17 19 19 143 144 146 -177 27 29 29 29 30 35 37 35 36 37 36 36 37 38 38 37 39 39 39 40 -193 -193 -193 -193 -193 -193 42 -193 40 40 37 39 40 40 43 41 43 43 43 43 43 43 44 44 44 45 46 46 46 46 46 44 44 -193 -193 -193 -193 -193 -193 -193 -193 -193 48 49 49 50 49 49 49 50 49 0 0 0 0 0
    0 0 0 0 0 0 0 0 0 0 0 0 0 0 0 0 0 0 0 0 0 0 0 0 0 0 0 0 0 0 0 0 0 0 0 0 0 0 0 0 0 0 0 0 0 0 0 0 0 0 0 0 0 0 0 0 0 0 0 0 0 0 0 0 0 0 0 0 0 14 12 10 12 17 14 -193 20 22 26 26 29 32 31 33 35 36 37 36 38 37 36 36 37 35 34 34 33 31 29 27 26 28 29 30 32 32 33 33 36 34 32 32 31 31 30 31 31 24 31 33 34 38 32 30 32 -193 -193 -209 -209 -209 9 -193 -209 9 -209 12 -193 28 31 36 34 34 34 33 34 33 31 30 29 30 31 31 32 33 34 35 34 35 35 34 35 35 33 33 33 37 39 37 39 37 38 38 35 32 29 23 20 -193 -209 -209 780 -193 -193 -177 -209 -209 -209 38 35 35 32 33 34 34 33 34 33 33 34 32 28 26 23 20 15 13 13 10 11 10 10 11 12 11 14 12 14 14 18 16 15 17 19 16 17 18 20 -193 -193 -193 23 25 23 -193 -193 19 17 17 19 19 144 144 146 -177 27 29 30 30 31 35 36 34 35 37 36 36 37 38 38 37 39 39 39 40 41 42 -193 -193 -193 40 42 40 40 40 37 39 40 40 42 41 43 43 43 43 43 43 44 44 45 45 46 46 46 46 46 44 44 -193 44 44 44 44 44 -193 46 45 49 50 50 50 50 50 50 51 50 0 0 0 0 0
    0 0 0 0 0 0 0 0 0 0 0 0 0 0 0 0 0 0 0 0 0 0 0 0 0 0 0 0 0 0 0 0 0 0 0 0 0 0 0 0 0 0 0 0 0 0 0 0 0 0 0 0 0 0 0 0 0 0 0 0 0 0 0 0 0 0 0 0 0 13 11 10 12 16 15 -193 21 22 28 28 31 33 33 34 36 37 38 37 40 39 38 37 38 36 36 36 35 31 30 27 26 28 29 30 31 32 33 33 36 34 31 32 30 30 30 31 29 21 25 30 33 37 34 33 34 -193 -209 -209 -209 -209 -209 -209 -209 -209 -177 -193 -193 30 33 36 36 35 35 35 35 34 32 31 30 30 32 32 33 33 35 35 35 36 36 35 36 36 36 36 38 40 42 40 40 39 39 39 35 31 29 23 20 -209 -193 -209 -193 -209 -209 -209 -193 -193 44 42 39 37 35 35 35 35 34 34 33 33 35 34 30 30 27 25 17 14 13 11 12 12 11 13 13 12 15 13 14 14 18 16 15 18 19 16 17 18 21 -193 -193 -193 24 25 23 -177 -177 -177 17 17 19 19 144 144 147 143 27 30 30 30 31 35 36 34 35 36 36 36 36 37 37 37 39 39 39 39 40 42 -193 41 41 40 42 40 40 40 37 39 40 40 42 41 43 43 43 43 43 43 44 45 45 46 46 46 46 46 46 45 45 44 45 45 45 45 45 45 47 46 49 50 50 50 50 50 50 51 50 0 0 0 0 0
    0 0 0 0 0 0 0 0 0 0 0 0 0 0 0 0 0 0 0 0 0 0 0 0 0 0 0 0 0 0 0 0 0 0 0 0 0 0 0 0 0 0 0 0 0 0 0 0 0 0 0 0 0 0 0 0 0 0 0 0 0 0 0 0 0 0 0 0 0 13 11 10 13 17 17 -193 23 24 31 29 31 33 33 34 35 37 38 38 40 39 38 38 38 37 36 36 35 32 31 27 27 29 29 31 32 32 33 34 36 35 32 32 31 31 30 30 28 22 25 29 34 37 35 36 -193 -209 -193 -177 -177 -209 -209 -193 -209 -209 -177 -193 -193 31 34 36 36 35 36 35 35 34 33 31 30 29 32 32 33 32 35 35 36 37 38 37 38 38 38 38 40 42 -193 40 40 39 39 39 35 31 29 24 -193 -209 -209 -209 -209 -209 -209 -209 -209 -193 44 42 39 38 36 35 35 35 34 35 34 34 36 36 34 34 34 30 19 17 15 12 15 14 13 14 15 13 16 14 14 14 18 16 15 17 19 16 17 19 21 -193 -193 -193 24 25 24 23 -177 -177 17 17 20 19 -193 144 147 143 28 31 31 31 31 35 36 34 35 36 36 36 36 37 37 37 39 39 38 39 40 42 -193 41 41 41 42 40 40 40 37 38 39 39 41 40 43 43 44 43 43 44 44 45 45 46 46 46 46 47 47 46 46 45 46 45 46 45 46 45 48 46 49 49 50 50 51 50 50 51 50 0 0 0 0 0
    0 0 0 0 0 0 0 0 0 0 0 0 0 0 0 0 0 0 0 0 0 0 0 0 0 0 0 0 0 0 0 0 0 0 0 0 0 0 0 0 0 0 0 0 0 0 0 0 0 0 0 0 0 0 0 0 0 0 0 0 0 0 0 0 0 0 0 0 0 14 13 13 18 21 22 -193 27 26 33 30 32 33 34 34 35 36 37 37 39 39 38 38 38 37 37 36 34 31 29 26 26 28 30 31 32 32 34 35 36 35 32 33 31 31 31 31 27 23 28 37 -209 38 37 37 -209 -193 -177 -177 -177 -177 -193 -209 -209 -209 -177 -193 -193 31 34 36 36 36 36 36 36 35 34 31 30 29 32 31 32 31 35 35 37 38 39 38 39 38 39 39 40 42 -193 39 39 39 39 39 36 32 31 -193 -209 -209 -209 -193 -209 -193 -193 -177 -193 -209 43 42 40 38 36 36 36 35 35 35 35 35 37 38 37 37 38 36 27 25 17 13 17 16 14 16 16 13 16 15 15 14 18 16 16 18 19 17 18 19 22 -193 -193 -193 25 26 24 24 -177 19 17 17 20 20 -193 144 147 -177 28 32 31 31 31 35 36 34 35 36 36 37 36 37 37 37 38 39 39 40 40 42 41 41 41 41 42 41 40 40 36 38 39 39 41 40 43 43 43 43 43 44 44 44 45 45 46 46 46 47 47 46 46 45 46 44 45 45 45 45 47 45 48 49 49 49 51 49 49 50 50 0 0 0 0 0
    0 0 0 0 0 0 0 0 0 0 0 0 0 0 0 0 0 0 0 0 0 0 0 0 0 0 0 0 0 0 0 0 0 0 0 0 0 0 0 0 0 0 0 0 0 0 0 0 0 0 0 0 0 0 0 0 0 0 0 0 0 0 0 0 0 0 0 0 0 -193 -193 24 24 26 -193 30 31 28 34 31 33 33 34 35 35 36 38 38 39 39 39 38 38 37 36 35 30 28 26 23 24 28 29 30 31 32 34 35 36 35 32 33 33 34 35 33 29 28 33 37 -193 37 37 38 -209 -177 -177 -177 -177 -177 -209 -193 -209 -193 -177 -209 -193 32 35 37 37 36 36 36 36 36 34 31 31 30 32 32 32 31 36 36 37 38 39 38 39 39 39 39 40 42 -193 39 39 39 38 39 36 33 32 27 -209 -209 -193 -177 -177 298 -193 -177 -193 -209 43 42 40 39 37 36 36 36 36 36 36 35 37 38 38 38 39 38 40 34 32 15 20 19 16 18 18 14 17 16 16 15 19 16 16 18 19 17 18 20 22 22 25 -193 25 26 25 24 24 20 18 18 20 20 -193 -193 147 -177 28 33 32 32 32 35 36 35 36 36 36 37 36 37 37 37 38 39 39 40 40 42 41 41 42 41 42 41 40 40 36 38 38 39 41 39 43 42 43 43 43 43 43 43 44 44 46 45 46 46 47 46 45 45 45 44 45 44 45 45 47 45 48 49 49 49 51 49 48 49 49 0 0 0 0 0
    0 0 0 0 0 0 0 0 0 0 0 0 0 0 0 0 0 0 0 0 0 0 0 0 0 0 0 0 0 0 0 0 0 0 0 0 0 0 0 0 0 0 0 0 0 0 0 0 0 0 0 0 0 0 0 0 0 0 0 0 0 0 0 0 0 0 0 0 0 25 26 29 28 29 32 34 36 32 35 32 34 34 35 35 36 36 38 38 39 39 39 39 39 37 36 34 27 26 23 18 22 28 28 30 31 32 34 35 35 35 32 33 33 34 37 35 34 35 37 38 -209 37 38 -209 -193 -177 -177 -177 -177 -193 -209 -177 -193 -209 -193 -209 -193 35 37 38 37 37 38 38 37 36 35 32 33 32 33 33 33 33 37 38 38 39 40 39 40 40 40 40 40 42 -193 39 39 39 38 38 36 33 32 27 -193 -209 -177 -177 -177 299 -193 -177 -193 -209 42 43 42 40 38 37 36 36 36 36 36 36 38 38 38 39 39 39 41 37 36 21 24 23 20 21 21 16 19 18 17 15 19 17 17 19 19 18 19 21 23 23 26 -193 26 28 26 25 25 20 18 18 20 21 -193 -193 147 -193 28 33 32 33 32 35 36 35 36 36 35 36 35 35 37 37 38 39 39 40 40 42 41 41 41 41 42 41 40 41 36 38 38 39 41 40 43 43 43 43 43 43 43 43 43 44 45 45 45 45 46 46 46 45 46 44 45 45 45 45 48 46 48 50 50 50 52 49 49 49 49 0 0 0 0 0
    0 0 0 0 0 0 0 0 0 0 0 0 0 0 0 0 0 0 0 0 0 0 0 0 0 0 0 0 0 0 0 0 0 0 0 0 0 0 0 0 0 0 0 0 0 0 0 0 0 0 0 0 0 0 0 0 0 0 0 0 0 0 0 0 0 0 0 0 0 26 26 29 29 31 32 34 36 32 35 33 34 34 35 35 36 36 38 38 39 40 40 39 40 38 37 34 27 26 22 18 23 29 29 31 31 32 33 34 34 34 31 32 31 33 36 35 35 37 38 38 39 37 38 -193 -209 -177 -177 -177 -177 -209 -209 -177 -193 -209 -209 -209 -193 37 38 39 38 38 39 39 38 37 36 34 35 34 35 36 36 36 38 39 39 40 40 39 40 40 39 39 39 41 40 38 39 39 38 39 37 34 33 28 -193 -209 308 308 -177 -177 -193 291 -209 -177 -193 43 42 40 38 37 37 37 37 37 37 37 39 39 39 39 40 40 42 38 38 27 30 31 25 25 24 20 21 19 17 16 20 18 19 20 20 20 21 22 24 -209 28 -193 28 29 27 26 26 21 19 19 20 21 21 -193 -193 -193 28 32 32 34 33 36 36 35 35 35 35 35 33 34 36 36 37 38 38 39 39 41 41 41 41 41 41 40 40 41 37 38 39 39 42 40 43 43 43 43 43 43 43 43 43 43 45 45 45 45 46 46 46 -193 46 43 44 44 44 44 47 46 48 50 50 49 52 49 48 49 49 0 0 0 0 0
    0 0 0 0 0 0 0 0 0 0 0 0 0 0 0 0 0 0 0 0 0 0 0 0 0 0 0 0 0 0 0 0 0 0 0 0 0 0 0 0 0 0 0 0 0 0 0 0 0 0 0 0 0 0 0 0 0 0 0 0 0 0 0 0 0 0 0 0 0 29 28 33 34 34 34 35 36 33 35 34 34 33 35 35 36 37 38 38 39 39 40 39 39 37 36 33 26 27 23 20 24 30 30 31 32 32 33 33 33 33 30 32 31 34 37 36 37 38 39 39 39 39 40 41 -193 -209 -193 -177 -177 -209 -209 -177 -193 -209 -209 -209 36 38 39 40 40 40 40 40 40 39 38 36 39 36 38 38 38 38 39 40 41 41 40 40 40 40 40 39 39 40 38 37 39 39 38 39 37 35 34 30 31 -193 -193 310 -177 -177 302 -209 -209 -193 -193 41 41 40 38 37 37 37 38 37 38 38 39 40 40 40 41 41 43 40 39 33 37 38 38 32 32 29 27 26 25 23 23 22 23 23 24 24 25 25 31 32 33 35 32 33 31 28 28 24 22 20 21 22 21 25 25 25 27 31 34 35 35 37 37 37 36 35 36 34 33 33 35 36 37 38 38 38 38 40 40 40 40 40 41 40 40 41 37 39 39 39 42 40 43 43 43 43 43 43 43 43 44 44 45 45 45 45 46 46 -193 -193 45 42 43 43 43 43 46 45 46 50 48 47 51 48 48 48 48 0 0 0 0 0
    0 0 0 0 0 0 0 0 0 0 0 0 0 0 0 0 0 0 0 0 0 0 0 0 0 0 0 0 0 0 0 0 0 0 0 0 0 0 0 0 0 0 0 0 0 0 0 0 0 0 0 0 0 0 0 0 0 0 0 0 0 0 0 0 0 0 0 0 0 31 31 36 36 35 36 36 37 34 35 34 33 33 35 35 36 36 37 38 38 39 39 38 39 36 35 33 27 27 25 24 25 31 30 32 32 32 32 33 33 33 30 33 32 36 38 37 38 39 39 40 41 41 42 45 50 -193 53 -209 -209 -209 -177 -177 -177 -209 -209 -209 38 41 41 41 41 42 42 43 42 42 41 40 42 40 40 41 39 39 40 41 41 42 41 40 40 40 39 39 39 39 37 38 39 39 39 40 38 36 35 32 34 34 -193 -193 -193 -177 -177 -209 -209 -193 39 41 41 40 38 38 38 38 39 38 39 38 40 40 41 41 42 41 43 40 40 35 40 39 39 36 35 36 36 36 36 35 37 36 36 39 34 33 37 31 37 38 38 -193 35 37 37 32 35 30 30 25 25 28 27 29 30 30 34 35 37 38 39 39 39 38 38 36 37 35 33 33 35 35 35 37 37 37 37 39 38 38 39 39 40 39 39 40 36 39 39 39 43 39 43 42 43 43 43 43 43 43 44 43 46 45 45 45 46 -193 -193 -193 45 42 43 43 43 43 45 44 45 49 47 46 51 47 47 47 47 0 0 0 0 0
    0 0 0 0 0 0 0 0 0 0 0 0 0 0 0 0 0 0 0 0 0 0 0 0 0 0 0 0 0 0 0 0 0 0 0 0 0 0 0 0 0 0 0 0 0 0 0 0 0 0 0 0 0 0 0 0 0 0 0 0 0 0 0 0 0 0 0 0 0 33 32 35 34 34 35 35 37 33 34 35 33 33 35 35 37 36 37 38 38 39 38 38 38 34 34 32 27 29 26 26 27 32 31 33 32 33 33 34 33 34 31 34 34 37 38 38 39 40 40 40 42 43 46 50 52 52 55 56 -209 -209 -209 -209 -177 -209 47 -209 41 44 44 45 45 46 46 47 45 44 43 44 45 42 42 44 40 40 40 42 42 42 41 40 40 40 40 40 40 40 38 39 40 40 39 40 39 37 37 35 36 36 35 -193 -193 -193 -193 -209 41 38 38 40 40 39 38 38 38 38 39 38 39 39 41 40 41 41 42 41 43 41 40 35 39 38 39 36 35 36 35 35 33 33 35 32 33 37 34 33 37 31 38 -193 -209 -209 -209 -193 -193 33 -193 32 35 27 27 33 35 38 -193 36 40 37 36 38 38 40 39 38 37 34 34 34 32 31 35 34 35 36 37 37 37 39 39 38 38 39 40 39 39 41 37 40 39 40 44 39 44 42 43 43 43 43 42 42 43 43 45 45 45 -193 45 -193 -193 -193 -193 43 43 43 44 43 45 45 45 49 46 46 51 47 46 47 47 0 0 0 0 0
    0 0 0 0 0 0 0 0 0 0 0 0 0 0 0 0 0 0 0 0 0 0 0 0 0 0 0 0 0 0 0 0 0 0 0 0 0 0 0 0 0 0 0 0 0 0 0 0 0 0 0 0 0 0 0 0 0 0 0 0 0 0 0 0 0 0 0 0 0 34 32 34 33 34 34 34 37 33 33 35 33 34 36 35 36 35 37 38 37 38 38 37 37 34 35 32 27 31 28 28 28 33 32 34 33 34 34 35 34 35 33 35 36 39 39 39 40 41 41 41 44 44 51 53 54 54 56 58 59 55 -193 -209 -209 50 52 46 47 48 49 50 48 49 49 50 48 47 46 47 48 45 45 47 41 41 42 43 43 43 41 40 40 40 40 40 40 41 39 40 41 40 40 40 40 38 38 36 37 38 37 38 36 -193 -193 -209 41 38 37 38 40 39 38 38 38 38 39 39 40 40 42 41 42 41 42 42 43 41 41 35 38 38 39 37 36 37 36 37 35 35 36 36 36 39 35 35 37 -193 -193 -209 -209 -209 -209 -209 -193 32 -193 32 35 25 25 28 32 38 38 35 39 35 35 38 38 40 39 38 37 34 34 33 33 32 34 33 33 34 36 36 36 38 38 37 38 38 40 39 39 40 37 37 39 40 45 -209 44 42 43 43 43 43 42 42 43 42 45 45 45 -193 45 -193 -193 -193 -193 -193 -193 43 44 43 45 45 44 49 46 46 51 46 46 46 46 0 0 0 0 0
    0 0 0 0 0 0 0 0 0 0 0 0 0 0 0 0 0 0 0 0 0 0 0 0 0 0 0 0 0 0 0 0 0 0 0 0 0 0 0 0 0 0 0 0 0 0 0 0 0 0 0 0 0 0 0 0 0 0 0 0 0 0 0 0 0 0 0 0 0 36 34 34 34 34 35 34 37 34 34 36 34 34 36 35 36 34 37 38 36 38 37 35 37 32 35 32 28 32 30 30 30 34 34 34 35 36 35 36 35 36 34 37 38 40 40 39 41 41 41 42 44 45 51 54 54 55 56 58 58 55 55 55 52 53 54 52 52 52 52 53 52 52 52 52 50 50 48 50 49 47 47 49 42 43 43 44 43 42 40 40 39 39 39 38 40 40 39 41 41 41 41 41 40 39 39 37 38 39 38 39 38 -193 -193 -209 41 38 37 39 42 40 40 40 40 40 41 40 42 40 43 42 42 42 43 43 43 41 41 36 39 38 39 37 36 38 36 38 37 36 37 38 37 38 36 35 37 -193 34 -209 -193 -209 -209 -209 -193 -193 38 35 37 32 25 28 33 38 36 32 36 33 34 37 36 38 38 40 39 35 35 33 33 32 35 34 34 35 37 36 36 38 38 37 38 38 40 39 39 40 38 36 39 40 46 -209 44 43 43 43 43 43 42 42 43 43 45 45 45 45 45 -193 -193 -193 -193 -193 -193 43 44 -193 45 45 44 49 46 46 51 47 46 47 46 0 0 0 0 0
    0 0 0 0 0 0 0 0 0 0 0 0 0 0 0 0 0 0 0 0 0 0 0 0 0 0 0 0 0 0 0 0 0 0 0 0 0 0 0 0 0 0 0 0 0 0 0 0 0 0 0 0 0 0 0 0 0 0 0 0 0 0 0 0 0 0 0 0 0 35 35 34 35 35 36 35 37 35 35 36 35 35 36 36 37 36 38 39 38 39 39 37 38 34 35 31 29 33 32 32 32 35 35 36 36 37 37 38 37 37 36 38 38 40 40 39 41 41 42 43 44 45 53 55 55 56 58 58 58 56 55 55 53 54 55 53 53 53 54 54 53 53 53 52 51 51 50 51 49 48 48 49 43 44 44 45 44 43 40 39 39 39 39 38 40 41 40 43 43 42 42 42 41 40 40 38 39 40 40 39 39 -193 -193 41 43 40 38 40 43 40 40 39 40 40 40 41 42 41 44 43 43 42 43 43 43 41 42 37 39 39 40 39 38 39 38 39 38 38 37 38 37 39 37 37 -193 -209 -209 -209 -209 -209 -209 -193 -209 -209 40 37 39 -209 -209 -209 35 37 34 31 37 34 33 34 33 32 30 39 39 34 34 32 33 32 34 34 33 34 36 34 34 36 38 37 38 38 40 39 40 41 40 41 41 42 48 41 45 44 43 43 43 44 43 42 44 43 45 46 46 46 46 46 -193 -193 -193 -193 -193 43 -193 -193 -193 45 44 49 46 47 51 47 47 47 47 0 0 0 0 0
    0 0 0 0 0 0 0 0 0 0 0 0 0 0 0 0 0 0 0 0 0 0 0 0 0 0 0 0 0 0 0 0 0 0 0 0 0 0 0 0 0 0 0 0 0 0 0 0 0 0 0 0 0 0 0 0 0 0 0 0 0 0 0 0 0 0 0 0 0 36 37 36 36 36 37 36 38 36 36 37 36 35 36 37 38 38 39 40 39 41 40 39 39 37 37 34 33 36 36 36 35 36 36 37 38 39 39 40 38 39 38 39 -193 40 41 40 42 42 43 45 46 49 54 57 56 56 58 58 58 56 55 55 53 55 55 54 54 54 55 55 54 53 53 53 52 51 50 52 50 49 48 50 44 46 46 47 46 44 42 42 41 41 40 41 41 42 41 43 43 42 42 42 42 41 41 40 41 41 41 40 41 41 41 41 43 42 39 41 43 39 41 40 42 41 41 42 44 42 45 43 44 42 43 43 43 41 42 38 39 39 40 39 38 40 39 41 39 39 38 38 39 41 40 39 -209 -209 -209 -209 -209 42 -193 -193 -209 -209 42 38 40 -209 -209 -209 30 35 28 28 34 31 31 31 29 28 29 37 38 34 35 33 34 33 33 34 33 35 36 34 34 35 38 38 38 39 41 40 41 41 41 42 42 43 50 42 46 44 44 44 44 44 44 43 45 44 46 46 46 46 46 46 -193 -193 -193 -193 -193 44 45 -193 45 45 44 49 46 47 51 47 47 47 47 0 0 0 0 0
    0 0 0 0 0 0 0 0 0 0 0 0 0 0 0 0 0 0 0 0 0 0 0 0 0 0 0 0 0 0 0 0 0 0 0 0 0 0 0 0 0 0 0 0 0 0 0 0 0 0 0 0 0 0 0 0 0 0 0 0 0 0 0 0 0 0 0 0 0 38 39 37 36 37 37 36 38 35 36 38 36 36 37 37 38 38 40 40 39 41 40 39 39 38 38 35 36 38 38 39 37 38 37 38 39 39 40 40 38 39 39 40 -193 41 42 41 43 43 45 47 49 52 55 57 57 57 58 58 58 57 57 56 55 57 57 56 55 55 56 56 55 54 54 54 53 53 53 54 54 53 53 54 48 51 49 49 46 44 42 41 40 40 39 39 41 41 41 43 43 42 43 43 43 42 42 41 41 41 42 42 42 42 41 42 44 44 42 43 45 43 43 42 47 43 42 42 45 43 45 44 44 42 43 43 43 41 42 37 38 38 39 38 38 40 38 41 41 40 40 40 40 43 41 42 -193 -209 -209 -209 -193 41 -209 -193 -209 -209 43 40 -193 -193 -193 -209 -209 31 26 27 30 29 30 29 28 28 30 36 37 34 36 35 36 34 35 36 35 37 38 35 35 36 39 39 39 40 41 40 41 41 42 42 42 43 49 42 46 45 44 44 44 44 44 43 45 44 46 46 46 -193 46 -193 -193 -193 -193 -193 -193 -193 45 -193 45 45 44 48 46 47 50 47 47 47 46 0 0 0 0 0
    0 0 0 0 0 0 0 0 0 0 0 0 0 0 0 0 0 0 0 0 0 0 0 0 0 0 0 0 0 0 0 0 0 0 0 0 0 0 0 0 0 0 0 0 0 0 0 0 0 0 0 0 0 0 0 0 0 0 0 0 0 0 0 0 0 0 0 0 0 39 40 39 37 37 38 37 38 35 36 38 37 36 36 37 38 38 40 40 40 41 41 41 41 39 39 37 37 39 39 40 38 38 38 39 39 39 40 39 38 39 40 -209 -193 42 43 42 44 45 47 50 51 53 56 58 58 58 59 59 59 58 58 58 58 58 58 58 56 56 57 57 56 55 55 55 54 54 55 55 55 55 54 54 49 52 51 50 47 43 42 42 41 41 41 42 -193 -209 43 45 44 43 43 43 43 42 42 41 40 42 42 42 43 42 42 42 45 45 -193 -193 44 -209 47 51 53 45 43 42 46 43 45 44 43 42 43 43 43 41 42 37 37 37 38 38 38 40 38 40 41 41 41 42 42 44 42 43 44 -193 -193 43 -193 -193 -193 43 45 -209 46 -193 -209 -193 -193 -193 -209 -209 -209 26 28 29 29 28 29 29 32 36 35 35 35 36 37 35 36 38 36 38 38 37 36 36 39 40 40 40 42 41 42 42 42 42 42 43 49 42 45 44 44 44 44 44 44 43 45 44 46 46 45 45 45 45 45 -193 -193 -193 -193 45 46 46 46 46 44 49 46 47 50 47 47 47 46 0 0 0 0 0
    0 0 0 0 0 0 0 0 0 0 0 0 0 0 0 0 0 0 0 0 0 0 0 0 0 0 0 0 0 0 0 0 0 0 0 0 0 0 0 0 0 0 0 0 0 0 0 0 0 0 0 0 0 0 0 0 0 0 0 0 0 0 0 0 0 0 0 0 0 39 40 38 36 36 38 37 38 35 36 38 37 36 37 37 38 38 40 40 40 41 41 41 41 40 39 37 38 39 39 41 39 38 38 39 40 40 41 41 39 40 43 -209 -193 44 45 44 44 46 49 51 52 54 56 59 59 58 59 59 59 58 58 58 58 58 59 58 56 56 57 57 56 55 55 55 54 55 55 55 55 55 54 54 49 53 53 51 46 43 42 41 41 -193 -209 -209 -209 -209 47 47 45 44 44 42 43 42 42 41 41 42 43 42 43 43 42 -193 -193 -193 -209 -193 -193 -209 48 53 53 45 43 42 46 42 45 43 43 42 42 43 43 41 41 36 37 37 38 38 38 40 39 40 41 41 41 42 42 43 42 43 45 43 -193 -193 -209 -209 -193 44 46 -209 47 -209 -209 -193 0 -193 -193 -193 -193 -193 29 28 29 28 29 29 -209 36 35 35 36 38 37 36 37 41 38 40 40 41 40 39 41 42 41 41 42 42 42 42 42 42 42 44 49 42 45 44 44 44 43 43 43 43 44 44 45 45 45 45 45 45 45 46 -193 -193 46 47 48 47 48 48 45 49 46 47 50 47 47 47 46 0 0 0 0 0
    0 0 0 0 0 0 0 0 0 0 0 0 0 0 0 0 0 0 0 0 0 0 0 0 0 0 0 0 0 0 0 0 0 0 0 0 0 0 0 0 0 0 0 0 0 0 0 0 0 0 0 0 0 0 0 0 0 0 0 0 0 0 0 0 0 0 0 0 0 39 41 38 37 37 38 37 38 36 36 39 37 36 37 38 39 39 41 41 40 41 41 41 41 40 40 36 38 39 40 42 40 39 39 40 41 42 43 43 41 41 47 -193 48 47 47 45 45 48 52 53 54 55 56 59 59 59 59 59 59 58 58 59 58 59 59 58 56 56 57 57 55 54 54 55 53 55 55 55 55 55 54 54 50 54 54 52 48 43 42 42 41 -193 -209 -209 -193 -209 -193 48 46 44 44 42 43 42 42 41 41 42 43 43 44 43 42 -193 -193 -209 -209 -209 -193 420 -193 -209 -193 -193 -209 41 45 42 45 43 43 42 42 42 43 40 41 36 36 37 38 38 39 40 39 41 42 41 41 41 41 43 41 43 45 -209 -193 -193 -209 -193 -209 -193 46 -209 -193 -209 -209 -193 0 0 -193 -193 -193 -193 -209 30 30 27 28 -193 -209 -209 30 35 35 35 35 -193 37 -193 -193 42 40 41 41 40 44 45 42 42 43 43 43 43 43 43 43 45 50 43 45 45 44 44 44 43 43 42 44 44 45 45 44 44 45 45 45 46 47 47 47 48 49 48 49 48 45 49 46 48 50 47 47 47 46 0 0 0 0 0
    0 0 0 0 0 0 0 0 0 0 0 0 0 0 0 0 0 0 0 0 0 0 0 0 0 0 0 0 0 0 0 0 0 0 0 0 0 0 0 0 0 0 0 0 0 0 0 0 0 0 0 0 0 0 0 0 0 0 0 0 0 0 0 0 0 0 0 0 0 41 43 41 39 40 41 42 40 40 38 39 38 37 38 39 39 40 42 41 41 41 41 40 40 39 39 34 38 38 40 42 40 39 40 41 42 43 45 46 -193 43 51 -193 52 50 51 48 47 51 53 55 54 55 56 59 60 59 60 59 59 58 59 60 59 58 58 57 55 55 56 56 54 53 54 55 53 55 55 55 55 55 54 54 50 54 54 52 48 42 42 -193 -193 -209 -209 -209 -209 -209 -209 -193 45 44 43 41 42 41 41 41 41 42 43 42 44 42 42 -193 -209 -209 -209 -209 421 422 -193 -209 -193 -193 -209 40 44 42 44 43 42 42 42 42 43 40 41 36 36 36 37 -177 38 40 39 41 42 43 42 42 42 44 42 43 45 -209 291 289 -193 -193 -193 44 46 -193 48 -193 -193 -193 -193 -193 -193 -193 -193 29 32 32 31 26 28 25 -209 29 -209 -193 -193 -193 -193 -209 37 -209 39 39 36 37 40 38 42 46 42 43 44 43 43 43 44 44 43 46 49 43 46 45 45 44 43 43 43 43 44 44 45 45 44 44 45 45 45 46 48 48 48 49 50 49 49 48 46 49 46 48 49 46 47 47 46 0 0 0 0 0
    0 0 0 0 0 0 0 0 0 0 0 0 0 0 0 0 0 0 0 0 0 0 0 0 0 0 0 0 0 0 0 0 0 0 0 0 0 0 0 0 0 0 0 0 0 0 0 0 0 0 0 0 0 0 0 0 0 0 0 0 0 0 0 0 0 0 0 0 0 43 47 -209 46 45 45 47 45 45 40 42 40 38 41 41 41 42 42 42 41 41 41 40 39 38 38 30 35 -193 40 43 41 40 42 44 45 45 48 49 -193 -193 53 -193 53 52 52 49 48 52 53 55 53 55 55 58 59 58 59 59 58 58 58 59 58 58 58 57 55 55 56 56 55 54 55 56 54 56 56 56 56 55 55 54 51 54 54 52 49 42 42 -193 -193 -209 -209 -209 -209 -209 -209 -193 -193 44 42 41 42 40 41 40 40 42 43 -193 44 42 42 -193 -193 -193 -209 -209 -209 423 425 -209 -193 -193 -209 40 43 41 43 42 41 42 41 42 43 40 41 36 36 36 37 38 39 41 40 41 43 44 43 44 44 45 44 44 46 -193 -193 -193 -193 -193 -193 44 -193 -193 49 -193 -193 -193 0 0 -193 -193 -193 30 31 32 29 25 27 25 -209 -209 -209 -209 -193 -193 -193 -209 -209 -209 40 41 39 40 42 40 43 50 45 46 47 45 45 45 46 46 44 46 48 43 45 44 44 44 43 42 43 43 45 44 45 44 44 44 45 45 44 46 47 47 48 49 50 50 49 49 47 49 47 48 50 47 47 47 47 0 0 0 0 0
    0 0 0 0 0 0 0 0 0 0 0 0 0 0 0 0 0 0 0 0 0 0 0 0 0 0 0 0 0 0 0 0 0 0 0 0 0 0 0 0 0 0 0 0 0 0 0 0 0 0 0 0 0 0 0 0 0 0 0 0 0 0 0 0 0 0 0 0 0 44 50 -193 -193 51 50 52 53 51 47 -193 -209 -209 -209 48 -209 44 44 43 42 42 42 41 40 38 39 30 35 -193 -193 43 -193 40 43 45 48 48 50 -193 -209 -193 54 258 54 53 53 50 49 52 53 54 53 54 55 57 58 58 58 58 58 57 57 58 58 57 57 57 54 55 55 55 55 55 56 57 55 56 57 57 57 56 55 55 52 54 55 53 51 42 43 -193 -193 -209 -209 -209 -209 -209 -209 -209 -209 47 44 42 43 41 41 40 40 42 43 -193 44 42 41 -193 -193 -193 -193 -193 -209 423 426 -209 -209 -193 -209 -209 42 41 42 42 41 41 40 41 42 39 40 36 36 36 37 38 39 41 41 42 44 45 -193 -193 47 49 48 47 51 -193 -193 -193 -193 -193 -209 46 -193 -193 -209 -209 -209 0 -193 -193 0 -177 -177 30 31 30 28 25 27 24 -209 -209 -209 -209 -209 -193 -193 -209 -209 -193 41 42 40 40 44 41 45 51 47 49 50 47 47 47 48 48 44 45 47 43 44 44 44 44 43 42 43 42 45 44 44 43 43 44 44 44 44 45 46 47 48 48 50 50 50 49 48 50 48 49 50 47 47 48 47 0 0 0 0 0
    0 0 0 0 0 0 0 0 0 0 0 0 0 0 0 0 0 0 0 0 0 0 0 0 0 0 0 0 0 0 0 0 0 0 0 0 0 0 0 0 0 0 0 0 0 0 0 0 0 0 0 0 0 0 0 0 0 0 0 0 0 0 0 0 0 0 0 0 0 -193 -193 -193 59 54 53 54 56 54 55 -193 -209 -209 -209 -209 80 -209 -193 44 42 43 42 41 39 37 37 27 31 -193 -209 -193 129 126 -193 -193 -193 46 48 -193 -225 -225 -193 258 55 55 54 52 51 53 53 54 53 54 53 55 58 58 58 58 57 57 57 58 58 57 56 57 54 55 55 55 55 56 57 58 57 57 58 58 59 57 56 55 54 55 56 54 51 43 -193 -193 -209 -209 -209 -209 -209 -209 -209 -209 -209 -193 43 -177 44 41 42 41 40 -193 -193 -177 -193 -209 -193 460 256 258 -193 -193 -193 -193 -193 -209 -193 577 577 -209 -193 -209 -193 42 41 41 40 41 -193 38 35 32 30 29 30 34 38 41 41 42 45 46 46 48 49 51 50 50 53 -193 -193 -193 -193 -193 -209 53 -209 -209 -193 62 63 61 58 58 60 -193 -209 -193 39 37 31 26 28 27 -209 -209 -209 -193 -193 -193 -193 -209 -209 -209 44 43 42 42 47 44 48 50 47 49 50 49 49 47 49 48 45 46 47 45 46 46 45 46 44 43 44 43 44 43 43 42 42 43 44 43 43 44 45 47 48 48 50 50 50 49 48 50 48 49 50 47 48 48 47 0 0 0 0 0
    0 0 0 0 0 0 0 0 0 0 0 0 0 0 0 0 0 0 0 0 0 0 0 0 0 0 0 0 0 0 0 0 0 0 0 0 0 0 0 0 0 0 0 0 0 0 0 0 0 0 0 0 0 0 0 0 0 0 0 0 0 0 0 0 0 0 0 0 0 -193 57 -193 -193 54 54 54 57 55 56 -225 -225 -225 75 -193 -193 -193 -209 -193 39 -225 -225 -225 -225 -225 -225 -225 -225 -225 -225 -225 -225 -225 -225 -225 -225 -225 -225 -225 -225 -225 -225 -225 55 55 55 53 52 53 53 54 53 55 54 55 58 59 59 59 59 58 58 59 58 56 55 55 54 55 55 55 57 58 58 60 60 59 60 60 61 57 56 56 55 56 56 54 52 42 -193 -209 -209 -209 -209 -193 -209 -209 -193 202 -209 -209 -193 -193 -177 40 41 40 40 -193 -193 152 152 -193 40 460 -193 257 -225 -193 0 -225 -225 -225 -225 -225 -225 -225 -225 -225 -225 -225 -209 -209 -209 -209 -209 -209 8 23 21 23 24 26 39 43 43 43 -209 -193 -193 -193 -193 50 -193 -193 -193 -209 -177 -209 -209 -209 59 57 60 62 63 64 65 64 60 61 62 64 61 58 58 52 -193 -209 -209 -209 -209 -177 -193 -193 80 82 84 -209 -209 -209 -209 45 46 43 47 46 50 50 49 51 51 50 51 50 50 49 47 47 47 48 49 49 49 51 48 48 47 45 45 44 43 42 42 43 44 43 43 44 46 48 48 48 50 50 50 49 49 50 48 50 51 48 48 48 48 0 0 0 0 0
    0 0 0 0 0 0 0 0 0 0 0 0 0 0 0 0 0 0 0 0 0 0 0 0 0 0 0 0 0 0 0 0 0 0 0 0 0 0 0 0 0 0 0 0 0 0 0 0 0 0 0 0 0 0 0 0 0 0 0 0 0 0 0 0 0 0 0 0 0 -193 54 -193 54 54 -225 -225 57 -225 -225 -225 -225 -225 -225 -225 -225 -225 -225 -225 -225 -225 -225 -225 -225 -225 -225 -225 -225 -225 -225 -225 -225 -225 -225 -225 -225 -225 -225 -225 -225 -225 -225 -225 55 55 55 54 53 54 53 53 51 57 55 56 59 60 61 62 62 59 58 -209 -209 55 53 54 -193 54 54 54 56 58 59 62 60 59 58 59 60 54 53 52 50 52 54 53 51 -225 -225 -225 -225 -225 -225 -225 -225 -225 -225 -225 -225 -225 -225 -225 -225 -225 -225 -225 -225 -225 -225 -225 -225 -225 -225 -225 -225 -225 -225 -225 -225 -225 -225 -225 -225 -225 -225 -225 -225 -225 -225 -225 -225 -225 -209 -209 -193 -209 0 11 14 21 -209 31 42 44 46 -193 -193 -193 -193 -193 -209 -209 -193 -193 -209 -209 -177 -209 -209 -193 59 58 60 63 64 63 64 63 60 62 64 66 63 60 62 60 62 71 74 -209 -209 22 -193 -193 -193 80 81 -209 -209 -209 50 47 48 43 46 46 49 49 50 52 52 52 52 -193 52 50 47 47 45 49 49 49 52 54 52 -193 -209 -209 -209 -193 42 42 41 43 44 43 43 44 48 52 51 51 53 52 52 50 50 50 49 51 -193 50 51 -193 -193 0 0 0 0 0
    0 0 0 0 0 0 0 0 0 0 0 0 0 0 0 0 0 0 0 0 0 0 0 0 0 0 0 0 0 0 0 0 0 0 0 0 0 0 0 0 0 0 0 0 0 0 0 0 0 0 0 0 0 0 0 0 0 0 0 0 0 0 0 0 0 0 0 0 0 -225 -193 55 53 54 -225 -225 57 -225 -225 -225 -225 -225 -225 -225 -225 -225 -225 -225 -225 -225 -225 -225 -225 -225 -225 -225 -225 -225 -225 -225 -225 -225 -225 -225 -225 -225 -225 -225 -225 -225 -225 -225 -225 55 55 54 53 54 53 53 47 57 57 57 60 61 62 63 65 -209 -209 -209 -209 -209 -209 -193 -193 -193 54 52 55 59 60 64 62 58 58 58 59 53 52 50 48 50 52 52 -225 -225 -225 -225 -225 -225 -225 -225 -225 -225 -225 -225 -225 -225 -225 -225 -225 -225 -225 -225 -225 -225 -225 -225 -225 -225 -225 -225 -225 -225 -225 -225 -225 -225 -225 -225 -225 -225 -225 -225 -225 -225 -225 -225 -225 -225 -225 -225 -225 -225 -225 11 19 -209 -225 -225 -225 -225 -225 -225 -225 -225 -225 -225 -225 -225 -193 -209 -193 -209 -193 -209 -209 62 60 60 62 65 65 64 65 65 62 64 66 66 66 62 64 63 64 68 70 -209 -209 23 24 -193 -209 -193 -193 -209 45 48 48 46 46 42 43 44 46 48 48 50 50 51 52 52 52 51 48 49 48 51 51 51 54 57 -193 -193 -209 -209 -209 -209 -193 -193 41 43 -193 -193 -209 43 49 54 54 54 56 53 52 50 50 50 50 52 -193 -193 -209 -209 -209 0 0 0 0 0
    0 0 0 0 0 0 0 0 0 0 0 0 0 0 0 0 0 0 0 0 0 0 0 0 0 0 0 0 0 0 0 0 0 0 0 0 0 0 0 0 0 0 0 0 0 0 0 0 0 0 0 0 0 0 0 0 0 0 0 0 0 0 0 0 0 0 0 0 0 -225 -193 -193 -193 54 -225 -225 57 55 -225 -225 -225 -225 -225 -225 -225 -225 -225 -225 -225 -225 -225 -225 -225 -225 -225 -225 -225 -225 -225 -225 -225 -225 -225 -225 -225 -225 -225 -225 -225 -225 -225 -225 -225 54 54 53 53 54 54 55 51 59 59 58 60 61 63 64 67 -209 -209 -209 -209 -209 -209 -209 -193 -193 54 -193 -209 -193 61 65 65 57 57 58 59 53 52 50 48 49 52 52 -225 -225 -225 -225 -225 -225 -225 -225 -225 -225 -225 -225 -225 -225 -225 -225 -225 -225 -225 -225 -225 -225 -225 -225 -225 -225 -225 -225 -225 -225 -225 -225 -225 -225 -225 -225 -225 -225 -225 -225 -225 -225 -225 -225 -225 -225 -225 -225 -225 -225 -225 -225 -225 -225 -225 -225 -225 -225 -225 -225 -225 -225 -225 -225 -225 -225 -225 -225 -225 -225 -225 -225 -225 62 60 60 62 65 66 63 64 65 63 65 67 67 67 65 67 68 68 69 71 -209 -209 -193 25 28 -209 -209 -209 39 44 47 47 46 46 41 42 43 45 47 48 50 51 52 52 52 52 51 50 51 51 53 53 55 57 61 62 67 67 -209 -209 -209 -209 -209 -209 -193 -193 -193 -209 -209 -209 -209 -209 54 56 52 50 49 49 50 51 -193 -209 -209 -209 -193 -193 0 0 0 0 0
    0 0 0 0 0 0 0 0 0 0 0 0 0 0 0 0 0 0 0 0 0 0 0 0 0 0 0 0 0 0 0 0 0 0 0 0 0 0 0 0 0 0 0 0 0 0 0 0 0 0 0 0 0 0 0 0 0 0 0 0 0 0 0 0 0 0 0 0 0 -209 -209 -209 -209 -209 56 56 59 56 57 -225 -225 -225 -225 -225 -225 -225 -225 -225 -225 -225 -225 -225 -225 -225 -225 -225 -225 -225 -225 -225 -225 -225 -225 -225 -225 -225 -225 -225 -225 -225 -225 -225 -225 -225 52 50 49 52 50 52 -193 58 58 56 58 61 63 66 71 -209 -225 -225 -225 -225 -209 -209 -193 -193 53 -209 -209 -209 68 68 -193 58 58 58 59 53 53 51 49 49 52 52 -225 -225 -225 -225 -225 -225 -225 -225 -225 -225 -225 -225 -225 -225 -225 -225 -225 -225 -225 -225 -225 -225 -225 -225 -225 -225 -225 -225 -225 -225 -225 -225 -225 -225 -225 -225 -225 -225 -225 -225 -225 -225 -225 -225 -225 -225 -225 -225 -225 -225 -225 -225 -225 -225 -225 -225 -225 -225 -225 -225 -225 -225 -225 -225 -225 -225 -225 -225 -225 -225 -225 -225 -225 -225 60 60 62 66 66 64 64 65 63 66 67 67 68 66 68 68 68 70 70 -209 -209 -193 25 29 -209 -209 -209 -193 55 -193 53 50 52 45 43 44 46 48 48 50 51 52 51 51 52 50 49 53 -209 55 55 58 61 64 66 68 66 -209 -209 -209 -209 -209 -193 -193 -209 -209 -193 -209 -209 -209 -209 -209 55 50 48 49 50 51 51 -193 -209 -193 -193 -193 -193 0 0 0 0 0
    0 0 0 0 0 0 0 0 0 0 0 0 0 0 0 0 0 0 0 0 0 0 0 0 0 0 0 0 0 0 0 0 0 0 0 0 0 0 0 0 0 0 0 0 0 0 0 0 0 0 0 0 0 0 0 0 0 0 0 0 0 0 0 0 0 0 0 0 0 -209 -209 -209 -209 -209 -209 61 61 58 58 -209 -209 -225 -225 -225 -225 -225 -225 -225 -225 -225 -225 -225 -225 -225 -225 -225 -225 -225 -225 -225 -225 -225 -225 -225 -225 -225 -225 -225 -225 -225 -225 -225 -225 -225 -225 44 43 46 45 48 -209 54 52 48 54 -225 -225 -225 -225 -225 -225 -225 -225 -225 -225 -225 -193 -209 -209 -209 -193 -209 80 -225 -225 -193 58 58 60 54 54 53 52 49 53 -225 -225 -225 -225 -225 -225 -225 -225 -225 -225 -225 -225 -225 -225 -225 -225 -225 -225 -225 -225 -225 -225 -225 -225 -225 -225 -225 -225 -225 -225 -225 -225 -225 -225 -225 -225 -225 -225 -225 -225 -225 -225 -225 -225 -225 -225 -225 -225 -225 -225 -225 -225 -225 -225 -225 -225 -225 -225 -225 -225 -225 -225 -225 -225 -225 -225 -225 -225 -225 -225 -225 -225 -225 -225 -225 60 60 62 66 66 64 64 65 63 66 67 67 68 65 67 67 66 68 69 -209 -209 -193 -193 30 -209 -209 71 -209 -193 -193 -209 50 50 44 42 43 44 45 46 46 48 48 49 49 50 48 48 -193 -209 -193 -193 60 66 67 68 69 66 -209 -209 -209 -209 -209 -209 -193 -209 -209 -209 -209 -209 -209 -209 -209 -209 46 47 49 51 53 -193 -209 -209 -209 -209 -209 -209 0 0 0 0 0
    0 0 0 0 0 0 0 0 0 0 0 0 0 0 0 0 0 0 0 0 0 0 0 0 0 0 0 0 0 0 0 0 0 0 0 0 0 0 0 0 0 0 0 0 0 0 0 0 0 0 0 0 0 0 0 0 0 0 0 0 0 0 0 0 0 0 0 0 0 -209 -209 -209 -209 -209 -209 -193 -209 -209 -209 -209 -225 -225 -225 -225 -225 -225 -225 -225 -225 -225 -225 -225 -225 -225 -225 -225 -225 -225 -225 -225 -225 -225 -225 -225 -225 -225 -225 -225 -225 -225 -225 -225 -225 -225 -225 -225 -225 -225 -225 -225 -225 -225 -225 -225 -225 -225 -225 -225 -225 -225 -225 -225 -225 -225 -225 -225 -225 -225 -225 -225 -225 -225 -225 -225 -225 -225 -225 -225 57 54 -225 -225 -225 -225 -225 -225 -225 -225 -225 -225 -225 -225 -225 -225 -225 -225 -225 -225 -225 -225 -225 -225 -225 -225 -225 -225 -225 -225 -225 -225 -225 -225 -225 -225 -225 -225 -225 -225 -225 -225 -225 -225 -225 -225 -225 -225 -225 -225 -225 -225 -225 -225 -225 -225 -225 -225 -225 -225 -225 -225 -225 -225 -225 -225 -225 -225 -225 -225 -225 -225 -225 -225 -225 -225 -225 -225 -225 -225 -225 -225 60 60 62 66 66 64 64 65 63 66 67 67 68 65 67 67 65 67 67 69 -193 -209 -209 -209 73 74 74 74 -209 65 67 53 53 49 45 44 44 46 47 45 46 50 50 48 50 49 50 54 59 58 58 61 66 67 69 70 -209 -209 -209 -209 -209 -209 -209 -209 -209 -193 -209 -193 -193 -209 80 -209 -209 -209 48 50 52 -193 -193 -209 -209 -209 -209 -209 -209 0 0 0 0 0
    0 0 0 0 0 0 0 0 0 0 0 0 0 0 0 0 0 0 0 0 0 0 0 0 0 0 0 0 0 0 0 0 0 0 0 0 0 0 0 0 0 0 0 0 0 0 0 0 0 0 0 0 0 0 0 0 0 0 0 0 0 0 0 0 0 0 0 0 0 -209 -209 -209 91 95 91 91 -193 -209 -209 -225 -225 -225 -225 -225 -225 -225 -225 -225 -225 -225 -225 -225 -225 -225 -225 -225 -225 -225 -225 -225 -225 -225 -225 -225 -225 -225 -225 -225 -225 -225 -225 -225 -225 -225 -225 -225 -225 -225 -225 -225 -225 -225 -225 -225 -225 -225 -225 -225 -225 -225 -225 -225 -225 -225 -225 -225 -225 -225 -225 -225 -225 -225 -225 -225 -225 -225 -225 -225 -225 -225 -225 -225 -225 -225 -225 -225 -225 -225 -225 -225 -225 -225 -225 -225 -225 -225 -225 -225 -225 -225 -225 -225 -225 -225 -225 -225 -225 -225 -225 -225 -225 -225 -225 -225 -225 -225 -225 -225 -225 -225 -225 -225 -225 -225 -225 -225 -225 -225 -225 -225 -225 -225 -225 -225 -225 -225 -225 -225 -225 -225 -225 -225 -225 -225 -225 -225 -225 -225 -225 -225 -225 -225 -225 -225 -225 -225 -225 -225 -225 -225 59 59 61 65 65 62 62 64 62 65 66 66 67 65 67 68 66 67 67 69 71 70 72 75 75 77 77 81 77 -209 72 -193 -193 54 -209 -209 -209 -193 -193 -209 -193 -193 -193 -193 -193 -193 61 -193 -193 69 67 64 67 68 69 69 -193 -209 -209 -209 -209 -209 30 -209 -209 -193 86 87 85 83 80 77 74 -209 -209 -209 53 -209 -209 -209 -209 -209 -209 -209 -209 0 0 0 0 0
    0 0 0 0 0 0 0 0 0 0 0 0 0 0 0 0 0 0 0 0 0 0 0 0 0 0 0 0 0 0 0 0 0 0 0 0 0 0 0 0 0 0 0 0 0 0 0 0 0 0 0 0 0 0 0 0 0 0 0 0 0 0 0 0 0 0 0 0 0 -209 -209 -209 91 94 91 91 -193 -209 -209 -225 -225 -225 -225 -225 -225 -225 -225 -225 -225 -225 -225 -225 -225 -225 -225 -225 -225 -225 -225 -225 -225 -225 -225 -225 -225 -225 -225 -225 -225 -225 -225 -225 -225 -225 -225 -225 -225 -225 -225 -225 -225 -225 -225 -225 -225 -225 -225 -225 -225 -225 -225 -225 -225 -225 -225 -225 -225 -225 -225 -225 -225 -225 -225 -225 -225 -225 -225 -225 -225 -225 -225 -225 -225 -225 -225 -225 -225 -225 -225 -225 -225 -225 -225 -225 -225 -225 -225 -225 -225 -225 -225 -225 -225 -225 -225 -225 -225 -225 -225 -225 -225 -225 -225 -225 -225 -225 -225 -225 -225 -225 -225 -225 -225 -225 -225 -225 -225 -225 -225 -225 -225 -225 -225 -225 -225 -225 -225 -225 -225 -225 -225 -225 -225 -225 -225 -225 -225 -225 -225 -225 -225 -225 -225 -225 -225 -225 -225 -225 -225 -225 -225 57 59 63 64 60 60 61 60 64 66 67 68 67 68 69 68 67 67 69 72 71 72 74 75 77 78 84 84 -209 71 -193 -193 -193 65 -193 -193 80 83 86 -209 79 84 84 83 83 80 79 78 75 75 67 66 68 69 -193 -193 -193 -193 15 -209 25 27 34 -209 -177 84 85 84 83 80 78 74 -193 -209 -193 -209 -209 -209 -209 -209 -209 -209 -193 -209 0 0 0 0 0
    0 0 0 0 0 0 0 0 0 0 0 0 0 0 0 0 0 0 0 0 0 0 0 0 0 0 0 0 0 0 0 0 0 0 0 0 0 0 0 0 0 0 0 0 0 0 0 0 0 0 0 0 0 0 0 0 0 0 0 0 0 0 0 0 0 0 0 0 0 -209 -209 -209 91 94 91 91 -193 -209 -209 -225 -225 -225 -225 -225 -225 -225 -225 -225 -225 -225 -225 -225 -225 -225 -225 -225 -225 -225 -225 -225 -225 -225 -225 -225 -225 -225 -225 -225 -225 -225 -225 -225 -225 -225 -225 -225 -225 -225 -225 -225 -225 -225 -225 -225 -225 -225 -225 -225 -225 -225 -225 -225 -225 -225 -225 -225 -225 -225 -225 -225 -225 -225 -225 -225 -225 -225 -225 -225 -225 -225 -225 -225 -225 -225 -225 -225 -225 -225 -225 -225 -225 -225 -225 -225 -225 -225 -225 -225 -225 -225 -225 -225 -225 -225 -225 -225 -225 -225 -225 -225 -225 -225 -225 -225 -225 -225 -225 -225 -225 -225 -225 -225 -225 -225 -225 -225 -225 -225 -225 -225 -225 -225 -225 -225 -225 -225 -225 -225 -225 -225 -225 -225 -225 -225 -225 -225 -225 -225 -225 -225 -225 -225 -225 -225 -225 -225 -225 -225 -225 -225 -225 -225 -225 56 57 55 56 55 54 63 67 68 70 69 70 70 68 67 64 67 71 72 71 74 74 77 79 85 86 -209 70 -193 -209 -209 -209 -209 -209 82 85 90 88 83 86 87 87 87 87 86 83 81 81 -193 70 71 -193 -193 18 17 15 14 20 22 23 -177 -177 79 84 86 84 84 81 79 75 75 -209 61 62 68 71 -209 76 82 -209 82 78 0 0 0 0 0
    0 0 0 0 0 0 0 0 0 0 0 0 0 0 0 0 0 0 0 0 0 0 0 0 0 0 0 0 0 0 0 0 0 0 0 0 0 0 0 0 0 0 0 0 0 0 0 0 0 0 0 0 0 0 0 0 0 0 0 0 0 0 0 0 0 0 0 0 0 -209 -209 -209 91 94 91 91 -193 -209 -209 -225 -225 -225 -225 -225 -225 -225 -225 -225 -225 -225 -225 -225 -225 -225 -225 -225 -225 -225 -225 -225 -225 -225 -225 -225 -225 -225 -225 -225 -225 -225 -225 -225 -225 -225 -225 -225 -225 -225 -225 -225 -225 -225 -225 -225 -225 -225 -225 -225 -225 -225 -225 -225 -225 -225 -225 -225 -225 -225 -225 -225 -225 -225 -225 -225 -225 -225 -225 -225 -225 -225 -225 -225 -225 -225 -225 -225 -225 -225 -225 -225 -225 -225 -225 -225 -225 -225 -225 -225 -225 -225 -225 -225 -225 -225 -225 -225 -225 -225 -225 -225 -225 -225 -225 -225 -225 -225 -225 -225 -225 -225 -225 -225 -225 -225 -225 -225 -225 -225 -225 -225 -225 -225 -225 -225 -225 -225 -225 -225 -225 -225 -225 -225 -225 -225 -225 -225 -225 -225 -225 -225 -225 -225 -225 -225 -225 -225 -225 -225 -225 -225 -225 -225 -225 -225 -225 -225 22 21 -209 -209 -209 -209 -209 -209 -209 71 69 66 62 66 72 73 72 74 74 77 81 86 87 -209 70 -209 -209 -209 -209 84 -209 85 87 92 89 84 87 89 88 88 88 88 85 85 85 77 74 75 -193 -209 13 16 14 15 21 21 -177 -177 -209 77 83 85 85 84 81 80 76 76 -209 60 63 67 72 -209 78 87 86 87 85 0 0 0 0 0
    0 0 0 0 0 0 0 0 0 0 0 0 0 0 0 0 0 0 0 0 0 0 0 0 0 0 0 0 0 0 0 0 0 0 0 0 0 0 0 0 0 0 0 0 0 0 0 0 0 0 0 0 0 0 0 0 0 0 0 0 0 0 0 0 0 0 0 0 0 -209 -209 -209 91 94 91 91 -193 -209 -209 -225 -225 -225 -225 -225 -225 -225 -225 -225 -225 -225 -225 -225 -225 -225 -225 -225 -225 -225 -225 -225 -225 -225 -225 -225 -225 -225 -225 -225 -225 -225 -225 -225 -225 -225 -225 -225 -225 -225 -225 -225 -225 -225 -225 -225 -225 -225 -225 -225 -225 -225 -225 -225 -225 -225 -225 -225 -225 -225 -225 -225 -225 -225 -225 -225 -225 -225 -225 -225 -225 -225 -225 -225 -225 -225 -225 -225 -225 -225 -225 -225 -225 -225 -225 -225 -225 -225 -225 -225 -225 -225 -225 -225 -225 -225 -225 -225 -225 -225 -225 -225 -225 -225 -225 -225 -225 -225 -225 -225 -225 -225 -225 -225 -225 -225 -225 -225 -225 -225 -225 -225 -225 -225 -225 -225 -225 -225 -225 -225 -225 -225 -225 -225 -225 -225 -225 -225 -225 -225 -225 -225 -225 -225 -225 -225 -225 -225 -225 -225 -225 -225 -225 -225 -225 -225 -225 -225 -225 -225 -209 -209 -209 -209 -209 -193 -209 71 69 66 63 68 73 75 74 76 75 80 82 86 87 -209 70 -209 -209 -209 -209 87 88 89 90 94 90 87 89 91 90 90 90 89 87 87 87 83 74 83 -193 -209 -209 -193 -209 -209 -209 -209 -177 -193 70 76 81 85 83 84 79 78 75 -209 -193 59 63 -193 -209 -209 81 88 87 90 90 0 0 0 0 0
    0 0 0 0 0 0 0 0 0 0 0 0 0 0 0 0 0 0 0 0 0 0 0 0 0 0 0 0 0 0 0 0 0 0 0 0 0 0 0 0 0 0 0 0 0 0 0 0 0 0 0 0 0 0 0 0 0 0 0 0 0 0 0 0 0 0 0 0 0 -209 -209 -209 90 94 91 90 -209 -209 -209 -225 -225 -225 -225 -225 -225 -225 -225 -225 -225 0 -256 -1 -24275 -225 -225 -225 -225 -225 -225 -225 -225 -225 -225 -225 -225 -225 -225 -225 -225 -225 -225 -225 -225 -225 -225 -225 -225 -225 -225 -225 -225 -225 -225 -225 -225 -225 -225 -225 -225 -225 -225 -225 -225 -225 -225 -225 -225 -225 -225 -225 -225 -225 -225 -225 -225 -225 -225 -225 -225 -225 -225 -225 -225 -225 -225 -225 -225 -225 -225 -225 -225 -225 -225 -225 -225 -225 -225 -225 -225 -225 -225 -225 -225 -225 -225 -225 -225 -225 -225 -225 -225 -225 -225 -225 -225 -225 -225 -225 -225 -225 -225 -225 -225 -225 -225 -225 -225 -225 -225 -225 -225 -225 -225 -225 -225 -225 -225 -225 -225 -225 -225 -225 -225 -225 -225 -225 -225 -225 -225 -225 -225 -225 -225 -225 -225 -225 -225 -225 -225 -225 -225 -225 -225 -225 -225 -225 -225 -225 -225 -225 -209 -209 -209 19 -209 -209 65 -209 59 66 73 78 77 79 78 85 86 88 88 -209 63 -209 -209 -209 -193 89 90 91 92 96 92 89 90 91 90 90 90 89 88 89 89 89 84 90 -193 93 98 -209 -209 -209 -209 -209 -209 -209 68 75 79 83 81 82 74 73 72 65 56 57 -193 -193 -209 -209 80 84 85 89 -193 0 0 0 0 0
    0 0 0 0 0 0 0 0 0 0 0 0 0 0 0 0 0 0 0 0 0 0 0 0 0 0 0 0 0 0 0 0 0 0 0 0 0 0 0 0 0 0 0 0 0 0 0 0 0 0 0 0 0 0 0 0 0 0 0 0 0 0 0 0 0 0 0 0 0 -209 -209 -209 92 98 92 91 -209 -225 -225 -225 -225 -225 -225 -225 -225 -225 -225 -225 -225 -225 -225 -225 -225 -225 -225 -225 -225 -225 -225 -225 -225 -225 -225 -225 -225 -225 -225 -225 -225 -225 -225 -225 -225 -225 -225 -225 -225 -225 -225 -225 -225 -225 -225 -225 -225 -225 -225 -225 -225 -225 -225 -225 -225 -225 -225 -225 -225 -225 -225 -225 -225 -225 -225 -225 -225 -225 -225 -225 -225 -225 -225 -225 -225 -225 -225 -225 -225 -225 -225 -225 -225 -225 -225 -225 -225 -225 -225 -225 -225 -225 -225 -225 -225 -225 -225 -225 -225 -225 -225 -225 -225 -225 -225 -225 -225 -225 -225 -225 -225 -225 -225 -225 -225 -225 -225 -225 -225 -225 -225 -225 -225 -225 -225 -225 -225 -225 -225 -225 -225 -225 -225 -225 -225 -225 -225 -225 -225 -225 -225 -225 -225 -225 -225 -225 -225 -225 -225 -225 -225 -225 -225 -225 -225 -225 -225 -225 -225 -225 -225 -225 -225 -209 -209 -193 -209 -209 -209 -209 57 65 73 82 81 82 81 87 89 90 89 -209 -209 -209 -209 -209 -209 90 90 92 93 97 93 90 91 92 91 90 91 90 88 90 90 90 -193 92 96 96 99 -193 -209 -193 -209 -209 -209 -209 -209 75 79 84 82 82 -193 71 70 -209 57 57 -193 -193 -209 -209 -193 -209 80 87 -209 0 0 0 0 0
    0 0 0 0 0 0 0 0 0 0 0 0 0 0 0 0 0 0 0 0 0 0 0 0 0 0 0 0 0 0 0 0 0 0 0 0 0 0 0 0 0 0 0 0 0 0 0 0 0 0 0 0 0 0 0 0 0 0 0 0 0 0 0 0 0 0 0 0 0 -225 -225 -225 -225 -225 -225 -225 -225 -225 -225 -225 -225 -225 -225 -225 -225 -225 -225 -225 -225 -225 -225 -225 -225 -225 -225 -225 -225 -225 -225 -225 -225 -225 -225 -225 -225 -225 -225 -225 -225 -225 -225 -225 -225 -225 -225 -225 -225 -225 -225 -225 -225 -225 -225 -225 -225 -225 -225 -225 -225 -225 -225 -225 -225 -225 -225 -225 -225 -225 -225 -225 -225 -225 -225 -225 -225 -225 -225 -225 -225 -225 -225 -225 -225 -225 -225 -225 -225 -225 -225 -225 -225 -225 -225 -225 -225 -225 -225 -225 -225 -225 -225 -225 -225 -225 -225 -225 -225 -225 -225 -225 -225 -225 -225 -225 -225 -225 -225 -225 -225 -225 -225 -225 -225 -225 -225 -225 -225 -225 -225 -225 -225 -225 -225 -225 -225 -225 -225 -225 -225 -225 -225 -225 -225 -225 -225 -225 -225 -225 -225 -225 -225 -225 -225 -225 -225 -225 -225 -225 -225 -225 -225 -225 -225 -225 -225 -225 -225 -225 -225 -225 -225 -209 -209 -209 -209 -209 -209 -209 59 66 74 85 86 87 85 -193 90 91 89 -209 -209 -209 -209 -209 -193 91 91 93 95 98 93 91 91 92 91 91 92 91 90 91 91 91 90 94 98 99 100 -193 -193 105 105 107 -209 -209 -209 -209 80 86 82 -209 -193 70 70 -209 -193 57 -193 -193 -209 -193 -193 73 76 84 -209 0 0 0 0 0
    0 0 0 0 0 0 0 0 0 0 0 0 0 0 0 0 0 0 0 0 0 0 0 0 0 0 0 0 0 0 0 0 0 0 0 0 0 0 0 0 0 0 0 0 0 0 0 0 0 0 0 0 0 0 0 0 0 0 0 0 0 0 0 0 0 0 0 0 0 -225 -225 -225 -225 -225 -225 -225 -225 -225 -225 -225 -225 -225 -225 -225 -225 -225 -225 -225 -225 -225 -225 -225 -225 -225 -225 -225 -225 -225 -225 -225 -225 -225 -225 -225 -225 -225 -225 -225 -225 -225 -225 -225 -225 -225 -225 -225 -225 -225 -225 -225 -225 -225 -225 -225 -225 -225 -225 -225 -225 -225 -225 -225 -225 -225 -225 -225 -225 -225 -225 -225 -225 -225 -225 -225 -225 -225 -225 -225 -225 -225 -225 -225 -225 -225 -225 -225 -225 -225 -225 -225 -225 -225 -225 -225 -225 -225 -225 -225 -225 -225 -225 -225 -225 -225 -225 -225 -225 -225 -225 -225 -225 -225 -225 -225 -225 -225 -225 -225 -225 -225 -225 -225 -225 -225 -225 -225 -225 -225 -225 -225 -225 -225 -225 -225 -225 -225 -225 -225 -225 -225 -225 -225 -225 -225 -225 -225 -225 -225 -225 -225 -225 -225 -225 -225 -225 -225 -225 -225 -225 -225 -225 -225 -225 -225 -225 -225 -225 -225 -225 -225 -209 -209 -209 -209 -209 -209 -209 -209 -209 65 -209 -209 -209 -193 -193 -193 92 93 91 91 -209 -209 97 93 93 93 94 95 97 99 94 92 93 94 93 92 93 92 90 92 92 92 90 95 99 100 100 102 102 105 105 106 106 -193 -209 -209 -209 87 -209 -209 64 67 66 -209 -193 56 59 61 -193 -193 -193 72 74 80 -209 0 0 0 0 0
    0 0 0 0 0 0 0 0 0 0 0 0 0 0 0 0 0 0 0 0 0 0 0 0 0 0 0 0 0 0 0 0 0 0 0 0 0 0 0 0 0 0 0 0 0 0 0 0 0 0 0 0 0 0 0 0 0 0 0 0 0 0 0 0 0 0 0 0 0 -225 -225 -225 -225 -225 -225 -225 -225 -225 -225 -225 -225 -225 -225 -225 -225 -225 -225 -225 -225 -225 -225 -225 -225 -225 -225 -225 -225 -225 -225 -225 -225 -225 -225 -225 -225 -225 -225 -225 -225 -225 -225 -225 -225 -225 -225 -225 -225 -225 -225 -225 -225 -225 -225 -225 -225 -225 -225 -225 -225 -225 -225 -225 -225 -225 -225 -225 -225 -225 -225 -225 -225 -225 -225 -225 -225 -225 -225 -225 -225 -225 -225 -225 -225 -225 -225 -225 -225 -225 -225 -225 -225 -225 -225 -225 -225 -225 -225 -225 -225 -225 -225 -225 -225 -225 -225 -225 -225 -225 -225 -225 -225 -225 -225 -225 -225 -225 -225 -225 -225 -225 -225 -225 -225 -225 -225 -225 -225 -225 -225 -225 -225 -225 -225 -225 -225 -225 -225 -225 -225 -225 -225 -225 -225 -225 -225 -225 -225 -225 -225 -225 -225 -225 -225 -225 -225 -225 -225 -225 -225 -225 -225 -225 -225 -225 -225 -225 -225 -225 -225 -225 -209 -209 -209 -209 -209 -209 -209 -209 -209 -209 -209 -209 -209 -209 -209 -209 -209 -209 -209 92 -209 93 98 93 94 93 94 97 99 100 96 93 96 97 95 94 94 93 92 94 93 93 91 96 98 100 99 101 103 105 104 106 106 105 -209 -209 -209 -209 -209 -209 -209 62 -209 -209 -193 56 -193 -193 -193 -193 -193 -193 74 78 -209 0 0 0 0 0
    0 0 0 0 0 0 0 0 0 0 0 0 0 0 0 0 0 0 0 0 0 0 0 0 0 0 0 0 0 0 0 0 0 0 0 0 0 0 0 0 0 0 0 0 0 0 0 0 0 0 0 0 0 0 0 0 0 0 0 0 0 0 0 0 0 0 0 0 0 -225 -225 -225 -225 -225 -225 -225 -225 -225 -225 -225 -225 -225 -225 -225 -225 -225 -225 -225 -225 -225 -225 -225 -225 -225 -225 -225 -225 -225 -225 -225 -225 -225 -225 -225 -225 -225 -225 -225 -225 -225 -225 -225 -225 -225 -225 -225 -225 -225 -225 -225 -225 -225 -225 -225 -225 -225 -225 -225 -225 -225 -225 -225 -225 -225 -225 -225 -225 -225 -225 -225 -225 -225 -225 -225 -225 -225 -225 -225 -225 -225 -225 -225 -225 -225 -225 -225 -225 -225 -225 -225 -225 -225 -225 -225 -225 -225 -225 -225 -225 -225 -225 -225 -225 -225 -225 -225 -225 -225 -225 -225 -225 -225 -225 -225 -225 -225 -225 -225 -225 -225 -225 -225 -225 -225 -225 -225 -225 -225 -225 -225 -225 -225 -225 -225 -225 -225 -225 -225 -225 -225 -225 -225 -225 -225 -225 -225 -225 -225 -225 -225 -225 -225 -225 -225 -225 -225 -225 -225 -225 -225 -225 -225 -225 -225 -225 -225 -225 -225 -225 -225 -209 -209 -209 -209 -209 -209 -209 -209 -209 -209 34 31 32 34 -209 -209 -209 -209 -209 -209 -209 -209 -209 -209 -209 -209 93 97 101 101 97 93 98 97 96 96 96 94 94 97 95 94 92 97 98 99 99 100 102 104 105 106 106 105 -193 105 -209 -209 -209 -209 -209 -209 -209 -209 -193 54 -193 -193 -209 -209 -209 -193 77 83 -209 0 0 0 0 0
    0 0 0 0 0 0 0 0 0 0 0 0 0 0 0 0 0 0 0 0 0 0 0 0 0 0 0 0 0 0 0 0 0 0 0 0 0 0 0 0 0 0 0 0 0 0 0 0 0 0 0 0 0 0 0 0 0 0 0 0 0 0 0 0 0 0 0 0 0 -225 -225 -225 -225 -225 -225 -225 -225 -225 -225 -225 -225 -225 -225 -225 -225 -225 -225 -225 -225 -225 -225 -225 -225 -225 -225 -225 -225 -225 -225 -225 -225 -225 -225 -225 -225 -225 -225 -225 -225 -225 -225 -225 -225 -225 -225 -225 -225 -225 -225 -225 -225 -225 -225 -225 -225 -225 -225 -225 -225 -225 -225 -225 -225 -225 -225 -225 -225 -225 -225 -225 -225 -225 -225 -225 -225 -225 -225 -225 -225 -225 -225 -225 -225 -225 -225 -225 -225 -225 -225 -225 -225 -225 -225 -225 -225 -225 -225 -225 -225 -225 -225 -225 -225 -225 -225 -225 -225 -225 -225 -225 -225 -225 -225 -225 -225 -225 -225 -225 -225 -225 -225 -225 -225 -225 -225 -225 -225 -225 -225 -225 -225 -225 -225 -225 -225 -225 -225 -225 -225 -225 -225 -225 -225 -225 -225 -225 -225 -225 -225 -225 -225 -225 -225 -225 -225 -225 -225 -225 -225 -225 -225 -225 -225 -225 -225 -225 -225 -225 -225 -225 -209 -209 -209 -209 -209 -209 -209 -209 -209 -209 30 28 30 33 -209 -209 -209 -209 -209 -209 -209 -209 -209 -209 -209 -209 94 98 102 101 99 97 102 99 99 100 100 98 100 101 98 96 95 98 99 100 100 101 102 104 105 106 106 105 105 106 106 -209 -209 -209 -209 -209 110 -193 -193 -193 -193 -193 -193 -193 -209 -209 78 82 -209 0 0 0 0 0
    0 0 0 0 0 0 0 0 0 0 0 0 0 0 0 0 0 0 0 0 0 0 0 0 0 0 0 0 0 0 0 0 0 0 0 0 0 0 0 0 0 0 0 0 0 0 0 0 0 0 0 0 0 0 0 0 0 0 0 0 0 0 0 0 0 0 0 0 0 -225 -225 -225 -225 -225 -225 -225 -225 -225 -225 -225 -225 -225 -225 -225 -225 -225 -225 -225 -225 -225 -225 -225 -225 -225 -225 -225 -225 -225 -225 -225 -225 -225 -225 -225 -225 -225 -225 -225 -225 -225 -225 -225 -225 -225 -225 -225 -225 -225 -225 -225 -225 -225 -225 -225 -225 -225 -225 -225 -225 -225 -225 -225 -225 -225 -225 -225 -225 -225 -225 -225 -225 -225 -225 -225 -225 -225 -225 -225 -225 -225 -225 -225 -225 -225 -225 -225 -225 -225 -225 -225 -225 -225 -225 -225 -225 -225 -225 -225 -225 -225 -225 -225 -225 -225 -225 -225 -225 -225 -225 -225 -225 -225 -225 -225 -225 -225 -225 -225 -225 -225 -225 -225 -225 -225 -225 -225 -225 -225 -225 -225 -225 -225 -225 -225 -225 -225 -225 -225 -225 -225 -225 -225 -225 -225 -225 -225 -225 -225 -225 -225 -225 -225 -225 -225 -225 -225 -225 -225 -225 -225 -225 -225 -225 -225 -225 -225 -225 -225 -225 -225 -209 -209 -209 -209 -209 -209 -209 -209 -209 -209 27 27 31 -209 -209 -209 -209 -209 -209 -209 -209 -209 -193 -177 -209 -209 -209 99 103 102 103 103 106 104 103 104 103 103 106 -193 99 96 96 98 99 101 100 101 103 105 106 106 106 105 106 106 106 106 -193 -209 -209 -193 113 116 -193 -193 -193 114 -193 -193 -209 -193 75 77 -209 0 0 0 0 0
    0 0 0 0 0 0 0 0 0 0 0 0 0 0 0 0 0 0 0 0 0 0 0 0 0 0 0 0 0 0 0 0 0 0 0 0 0 0 0 0 0 0 0 0 0 0 0 0 0 0 0 0 0 0 0 0 0 0 0 0 0 0 0 0 0 0 0 0 0 -225 -225 -225 -225 -225 -225 -225 -225 -225 -225 -225 -225 -225 -225 -225 -225 -225 -225 -225 -225 -225 -225 -225 -225 -225 -225 -225 -225 -225 -225 -225 -225 -225 -225 -225 -225 -225 -225 -225 -225 -225 -225 -225 -225 -225 -225 -225 -225 -225 -225 -225 -225 -225 -225 -225 -225 -225 -225 -225 -225 -225 -225 -225 -225 -225 -225 -225 -225 -225 -225 -225 -225 -225 -225 -225 -225 -225 -225 -225 -225 -225 -225 -225 -225 -225 -225 -225 -225 -225 -225 -225 -225 -225 -225 -225 -225 -225 -225 -225 -225 -225 -225 -225 -225 -225 -225 -225 -225 -225 -225 -225 -225 -225 -225 -225 -225 -225 -225 -225 -225 -225 -225 -225 -225 -225 -225 -225 -225 -225 -225 -225 -225 -225 -225 -225 -225 -225 -225 -225 -225 -225 -225 -225 -225 -225 -225 -225 -225 -225 -225 -225 -225 -225 -225 -225 -225 -225 -225 -225 -225 -225 -225 -225 -225 -225 -225 -225 -225 -225 -225 -225 -209 -209 -209 -209 -209 -209 -209 -209 -209 -209 -209 27 32 -209 -209 -209 -209 -209 -209 -209 -209 -209 -209 -209 -209 -209 -209 100 103 102 104 -193 -193 -193 -209 -209 -209 -209 113 123 -209 -209 97 102 -209 100 100 101 103 105 106 107 107 106 107 106 106 106 106 106 110 112 114 116 -193 -209 -193 -193 -193 -193 -209 -193 75 -209 -209 0 0 0 0 0
    0 0 0 0 0 0 0 0 0 0 0 0 0 0 0 0 0 0 0 0 0 0 0 0 0 0 0 0 0 0 0 0 0 0 0 0 0 0 0 0 0 0 0 0 0 0 0 0 0 0 0 0 0 0 0 0 0 0 0 0 0 0 0 0 0 0 0 0 0 -225 -225 -225 -225 -225 -225 -225 -225 -225 -225 -225 -225 -225 -225 -225 -225 -225 -225 -225 -225 -225 -225 -225 -225 -225 -225 -225 -225 -225 -225 -225 -225 -225 -225 -225 -225 -225 -225 -225 -225 -225 -225 -225 -225 -225 -225 -225 -225 -225 -225 -225 -225 -225 -225 -225 -225 -225 -225 -225 -225 -225 -225 -225 -225 -225 -225 -225 -225 -225 -225 -225 -225 -225 -225 -225 -225 -225 -225 -225 -225 -225 -225 -225 -225 -225 -225 -225 -225 -225 -225 -225 -225 -225 -225 -225 -225 -225 -225 -225 -225 -225 -225 -225 -225 -225 -225 -225 -225 -225 -225 -225 -225 -225 -225 -225 -225 -225 -225 -225 -225 -225 -225 -225 -225 -225 -225 -225 -225 -225 -225 -225 -225 -225 -225 -225 -225 -225 -225 -225 -225 -225 -225 -225 -225 -225 -225 -225 -225 -225 -225 -225 -225 -225 -225 -225 -225 -225 -225 -225 -225 -225 -225 -225 -225 -225 -225 -225 -225 -225 -225 -225 -209 -209 -209 -209 -209 -209 -209 -209 -209 -209 -209 27 31 -209 -209 -209 -209 -209 -209 -209 -209 -209 -209 -209 -209 -209 -209 102 105 102 105 106 110 -209 -209 -209 -209 -209 -193 127 132 136 -209 -209 123 -209 -209 -193 104 106 108 109 107 106 107 106 106 106 106 105 109 110 114 116 117 117 116 115 116 -193 -193 -209 -209 -209 -209 0 0 0 0 0
    0 0 0 0 0 0 0 0 0 0 0 0 0 0 0 0 0 0 0 0 0 0 0 0 0 0 0 0 0 0 0 0 0 0 0 0 0 0 0 0 0 0 0 0 0 0 0 0 0 0 0 0 0 0 0 0 0 0 0 0 0 0 0 0 0 0 0 0 0 -225 -225 -225 -225 -225 -225 -225 -225 -225 -225 -225 -225 -225 -225 -225 -225 -225 -225 -225 -225 -225 -225 -225 -225 -225 -225 -225 -225 -225 -225 -225 -225 -225 -225 -225 -225 -225 -225 -225 -225 -225 -225 -225 -225 -225 -225 -225 -225 -225 -225 -225 -225 -225 -225 -225 -225 -225 -225 -225 -225 -225 -225 -225 -225 -225 -225 -225 -225 -225 -225 -225 -225 -225 -225 -225 -225 -225 -225 -225 -225 -225 -225 -225 -225 -225 -225 -225 -225 -225 -225 -225 -225 -225 -225 -225 -225 -225 -225 -225 -225 -225 -225 -225 -225 -225 -225 -225 -225 -225 -225 -225 -225 -225 -225 -225 -225 -225 -225 -225 -225 -225 -225 -225 -225 -225 -225 -225 -225 -225 -225 -225 -225 -225 -225 -225 -225 -225 -225 -225 -225 -225 -225 -225 -225 -225 -225 -225 -225 -225 -225 -225 -225 -225 -225 -225 -225 -225 -225 -225 -225 -225 -225 -225 -225 -225 -225 -225 -225 -225 -225 -225 -209 -209 -209 -209 -209 -209 -209 -209 -209 -209 -209 27 31 -209 -209 -209 -209 -209 -209 -209 -209 -209 -209 -209 -209 -209 -193 104 109 103 108 114 116 122 123 -209 -193 -209 125 130 133 136 134 -209 127 -209 -209 -209 107 108 109 110 108 107 107 106 106 106 106 105 109 109 113 114 116 117 116 115 117 115 118 -193 -209 -209 -209 0 0 0 0 0
    0 0 0 0 0 0 0 0 0 0 0 0 0 0 0 0 0 0 0 0 0 0 0 0 0 0 0 0 0 0 0 0 0 0 0 0 0 0 0 0 0 0 0 0 0 0 0 0 0 0 0 0 0 0 0 0 0 0 0 0 0 0 0 0 0 0 0 0 0 -225 -225 -225 -225 -225 -225 -225 -225 -225 -225 -225 -225 -225 -225 -225 -225 -225 -225 -225 -225 -225 -225 -225 -225 -225 -225 -225 -225 -225 -225 -225 -225 -225 -225 -225 -225 -225 -225 -225 -225 -225 -225 -225 -225 -225 -225 -225 -225 -225 -225 -225 -225 -225 -225 -225 -225 -225 -225 -225 -225 -225 -225 -225 -225 -225 -225 -225 -225 -225 -225 -225 -225 -225 -225 -225 -225 -225 -225 -225 -225 -225 -225 -225 -225 -225 -225 -225 -225 -225 -225 -225 -225 -225 -225 -225 -225 -225 -225 -225 -225 -225 -225 -225 -225 -225 -225 -225 -225 -225 -225 -225 -225 -225 -225 -225 -225 -225 -225 -225 -225 -225 -225 -225 -225 -225 -225 -225 -225 -225 -225 -225 -225 -225 -225 -225 -225 -225 -225 -225 -225 -225 -225 -225 -225 -225 -225 -225 -225 -225 -225 -225 -225 -225 -225 -225 -225 -225 -225 -225 -225 -225 -225 -225 -225 -225 -225 -225 -225 -225 -225 -225 -209 -209 -209 -209 -209 -209 -209 -209 -209 -209 -209 -209 27 -209 -209 -209 -209 -209 -209 -209 -209 -209 -209 -209 -209 -209 -193 118 113 103 111 119 119 126 129 126 -193 -193 129 132 133 137 136 -209 132 -209 -209 -209 -209 108 111 111 110 108 107 107 106 108 107 105 114 110 114 115 117 117 117 116 118 117 119 119 120 119 -209 0 0 0 0 0
    0 0 0 0 0 0 0 0 0 0 0 0 0 0 0 0 0 0 0 0 0 0 0 0 0 0 0 0 0 0 0 0 0 0 0 0 0 0 0 0 0 0 0 0 0 0 0 0 0 0 0 0 0 0 0 0 0 0 0 0 0 0 0 0 0 0 0 0 0 -225 -225 -225 -225 -225 -225 -225 -225 -225 -225 -225 -225 -225 -225 -225 -225 -225 -225 -225 -225 -225 -225 -225 -225 -225 -225 -225 -225 -225 -225 -225 -225 -225 -225 -225 -225 -225 -225 -225 -225 -225 -225 -225 -225 -225 -225 -225 -225 -225 -225 -225 -225 -225 -225 -225 -225 -225 -225 -225 -225 -225 -225 -225 -225 -225 -225 -225 -225 -225 -225 -225 -225 -225 -225 -225 -225 -225 -225 -225 -225 -225 -225 -225 -225 -225 -225 -225 -225 -225 -225 -225 -225 -225 -225 -225 -225 -225 -225 -225 -225 -225 -225 -225 -225 -225 -225 -225 -225 -225 -225 -225 -225 -225 -225 -225 -225 -225 -225 -225 -225 -225 -225 -225 -225 -225 -225 -225 -225 -225 -225 -225 -225 -225 -225 -225 -225 -225 -225 -225 -225 -225 -225 -225 -225 -225 -225 -225 -225 -225 -225 -225 -225 -225 -225 -225 -225 -225 -225 -225 -225 -225 -225 -225 -225 -225 -225 -225 -225 -225 -225 -225 -209 -209 -209 -209 -209 -209 -209 -209 -209 -209 -209 -209 -209 -209 -209 -209 -209 -209 -209 -209 -209 -209 22 -209 -209 -193 125 125 123 -209 117 125 123 131 134 135 132 133 132 133 134 136 135 130 131 134 -209 -209 -209 -209 116 117 -209 -209 -209 106 104 108 -209 -193 117 111 114 116 117 117 117 116 119 118 119 119 119 120 121 0 0 0 0 0
    0 0 0 0 0 0 0 0 0 0 0 0 0 0 0 0 0 0 0 0 0 0 0 0 0 0 0 0 0 0 0 0 0 0 0 0 0 0 0 0 0 0 0 0 0 0 0 0 0 0 0 0 0 0 0 0 0 0 0 0 0 0 0 0 0 0 0 0 0 141 142 142 143 145 147 150 150 -225 -225 -225 -225 -225 -225 -225 -225 -225 -225 -225 -225 -225 -225 -225 -225 -225 -225 -225 -225 -225 -225 -225 -225 -225 -225 -225 -225 -225 -225 -225 -225 -225 -225 -225 -225 -225 -225 -225 -225 -225 -225 -225 -225 -225 -225 -225 -225 -225 -225 -225 -225 -225 -225 -225 -225 -225 -225 -225 -225 -225 -225 -225 -225 -225 -225 -225 -225 -225 -225 -225 -225 -225 -225 -225 -225 -225 -225 -225 -225 -225 -225 -225 -225 -225 -225 -225 -225 -225 -225 -225 -225 -225 -225 -225 -225 -225 -225 -225 -225 -225 -225 -225 -225 -225 -225 -225 -225 -225 -225 -225 -225 -225 -225 -225 -225 -225 -225 -225 -225 -225 -225 -225 -225 -225 -225 -225 -225 -225 -225 -225 -225 -225 -225 -225 -225 -225 -225 -225 -225 -225 -225 -225 -225 -225 -225 -225 -225 -225 -225 -225 -225 -225 -225 -225 -225 -225 -225 -225 -225 -225 -225 -225 -225 -209 -209 -209 -209 -209 -209 -209 -209 -209 -209 -209 -209 -209 23 -193 -209 -209 -209 -193 -177 15 15 -193 -209 -209 127 128 -193 -177 123 132 129 133 136 137 135 135 134 134 135 136 135 133 133 135 137 -209 -193 -209 -209 -209 -209 -209 91 103 102 108 -209 104 116 111 115 117 117 117 117 117 120 120 121 121 121 122 123 0 0 0 0 0
    0 0 0 0 0 0 0 0 0 0 0 0 0 0 0 0 0 0 0 0 0 0 0 0 0 0 0 0 0 0 0 0 0 0 0 0 0 0 0 0 0 0 0 0 0 0 0 0 0 0 0 0 0 0 0 0 0 0 0 0 0 0 0 0 0 0 0 0 0 142 144 142 144 147 148 151 152 154 152 153 158 -225 -225 -225 -225 -225 -225 156 156 -225 -225 -225 -225 -225 -225 -225 -225 -225 -225 -225 -225 -225 -225 -225 -225 -225 -225 -225 -225 -225 -225 -225 -225 -225 -225 -225 -225 -225 -225 -225 -225 -225 -225 -225 -225 -225 -225 -225 -225 -225 -225 -225 -225 -225 -225 -225 -225 -225 -225 -225 -225 -225 -225 -225 -225 -225 -225 -225 -225 -225 -225 -225 -225 -225 -225 -225 -225 -225 -225 -225 -225 -225 -225 -225 -225 -225 -225 -225 -225 -225 -225 -225 -225 -225 -225 -225 -225 -225 -225 -225 -225 -225 -225 -225 -225 -225 -225 -225 -225 -225 -225 -225 -225 -225 -225 -225 -225 -225 -225 -225 -225 -225 -225 -225 -225 -225 -225 -225 -225 -225 -225 -225 -225 -225 -225 -225 -225 -225 -225 -225 -225 -225 -225 -225 -225 -225 -225 -225 -225 -225 -225 -225 -225 -225 -225 -225 -225 -225 -225 -193 -209 -209 -209 -209 -209 -209 -209 -209 -209 -209 -209 -209 -209 -209 -209 -209 -193 0 0 12 -177 0 -177 0 -177 -209 -193 132 -193 137 134 136 134 135 137 138 137 137 136 135 136 136 136 135 134 135 137 135 139 -209 -209 -209 -209 -209 88 97 -209 109 -209 105 114 109 115 118 118 118 119 119 123 122 123 123 123 125 126 0 0 0 0 0
    0 0 0 0 0 0 0 0 0 0 0 0 0 0 0 0 0 0 0 0 0 0 0 0 0 0 0 0 0 0 0 0 0 0 0 0 0 0 0 0 0 0 0 0 0 0 0 0 0 0 0 0 0 0 0 0 0 0 0 0 0 0 0 0 0 0 0 0 0 143 145 144 146 149 150 152 154 155 154 156 161 167 -225 -225 159 161 162 162 159 160 159 161 159 157 154 154 152 152 151 149 149 -225 -225 -225 -225 -225 -225 -225 -225 -225 -225 -225 -225 -225 -225 -225 -225 -225 -225 -225 -225 -225 -225 -225 -225 -225 -225 -225 -225 -225 -225 -225 -225 -225 -225 -225 -225 -225 -225 -225 -225 -225 -225 -225 -225 -225 -225 -225 -225 -225 -225 -225 -225 -225 -225 -225 -225 -225 -225 -225 -225 -225 -225 -225 -225 -225 -225 -225 -225 -225 -225 -225 -225 -225 -225 -225 -225 -225 -225 -225 -225 -225 -225 -225 -225 -225 -225 -225 -225 -225 -225 -225 -225 -225 -225 -225 -225 -225 -225 -225 -225 -225 -225 -225 -225 -225 -225 -225 -225 -225 -225 -225 -225 -225 -225 -225 -225 -225 -225 -225 -225 -225 -225 -225 -225 -225 -225 -225 -225 -225 -225 -225 -225 -225 -225 -209 26 -193 -209 28 -209 -209 -209 -209 144 -209 -209 142 146 146 147 149 -209 -209 -209 -209 -193 0 -177 9 9 0 9 -177 -177 -209 133 137 -193 142 141 143 137 137 139 139 138 137 137 136 137 137 137 137 136 137 138 137 139 139 139 138 -193 -193 -193 -209 -193 -209 -209 -209 -209 115 118 121 123 122 125 122 127 128 126 127 126 127 129 0 0 0 0 0
    0 0 0 0 0 0 0 0 0 0 0 0 0 0 0 0 0 0 0 0 0 0 0 0 0 0 0 0 0 0 0 0 0 0 0 0 0 0 0 0 0 0 0 0 0 0 0 0 0 0 0 0 0 0 0 0 0 0 0 0 0 0 0 0 0 0 0 0 0 -193 -193 148 149 152 152 154 157 158 158 161 163 167 156 157 155 162 159 158 157 157 159 159 158 155 153 152 153 153 153 149 149 145 153 -225 -225 -225 -225 -225 -225 -225 -225 -225 -225 -225 -225 -225 -225 -225 -225 -225 -225 -225 -225 -225 -225 -225 -225 -225 -225 -225 -225 -225 -225 -225 -225 -225 -225 -225 -225 -225 -225 -225 -225 -225 -225 -225 -225 -225 -225 -225 -225 -225 -225 -225 -225 -225 -225 -225 -225 -225 -225 -225 -225 -225 -225 -225 -225 -225 -225 -225 -225 -225 -225 -225 -225 -225 -225 -225 -225 -225 -225 -225 -225 -225 -225 -225 -225 -225 -225 -225 -225 -225 -225 -225 -225 -225 -225 -225 -225 -225 -225 -225 -225 -225 -225 -225 -225 -225 -225 -225 -225 -225 -225 -225 -225 -225 -225 -225 -225 -225 -225 -225 -225 -225 -225 -225 -225 -209 -209 0 -209 -209 -209 -209 -209 -209 28 30 -209 29 -209 126 -177 -177 139 139 143 141 143 144 146 149 149 -193 148 147 -209 -209 -177 -177 -177 -177 -177 -209 -209 -209 133 138 139 145 145 146 140 138 140 140 139 138 137 136 136 137 137 138 137 137 139 139 141 140 140 139 139 139 140 139 139 -193 -193 -209 -193 -193 -209 133 -209 -209 -193 138 134 134 132 132 133 131 133 0 0 0 0 0
    0 0 0 0 0 0 0 0 0 0 0 0 0 0 0 0 0 0 0 0 0 0 0 0 0 0 0 0 0 0 0 0 0 0 0 0 0 0 0 0 0 0 0 0 0 0 0 0 0 0 0 0 0 0 0 0 0 0 0 0 0 0 0 0 0 0 0 0 0 -193 -193 -193 151 153 154 157 161 162 163 165 163 167 153 152 152 156 155 154 155 155 157 157 157 155 154 153 154 154 154 151 152 149 154 156 -225 -225 -225 -225 -225 -225 -225 -225 -225 -225 -225 -225 -225 -225 -225 -225 -225 -225 -225 -225 -225 -225 -225 -225 -225 -225 -225 -225 -225 -225 -225 -225 -225 -225 -225 -225 -225 -225 -225 -225 -225 -225 -225 -225 -225 -225 -225 -225 -225 -225 -225 -225 -225 -225 -225 -225 -225 -225 -225 -225 -225 -225 -225 -225 -225 -225 -225 -225 -225 -225 -225 -225 -225 -225 -225 -225 -225 -225 -225 -225 -225 -225 -225 -225 -225 -225 -225 -225 -225 -225 -225 -225 -225 -225 -225 -225 -225 -225 -225 -225 -225 -225 -225 -225 -225 -225 -225 -225 -225 -225 -225 -225 -225 -225 -225 -225 -225 -225 -225 -225 -225 -209 -209 -209 -209 -209 -209 -209 -209 -209 -209 -209 29 32 -209 -209 -209 125 -177 -177 136 136 141 140 142 143 145 148 149 147 147 146 148 -193 -209 -209 -177 -177 -177 -209 -193 -209 -209 140 143 148 149 148 144 140 141 140 140 139 138 137 136 137 137 138 137 137 137 138 140 140 140 139 140 140 141 141 141 139 137 139 138 -193 -193 136 139 140 142 142 138 138 137 135 138 135 136 0 0 0 0 0
    0 0 0 0 0 0 0 0 0 0 0 0 0 0 0 0 0 0 0 0 0 0 0 0 0 0 0 0 0 0 0 0 0 0 0 0 0 0 0 0 0 0 0 0 0 0 0 0 0 0 0 0 0 0 0 0 0 0 0 0 0 0 0 0 0 0 0 0 0 -193 156 -209 -193 164 158 161 165 164 164 165 163 166 152 151 152 153 153 153 154 154 156 156 156 154 154 154 155 154 154 152 153 151 155 157 -225 -225 -225 -225 -225 -225 -225 -225 -225 -225 -225 -225 -225 -225 -225 -225 -225 -225 -225 -225 -225 -225 -225 -225 -225 -225 -225 -225 -225 -225 -225 -225 -225 -225 -225 -225 -225 -225 -225 -225 -225 -225 -225 -225 -225 -225 -225 -225 -225 -225 -225 -225 -225 -225 -225 -225 -225 -225 -225 -225 -225 -225 -225 -225 -225 -225 -225 -225 -225 -225 -225 -225 -225 -225 -225 -225 -225 -225 -225 -225 -225 -225 -225 -225 -225 -225 -225 -225 -225 -225 -225 -225 -225 -225 -225 -225 -225 -225 -225 -225 -225 -225 -225 -225 -225 -225 -225 -225 -225 -225 -225 -225 -225 -225 -225 -225 -225 -225 -225 -225 -209 -209 -209 -209 -209 -209 -209 -209 -209 -209 -209 -209 29 31 -209 -209 -209 124 -177 -177 136 136 141 140 141 143 146 148 149 147 148 146 148 -193 -209 -209 -209 -193 -209 -209 -209 -209 -209 143 147 149 150 149 147 143 143 143 145 142 141 140 139 139 139 139 138 137 137 137 139 139 140 139 140 141 142 143 143 141 139 140 140 138 -193 137 140 140 143 144 140 140 139 137 139 137 139 0 0 0 0 0
    0 0 0 0 0 0 0 0 0 0 0 0 0 0 0 0 0 0 0 0 0 0 0 0 0 0 0 0 0 0 0 0 0 0 0 0 0 0 0 0 0 0 0 0 0 0 0 0 0 0 0 0 0 0 0 0 0 0 0 0 0 0 0 0 0 0 0 0 0 -209 -209 -209 -209 -193 163 164 166 165 164 165 163 166 151 151 152 153 153 153 154 154 156 156 156 154 154 154 155 154 154 153 153 152 155 157 -225 -225 -225 -225 -225 -225 -225 -225 -225 -225 -225 -225 -225 -225 -225 -225 -225 -225 -225 -225 -225 -225 -225 -225 -225 -225 -225 -225 -225 -225 -225 -225 -225 -225 -225 -225 -225 -225 -225 -225 -225 -225 -225 -225 -225 -225 -225 -225 -225 -225 -225 -225 -225 -225 -225 -225 -225 -225 -225 -225 -225 -225 -225 -225 -225 -225 -225 -225 -225 -225 -225 -225 -225 -225 -225 -225 -225 -225 -225 -225 -225 -225 -225 -225 -225 -225 -225 -225 -225 -225 -225 -225 -225 -225 -225 -225 -225 -225 -225 -225 -225 -225 -225 -225 -225 -225 -225 -225 -225 -225 -225 -225 -225 -225 -225 -225 -225 -225 -209 -209 -209 -209 -209 -209 -209 -209 -209 -209 -209 -209 -209 -209 35 34 -209 -209 -209 124 -177 -177 136 136 140 139 140 143 146 149 150 147 148 146 148 -193 -209 -209 -209 -193 -209 -209 -209 -209 -209 146 149 151 152 150 149 147 146 147 150 148 147 147 145 143 143 142 140 -193 138 138 140 140 142 142 144 144 146 146 147 146 147 144 145 140 141 139 142 142 146 146 144 144 144 142 144 141 144 0 0 0 0 0
    0 0 0 0 0 0 0 0 0 0 0 0 0 0 0 0 0 0 0 0 0 0 0 0 0 0 0 0 0 0 0 0 0 0 0 0 0 0 0 0 0 0 0 0 0 0 0 0 0 0 0 0 0 0 0 0 0 0 0 0 0 0 0 0 0 0 0 0 0 170 170 179 -209 171 168 167 168 166 165 167 163 165 151 151 152 153 153 153 154 154 156 156 156 154 154 154 155 154 154 153 153 152 155 157 -225 -225 -225 -225 -225 -225 -225 -225 -225 -225 -225 -225 -225 -225 -225 -225 -225 -225 -225 -225 -225 -225 -225 -225 -225 -225 -225 -225 -225 -225 -225 -225 -225 -225 -225 -225 -225 -225 -225 -225 -225 -225 -225 -225 -225 -225 -225 -225 -225 -225 -225 -225 -225 -225 -225 -225 -225 -225 -225 -225 -225 -225 -225 -225 -225 -225 -225 -225 -225 -225 -225 -225 -225 -225 -225 -225 -225 -225 -225 -225 -225 -225 -225 -225 -225 -225 -225 -225 -225 -225 -225 -225 -225 -225 -225 -225 -225 -225 -225 -225 -225 -225 -225 -225 -225 -225 -225 -225 -225 -225 -225 -225 -225 -225 -225 -225 -225 -209 -209 -209 -209 -209 -209 -209 -209 -209 -209 -209 -209 -209 -209 -209 -209 -209 -209 -209 -209 124 -209 -193 -193 135 137 137 139 142 146 148 149 146 148 146 149 -193 -209 -209 -209 -193 -209 -209 -209 -209 -209 -193 149 151 152 151 150 149 148 150 153 151 151 151 150 150 147 145 141 -193 138 -193 141 142 147 147 149 148 149 149 149 149 150 145 148 141 -193 139 144 142 147 146 147 146 148 148 149 147 149 0 0 0 0 0
    0 0 0 0 0 0 0 0 0 0 0 0 0 0 0 0 0 0 0 0 0 0 0 0 0 0 0 0 0 0 0 0 0 0 0 0 0 0 0 0 0 0 0 0 0 0 0 0 0 0 0 0 0 0 0 0 0 0 0 0 0 0 0 0 0 0 0 0 0 170 171 177 172 172 171 169 169 169 168 169 166 167 151 151 152 153 153 153 154 154 156 156 156 154 154 154 155 154 154 153 153 152 155 157 -225 -225 -225 -225 -225 -225 -225 -225 -225 -225 -225 -225 -225 -225 -225 -225 -225 -225 -225 -225 -225 -225 -225 -225 -225 -225 -225 -225 -225 -225 -225 -225 -225 -225 -225 -225 -225 -225 -225 -225 -225 -225 -225 -225 -225 -225 -225 -225 -225 -225 -225 -225 -225 -225 -225 -225 -225 -225 -225 -225 -225 -225 -225 -225 -225 -225 -225 -225 -225 -225 -225 -225 -225 -225 -225 -225 -225 -225 -225 -225 -225 -225 -225 -225 -225 -225 -225 -225 -225 -225 -225 -225 -225 -225 -225 -225 -225 -225 -225 -225 -225 -225 -225 -225 -225 -225 -225 -225 -225 -225 -225 -225 -225 -225 -225 -209 -209 -209 -209 -209 -209 -209 -209 -209 -209 -209 -209 -209 -209 -209 -209 -209 -209 -209 -209 -209 -209 -209 -209 -193 -209 134 -193 136 137 141 145 147 149 146 148 147 150 150 -193 -209 -193 -193 -193 -193 -209 -209 -209 -209 148 151 -209 151 151 150 150 152 154 153 153 154 154 153 153 149 -193 139 -193 -193 141 -209 -209 -209 -209 -209 -193 152 151 150 151 145 149 141 142 139 143 141 146 145 147 146 148 148 149 148 150 0 0 0 0 0
    0 0 0 0 0 0 0 0 0 0 0 0 0 0 0 0 0 0 0 0 0 0 0 0 0 0 0 0 0 0 0 0 0 0 0 0 0 0 0 0 0 0 0 0 0 0 0 0 0 0 0 0 0 0 0 0 0 0 0 0 0 0 0 0 0 0 0 0 0 171 171 177 175 176 175 172 171 173 172 173 170 170 152 153 153 154 154 153 154 154 156 156 156 154 154 154 155 154 154 153 153 152 155 157 -225 -225 -225 -225 -225 -225 -225 -225 -225 -225 -225 -225 -225 -225 -225 -225 -225 -225 -225 -225 -225 -225 -225 -225 -225 -225 -225 -225 -225 -225 -225 -225 -225 -225 -225 -225 -225 -225 -225 -225 -225 -225 -225 -225 -225 -225 -225 -225 -225 -225 -225 -225 -225 -225 -225 -225 -225 -225 -225 -225 -225 -225 -225 -225 -225 -225 -225 -225 -225 -225 -225 -225 -225 -225 -225 -225 -225 -225 -225 -225 -225 -225 -225 -225 -225 -225 -225 -225 -225 -225 -225 -225 -225 -225 -225 -225 -225 -225 -225 -225 -225 -225 -225 -225 -225 -225 -225 -225 -225 -225 -225 -225 -209 -209 -209 -209 -209 -209 -209 -209 -209 -209 -209 -209 -209 -209 -209 -209 -209 -209 -209 -209 30 -209 -209 -209 -209 -209 -209 -209 -209 132 133 135 136 140 145 147 150 148 150 149 152 151 154 -209 -209 -209 -193 -193 -209 -209 -209 -209 -209 -209 -209 -209 -209 151 151 -193 154 154 154 155 155 154 154 151 150 -209 -209 -209 -209 -193 450 -193 -193 444 -193 -193 155 154 153 149 153 141 142 139 142 141 144 144 145 145 146 147 149 148 150 0 0 0 0 0
    0 0 0 0 0 0 0 0 0 0 0 0 0 0 0 0 0 0 0 0 0 0 0 0 0 0 0 0 0 0 0 0 0 0 0 0 0 0 0 0 0 0 0 0 0 0 0 0 0 0 0 0 0 0 0 0 0 0 0 0 0 0 0 0 0 0 0 0 0 171 172 179 178 179 179 176 174 176 175 177 173 172 154 152 154 153 154 152 154 154 156 156 157 154 154 154 156 155 155 153 154 153 156 160 -225 -225 -225 -225 -225 -225 -225 -225 -225 -225 -225 -225 -225 -225 -225 -225 -225 -225 -225 -225 -225 -225 -225 -225 -225 -225 -225 -225 -225 -225 -225 -225 -225 -225 -225 -225 -225 -225 -225 -225 -225 -225 -225 -225 -225 -225 -225 -225 -225 -225 -225 -225 -225 -225 -225 -225 -225 -225 -225 -225 -225 -225 -225 -225 -225 -225 -225 -225 -225 -225 -225 -225 -225 -225 -225 -225 -225 -225 -225 -225 -225 -225 -225 -225 -225 -225 -225 -225 -225 -225 -225 -225 -225 -225 -225 -225 -225 -225 -225 -225 -225 -225 -225 -225 -225 -225 -225 -225 -225 -225 -225 -225 -209 -209 -209 -209 -209 -209 -209 -209 -209 -209 -209 -209 -209 -209 -209 -209 -209 -209 -209 -209 38 39 -209 -209 -209 -209 -209 -209 -193 -209 -193 130 133 139 148 149 151 150 153 152 154 153 156 158 161 153 154 -209 -209 -209 -209 -209 -209 -209 -209 -209 -177 153 -193 -193 156 155 156 156 157 156 156 154 153 -209 -209 -209 -209 -193 448 450 -193 -193 -193 -193 159 158 157 154 155 -209 -209 -209 142 139 144 -193 -193 -193 145 147 149 149 152 0 0 0 0 0
    0 0 0 0 0 0 0 0 0 0 0 0 0 0 0 0 0 0 0 0 0 0 0 0 0 0 0 0 0 0 0 0 0 0 0 0 0 0 0 0 0 0 0 0 0 0 0 0 0 0 0 0 0 0 0 0 0 0 0 0 0 0 0 0 0 0 0 0 0 171 172 178 178 179 179 176 175 176 176 177 173 172 154 152 153 152 153 151 152 152 155 154 155 154 153 154 157 155 156 154 156 154 158 162 -225 -225 -225 -225 -225 -225 -225 -225 -225 -225 -225 -225 -225 -225 -225 -225 -225 -225 -225 -225 -225 -225 -225 -225 -225 -225 -225 -225 -225 -225 -225 -225 -225 -225 -225 -225 -225 -225 -225 -225 -225 -225 -225 -225 -225 -225 -225 -225 -225 -225 -225 -225 -225 -225 -225 -225 -225 -225 -225 -225 -225 -225 -225 -225 -225 -225 -225 -225 -225 -225 -225 -225 -225 -225 -225 -225 -225 -225 -225 -225 -225 -225 -225 -225 -225 -225 -225 -225 -225 -225 -225 -225 -225 -225 -225 -225 -225 -225 -225 -225 -225 -225 -225 -225 -225 -225 -225 -225 -225 -225 -225 -225 -209 -209 0 0 -209 -209 -209 -209 -209 -209 -193 88 -209 -209 -209 -209 -209 -209 -209 -209 -193 42 -209 -209 -209 -209 -209 -209 -193 -209 -209 -209 -209 -209 158 156 157 156 157 155 158 158 160 162 166 164 161 164 -209 -209 -209 -209 -209 -209 -193 -209 154 155 154 -193 157 156 158 158 159 157 158 156 154 -193 -193 -193 150 -193 -193 -193 -193 -193 -193 -193 166 165 163 162 158 -209 -209 -209 141 -193 -193 -209 -209 -209 -193 -209 150 -193 -209 0 0 0 0 0
    0 0 0 0 0 0 0 0 0 0 0 0 0 0 0 0 0 0 0 0 0 0 0 0 0 0 0 0 0 0 0 0 0 0 0 0 0 0 0 0 0 0 0 0 0 0 0 0 0 0 0 0 0 0 0 0 0 0 0 0 0 0 0 0 0 0 0 0 0 172 173 179 179 181 181 178 177 178 177 178 174 174 158 155 159 149 151 149 152 151 153 153 154 154 155 158 159 156 158 158 160 159 163 -225 -225 -225 -225 -225 -225 -225 -225 -225 -225 -225 -225 -225 -225 -225 -225 -225 -225 -225 -225 -225 -225 -225 -225 -225 -225 -225 -225 -225 -225 -225 -225 -225 -225 -225 -225 -225 -225 -225 -225 -225 -225 -225 -225 -225 -225 -225 -225 -225 -225 -225 -225 -225 -225 -225 -225 -225 -225 -225 -225 -225 -225 -225 -225 -225 -225 -225 -225 -225 -225 -225 -225 -225 -225 -225 -225 -225 -225 -225 -225 -225 -225 -225 -225 -225 -225 -225 -225 -225 -225 -225 -225 -225 -225 -225 -225 -225 -225 -225 -225 -225 -225 -225 -225 -225 -225 -225 -225 -225 -225 -225 -225 -225 -209 -209 0 0 -209 -193 -209 -209 -209 -209 -193 -209 -209 -209 -209 -209 -209 -209 -209 -209 -209 -209 -209 -209 -209 20 16 14 15 -193 -209 -209 -209 -209 -193 -193 164 -193 -193 -193 162 164 164 165 167 168 166 169 169 -209 -193 -209 -209 -209 -193 -193 159 159 158 159 160 159 162 161 162 160 161 161 160 156 160 156 157 162 165 -193 167 168 -193 169 169 169 167 169 166 -193 115 119 -209 131 -209 -209 -209 -209 -209 -209 -209 -209 -209 0 0 0 0 0
    0 0 0 0 0 0 0 0 0 0 0 0 0 0 0 0 0 0 0 0 0 0 0 0 0 0 0 0 0 0 0 0 0 0 0 0 0 0 0 0 0 0 0 0 0 0 0 0 0 0 0 0 0 0 0 0 0 0 0 0 0 0 0 0 0 0 0 0 0 175 174 181 182 183 184 181 179 180 180 179 178 175 167 -193 -209 -209 -209 148 153 151 151 -209 -209 -209 -209 -209 -209 159 164 166 166 165 -225 -225 -225 -225 -225 -225 -225 -225 -225 -225 -225 -225 -225 -225 -225 -225 -225 -225 -225 -225 -225 -225 -225 -225 -225 -225 -225 -225 -225 -225 -225 -225 -225 -225 -225 -225 -225 -225 -225 -225 -225 -225 -225 -225 -225 -225 -225 -225 -225 -225 -225 -225 -225 -225 -225 -225 -225 -225 -225 -225 -225 -225 -225 -225 -225 -225 -225 -225 -225 -225 -225 -225 -225 -225 -225 -225 -225 -225 -225 -225 -225 -225 -225 -225 -225 -225 -225 -225 -225 -225 -225 -225 -225 -225 -225 -225 -225 -225 -225 -225 -225 -225 -225 -225 -225 -225 -225 -225 -225 -225 -225 -225 -225 -225 -209 -209 0 0 -209 -193 -209 -209 -209 -209 -193 -209 -209 -209 -209 -209 -209 -209 -209 -209 -209 -209 -209 -209 -209 20 18 15 17 -193 -209 -209 -193 -193 -209 -209 -209 -209 -209 -193 -193 165 165 166 168 168 167 171 173 172 -193 -193 -209 -209 -193 -193 166 164 163 163 164 163 164 163 163 164 164 165 166 163 167 163 169 168 167 170 169 169 169 170 170 171 170 171 169 172 -193 113 -193 -209 -209 -209 -209 -209 -177 -193 -209 170 -193 0 0 0 0 0
    0 0 0 0 0 0 0 0 0 0 0 0 0 0 0 0 0 0 0 0 0 0 0 0 0 0 0 0 0 0 0 0 0 0 0 0 0 0 0 0 0 0 0 0 0 0 0 0 0 0 0 0 0 0 0 0 0 0 0 0 0 0 0 0 0 0 0 0 0 178 177 183 184 185 185 182 178 180 181 181 180 -193 -209 -193 -209 -209 -209 -209 -209 -209 -209 -209 -209 -209 -209 -209 -209 -209 -209 -209 -225 -225 -225 -225 -225 -225 -225 -225 -225 -225 -225 -225 -225 -225 -225 -225 -225 -225 -225 -225 -225 -225 -225 -225 -225 -225 -225 -225 -225 -225 -225 -225 -225 -225 -225 -225 -225 -225 -225 -225 -225 -225 -225 -225 -225 -225 -225 -225 -225 -225 -225 -225 -225 -225 -225 -225 -225 -225 -225 -225 -225 -225 -225 -225 -225 -225 -225 -225 -225 -225 -225 -225 -225 -225 -225 -225 -225 -225 -225 -225 -225 -225 -225 -225 -225 -225 -225 -225 -225 -225 -225 -225 -225 -225 -225 -225 -225 -225 -225 -225 -225 -225 -225 -225 -225 -225 -225 -225 -225 -225 -225 -225 -225 -225 -225 -225 -209 -209 0 0 -209 -193 -209 -209 -209 -209 86 88 -209 -209 -209 -209 -209 -209 -209 -209 -209 -209 -209 -209 -209 20 18 16 17 -193 -193 -209 11 -193 -193 -209 -209 -209 -209 -193 -193 -209 166 -193 -193 -193 167 171 176 174 175 177 176 173 173 174 170 167 167 166 167 165 166 165 165 166 166 168 169 167 169 168 171 172 169 172 170 170 170 171 171 171 170 172 170 174 -209 -209 -209 -209 -209 -209 -209 -209 -209 -193 -193 172 178 0 0 0 0 0
    0 0 0 0 0 0 0 0 0 0 0 0 0 0 0 0 0 0 0 0 0 0 0 0 0 0 0 0 0 0 0 0 0 0 0 0 0 0 0 0 0 0 0 0 0 0 0 0 0 0 0 0 0 0 0 0 0 0 0 0 0 0 0 0 0 0 0 0 0 179 178 184 185 185 185 182 -193 -193 -193 181 -209 -193 -209 -209 -209 -193 -193 -209 -209 -209 -209 -209 -209 -209 -209 -209 -209 -209 -209 -225 -225 -225 -225 -225 -225 -225 -225 -225 -225 -225 -225 -225 -225 -225 -225 -225 -225 -225 -225 -225 -225 -225 -225 -225 -225 -225 -225 -225 -225 -225 -225 -225 -225 -225 -225 -225 -225 -225 -225 -225 -225 -225 -225 -225 -225 -225 -225 -225 -225 -225 -225 -225 -225 -225 -225 -225 -225 -225 -225 -225 -225 -225 -225 -225 -225 -225 -225 -225 -225 -225 -225 -225 -225 -225 -225 -225 -225 -225 -225 -225 -225 -225 -225 -225 -225 -225 -225 -225 -225 -225 -225 -225 -225 -225 -225 -225 -225 -225 -225 -225 -225 -225 -225 -225 -225 -225 -225 -225 -225 -225 -225 -225 -225 -225 -225 -225 -209 -209 -177 0 -209 -193 -209 -209 99 -209 85 88 -209 -209 -209 -209 -209 -209 -209 -209 -209 -209 -209 -209 -209 20 18 16 17 -193 -193 -193 12 -193 -209 -209 -209 -209 -209 -209 -193 -209 166 166 -193 -209 -193 -193 181 181 181 181 182 182 178 179 176 170 170 169 170 -193 170 168 168 169 170 171 173 171 172 170 173 173 172 174 171 171 171 172 172 173 172 173 171 178 -193 -209 -209 -193 -193 -193 -209 -209 -209 -209 -209 173 180 0 0 0 0 0
    0 0 0 0 0 0 0 0 0 0 0 0 0 0 0 0 0 0 0 0 0 0 0 0 0 0 0 0 0 0 0 0 0 0 0 0 0 0 0 0 0 0 0 0 0 0 0 0 0 0 0 0 0 0 0 0 0 0 0 0 0 0 0 0 0 0 0 0 0 182 182 185 186 186 187 -209 -209 -193 -209 -209 -177 -209 -209 -209 -209 -209 -209 -209 -209 -209 -209 -209 -209 -209 -209 -209 -209 -209 -209 -225 -225 -225 -225 -225 -225 -225 -225 -225 -225 -225 -225 -225 -225 -225 -225 -225 -225 -225 -225 -225 -225 -225 -225 -225 -225 -225 -225 -225 -225 -225 -225 -225 -225 -225 -225 -225 -225 -225 -225 -225 -225 -225 -225 -225 -225 -225 -225 -225 -225 -225 -225 -225 -225 -225 -225 -225 -225 -225 -225 -225 -225 -225 -225 -225 -225 -225 -225 -225 -225 -225 -225 -225 -225 -225 -225 -225 -225 -225 -225 -225 -225 -225 -225 -225 -225 -225 -225 -225 -225 -225 -225 -225 -225 -225 -225 -225 -225 -225 -225 -225 -225 -225 -225 -225 -225 -225 -225 -225 -225 -225 -225 -225 -225 -225 -225 -225 -209 -209 -177 0 -209 -193 -209 -209 99 -209 85 88 96 -209 -209 -209 -209 -209 -209 -209 -209 -209 -209 -209 -209 -193 20 -193 18 -193 -193 -193 14 -193 -209 -209 -209 -209 -209 -209 -193 -209 -193 -193 -193 -209 -209 -193 183 183 183 183 183 183 180 180 178 171 172 172 172 171 172 171 171 172 174 175 176 176 175 173 178 177 176 179 174 173 173 175 176 175 175 176 173 180 182 184 185 182 181 183 -209 -209 -209 -209 -209 176 181 0 0 0 0 0
    0 0 0 0 0 0 0 0 0 0 0 0 0 0 0 0 0 0 0 0 0 0 0 0 0 0 0 0 0 0 0 0 0 0 0 0 0 0 0 0 0 0 0 0 0 0 0 0 0 0 0 0 0 0 0 0 0 0 0 0 0 0 0 0 0 0 0 0 0 184 184 186 187 187 188 187 -209 -209 -209 -177 -177 -177 -193 -209 -209 -209 -209 -209 -209 -209 -209 -209 -209 -209 -209 -209 -209 -209 -209 -225 -225 -225 -225 -225 -225 -225 -225 -225 -225 -225 -225 -225 -225 -225 -225 -225 -225 -225 -225 -225 -225 -225 -225 -225 -225 -225 -225 -225 -225 -225 -225 -225 -225 -225 -225 -225 -225 -225 -225 -225 -225 -225 -225 -225 -225 -225 -225 -225 -225 -225 -225 -225 -225 -225 -225 -225 -225 -225 -225 -225 -225 -225 -225 -225 -225 -225 -225 -225 -225 -225 -225 -225 -225 -225 -225 -225 -225 -225 -225 -225 -225 -225 -225 -225 -225 -225 -225 -225 -225 -225 -225 -225 -225 -225 -225 -225 -225 -225 -225 -225 -225 -225 -225 -225 -225 -225 -225 -225 -225 -225 -225 -225 -225 -225 -225 -225 -225 0 0 0 -193 0 -193 -193 -177 -209 86 90 98 -209 -209 -209 -209 -209 -209 -209 -209 -209 -209 -209 -209 -209 -209 -193 -193 -193 -193 -193 -193 -193 -209 -209 -209 -209 -209 -209 -193 -209 -209 -209 -193 -209 -209 177 182 182 182 182 183 183 181 180 178 172 175 176 -193 175 178 177 179 181 183 181 181 182 181 178 182 180 178 181 176 176 175 177 178 177 178 179 176 182 183 185 185 182 182 183 184 -209 -209 180 181 181 184 0 0 0 0 0
    0 0 0 0 0 0 0 0 0 0 0 0 0 0 0 0 0 0 0 0 0 0 0 0 0 0 0 0 0 0 0 0 0 0 0 0 0 0 0 0 0 0 0 0 0 0 0 0 0 0 0 0 0 0 0 0 0 0 0 0 0 0 0 0 0 0 0 0 0 186 186 187 188 189 190 189 187 -209 -193 952 958 962 -209 -209 -209 -209 -209 -209 -209 -209 -209 -209 -209 -209 -209 -209 -209 -209 -209 -225 -225 -225 -225 -225 -225 -225 -225 -225 -225 -225 -225 -225 -225 -225 -225 -225 -225 -225 -225 -225 -225 -225 -225 -225 -225 -225 -225 -225 -225 -225 -225 -225 -225 -225 -225 -225 -225 -225 -225 -225 -225 -225 -225 -225 -225 -225 -225 -225 -225 -225 -225 -225 -225 -225 -225 -225 -225 -225 -225 -225 -225 -225 -225 -225 -225 -225 -225 -225 -225 -225 -225 -225 -225 -225 -225 -225 -225 -225 -225 -225 -225 -225 -225 -225 -225 -225 -225 -225 -225 -225 -225 -225 -225 -225 -225 -225 -225 -225 -225 -225 -225 -225 -225 -225 -225 -225 -225 -225 -225 -225 -225 -225 -225 -225 -225 -225 -225 -225 -225 -225 -225 0 -225 -225 -225 -193 -209 -193 -209 -209 -209 -209 -209 -209 -209 -209 -209 -209 -209 -209 -209 -209 -209 -209 -209 -193 -193 -193 18 20 -193 -193 -209 -209 -209 -209 -209 -209 -209 -209 -193 -209 -193 180 183 183 183 183 183 183 180 179 178 173 177 180 180 180 182 183 183 186 -193 -193 184 185 187 183 184 182 179 182 177 176 175 178 179 178 181 181 180 184 184 185 186 183 183 184 185 -193 182 181 182 183 185 0 0 0 0 0
    0 0 0 0 0 0 0 0 0 0 0 0 0 0 0 0 0 0 0 0 0 0 0 0 0 0 0 0 0 0 0 0 0 0 0 0 0 0 0 0 0 0 0 0 0 0 0 0 0 0 0 0 0 0 0 0 0 0 0 0 0 0 0 0 0 0 0 0 0 188 188 188 189 190 192 191 189 -209 -193 -193 -177 -209 -209 -209 -209 -209 -209 -209 -209 -209 -209 -209 -209 -209 -209 -209 -209 -209 -225 -225 -225 -225 -225 -225 -225 -225 -225 -225 -225 -225 -225 -225 -225 -225 -225 -225 -225 -225 -225 -225 -225 -225 -225 -225 -225 -225 -225 -225 -225 -225 -225 -225 -225 -225 -225 -225 -225 -225 -225 -225 -225 -225 -225 -225 -225 -225 -225 -225 -225 -225 -225 -225 -225 -225 -225 -225 -225 -225 -225 -225 -225 -225 -225 -225 -225 -225 -225 -225 -225 -225 -225 -225 -225 -225 -225 -225 -225 -225 -225 -225 -225 -225 -225 -225 -225 -225 -225 -225 -225 -225 -225 -225 -225 -225 -225 -225 -225 -225 -225 -225 -225 -225 -225 -225 -225 -225 -225 -225 -225 -225 -225 -225 -225 -225 -225 -225 -225 -225 -225 -225 -225 -225 -225 -225 -225 -225 -209 -209 -209 -209 -209 -209 -209 -209 -209 -209 -209 -209 -209 -209 -209 -209 -209 -209 -209 -193 -193 -193 20 23 -209 -209 -209 -209 -209 -209 -209 -209 -209 -193 -209 -209 -209 -193 186 186 187 186 185 185 183 181 181 177 181 183 184 184 186 187 188 195 196 -209 187 190 191 187 188 185 182 184 182 183 180 181 182 181 183 184 183 187 187 187 187 185 185 -193 186 185 183 -193 -193 185 186 0 0 0 0 0</data></disparity>
</opencv_storage>
