<?xml version="1.0"?>
<opencv_storage>
<gps_time_stamp>40442</gps_time_stamp>
<gps_x>-1.4086915969848633e+001</gps_x>
<gps_y>1.5163642168045044e+000</gps_y>
<gps_z>-4.2983779907226562e+000</gps_z>
<image_time_stamp>28364</image_time_stamp>
<disparity type_id="opencv-matrix">
  <rows>95</rows>
  <cols>320</cols>
  <dt>s</dt>
  <data>
    0 0 0 0 0 0 0 0 0 0 0 0 0 0 0 0 0 0 0 0 0 0 0 0 0 0 0 0 0 0 0 0 0 0 0 0 0 0 0 0 0 0 0 0 0 0 0 0 0 0 0 0 0 0 0 0 0 0 0 0 0 0 0 0 0 0 0 0 0 10 0 0 0 0 0 0 0 0 0 0 9 0 0 10 10 10 10 10 10 10 10 10 9 9 9 9 9 9 13 12 13 12 11 11 11 12 12 0 9 0 0 0 0 0 0 0 0 0 0 0 9 10 11 9 12 10 10 10 9 0 0 0 0 0 0 0 0 11 11 12 11 11 11 11 12 12 9 9 0 0 9 0 9 9 10 10 9 9 9 9 10 9 10 0 0 -193 -193 -193 -193 0 0 0 -193 -209 -193 12 12 14 15 12 13 13 12 11 9 10 9 0 0 9 0 0 0 0 0 13 10 11 10 10 10 10 12 12 10 12 12 12 13 13 13 14 15 16 14 16 18 21 22 16 15 14 16 12 11 11 11 9 10 9 9 0 9 13 11 11 11 11 14 15 15 16 12 14 14 15 14 13 15 18 18 15 16 18 15 15 15 15 14 13 16 15 12 24 25 24 24 23 23 20 19 20 22 18 18 17 18 18 19 19 17 13 21 22 23 23 24 27 27 27 28 -193 21 20 20 22 21 21 21 21 18 25 26 26 25 27 29 28 31 28 30 29 31 30 31 0 0 0 0 0
    0 0 0 0 0 0 0 0 0 0 0 0 0 0 0 0 0 0 0 0 0 0 0 0 0 0 0 0 0 0 0 0 0 0 0 0 0 0 0 0 0 0 0 0 0 0 0 0 0 0 0 0 0 0 0 0 0 0 0 0 0 0 0 0 0 0 0 0 0 9 0 0 0 0 0 0 0 0 0 0 11 9 10 11 11 11 11 11 11 10 10 10 0 0 0 0 0 9 13 12 13 13 11 11 11 11 12 0 9 0 0 0 0 0 0 0 0 0 0 0 0 0 9 9 11 10 10 10 9 0 0 0 0 0 0 0 0 11 11 11 11 10 10 10 11 12 0 0 0 0 0 0 0 9 11 10 9 9 9 9 9 9 10 0 9 9 -209 -209 -193 -193 0 0 -193 -209 -193 12 12 14 16 13 13 13 11 10 9 9 0 0 0 0 0 0 0 0 0 14 10 11 10 10 11 10 12 13 10 11 11 11 12 12 12 13 14 14 13 16 18 22 22 16 15 14 15 11 10 10 11 0 9 0 0 0 0 12 10 10 10 10 14 14 14 16 13 14 14 15 14 13 15 18 17 14 16 19 15 15 15 15 14 14 16 15 12 23 24 24 24 23 23 19 19 20 22 18 18 18 18 18 19 19 18 12 20 21 22 22 22 25 26 26 27 -193 21 20 20 22 21 20 21 21 17 25 25 25 -193 27 29 28 32 29 30 30 31 30 31 0 0 0 0 0
    0 0 0 0 0 0 0 0 0 0 0 0 0 0 0 0 0 0 0 0 0 0 0 0 0 0 0 0 0 0 0 0 0 0 0 0 0 0 0 0 0 0 0 0 0 0 0 0 0 0 0 0 0 0 0 0 0 0 0 0 0 0 0 0 0 0 0 0 0 10 0 0 0 0 0 0 0 0 0 0 13 10 10 12 12 12 12 12 11 10 11 11 0 0 9 9 0 9 13 12 14 13 12 11 11 11 11 0 0 0 0 0 0 0 0 0 0 0 0 0 0 0 9 9 11 10 11 10 9 0 0 0 0 0 0 0 0 11 11 11 11 10 10 10 11 11 0 0 0 0 8 0 0 10 11 9 9 9 0 0 0 0 0 0 0 0 -209 -209 295 -193 -193 -193 -193 -193 -209 15 13 16 17 13 12 12 11 9 0 0 0 0 0 0 0 0 0 0 0 -193 10 11 10 10 11 10 12 13 10 11 11 11 12 11 12 12 13 14 12 14 17 21 22 16 15 14 15 11 10 10 10 0 9 0 0 0 0 11 10 10 9 10 13 13 13 16 12 14 14 14 14 13 15 18 16 14 16 19 16 16 16 15 14 14 16 16 11 23 24 24 25 26 26 21 21 22 23 19 19 18 18 17 19 19 18 12 19 21 21 21 19 23 24 24 25 -193 21 21 20 22 21 20 21 20 17 24 24 25 -209 -193 29 28 -193 29 30 30 30 30 30 0 0 0 0 0
    0 0 0 0 0 0 0 0 0 0 0 0 0 0 0 0 0 0 0 0 0 0 0 0 0 0 0 0 0 0 0 0 0 0 0 0 0 0 0 0 0 0 0 0 0 0 0 0 0 0 0 0 0 0 0 0 0 0 0 0 0 0 0 0 0 0 0 0 0 10 0 0 0 0 0 0 0 0 0 0 15 11 11 14 13 13 13 12 12 10 11 11 0 0 9 0 9 9 11 11 13 12 11 11 10 10 11 0 0 0 0 0 0 0 0 0 0 0 0 0 0 0 9 9 11 10 11 10 10 9 9 0 9 0 0 0 0 11 10 11 10 10 10 10 11 11 0 0 0 0 9 0 0 10 11 9 0 9 0 0 0 0 0 0 0 0 -193 -209 -209 314 -193 -193 -209 -193 -193 17 14 16 17 12 12 12 10 -193 0 0 0 0 0 0 0 0 0 0 0 -193 11 11 11 10 11 11 12 13 9 11 11 11 12 11 12 12 13 13 12 13 16 18 22 15 14 13 14 9 9 9 9 0 0 0 0 0 0 11 9 10 9 10 12 13 13 16 12 13 13 14 14 13 15 18 14 14 15 20 16 16 16 16 14 14 16 16 11 23 26 26 28 34 30 24 24 24 24 20 20 19 19 18 19 19 18 12 19 20 20 20 17 21 22 23 23 24 21 21 21 22 21 20 21 21 18 24 23 24 -209 27 30 30 -193 29 29 30 30 30 30 0 0 0 0 0
    0 0 0 0 0 0 0 0 0 0 0 0 0 0 0 0 0 0 0 0 0 0 0 0 0 0 0 0 0 0 0 0 0 0 0 0 0 0 0 0 0 0 0 0 0 0 0 0 0 0 0 0 0 0 0 0 0 0 0 0 0 0 0 0 0 0 0 0 0 10 9 9 0 0 0 0 0 0 0 0 -177 11 11 15 13 13 13 13 12 10 12 12 0 0 9 9 9 9 11 11 13 12 11 10 9 9 11 0 0 0 0 0 0 0 0 0 0 0 0 0 0 0 9 0 10 10 11 10 10 9 9 0 9 0 0 0 0 11 10 11 10 10 10 10 11 11 0 0 0 0 0 0 0 10 10 0 9 9 0 0 0 0 0 0 0 0 -193 -209 -209 -209 -209 0 -209 -209 21 17 14 16 16 -193 -193 11 -193 -193 0 0 0 0 0 0 0 0 9 0 0 -193 11 11 11 11 11 11 12 13 9 11 11 11 11 11 12 12 13 12 -193 -193 14 15 21 13 13 11 12 0 0 0 0 0 0 0 0 0 0 11 9 10 10 10 12 12 12 16 12 12 12 13 13 12 14 17 13 14 15 20 16 16 16 16 14 16 18 18 11 25 30 31 32 38 34 33 27 27 27 22 21 20 19 18 18 18 18 12 18 20 20 20 16 20 22 22 23 23 21 21 21 22 21 20 21 21 19 24 24 24 -193 27 30 30 32 29 29 30 30 30 30 0 0 0 0 0
    0 0 0 0 0 0 0 0 0 0 0 0 0 0 0 0 0 0 0 0 0 0 0 0 0 0 0 0 0 0 0 0 0 0 0 0 0 0 0 0 0 0 0 0 0 0 0 0 0 0 0 0 0 0 0 0 0 0 0 0 0 0 0 0 0 0 0 0 0 11 9 10 10 10 0 0 0 0 0 0 -177 11 11 15 13 13 13 12 12 10 11 12 0 0 0 0 9 9 9 10 12 11 10 9 9 9 10 0 0 0 0 0 0 0 0 0 0 0 0 0 0 0 0 0 9 9 9 9 9 9 0 0 9 0 0 0 0 12 10 11 10 10 10 10 11 11 0 0 0 0 0 0 0 9 10 0 0 9 0 0 0 0 0 0 0 0 -193 -209 -209 -209 -209 0 -193 -209 23 16 13 15 15 -193 -193 -193 -193 -193 0 0 0 0 0 0 0 0 9 0 0 -193 11 11 11 11 -193 -193 12 13 10 12 11 11 11 10 12 12 13 12 -193 12 12 11 19 11 11 10 10 0 0 0 0 0 0 0 0 0 0 11 9 11 10 10 12 13 12 16 11 12 11 12 13 12 14 17 12 13 14 20 16 15 16 16 15 18 19 19 14 25 31 33 33 38 36 37 29 28 29 23 22 21 20 19 18 18 18 12 18 20 20 20 17 22 23 23 23 24 23 22 22 23 22 21 21 21 20 24 23 24 -193 27 30 31 33 30 30 31 31 32 31 0 0 0 0 0
    0 0 0 0 0 0 0 0 0 0 0 0 0 0 0 0 0 0 0 0 0 0 0 0 0 0 0 0 0 0 0 0 0 0 0 0 0 0 0 0 0 0 0 0 0 0 0 0 0 0 0 0 0 0 0 0 0 0 0 0 0 0 0 0 0 0 0 0 0 12 10 11 11 11 0 0 0 0 0 0 -177 12 12 16 13 13 13 13 12 10 11 11 0 0 0 0 9 9 9 9 10 10 9 9 0 0 10 0 0 0 0 0 0 0 0 0 0 0 0 0 0 0 0 0 0 0 9 9 9 0 0 0 8 0 0 0 0 12 11 11 10 10 10 11 11 12 0 0 0 0 0 0 0 9 9 0 0 0 0 0 0 0 0 0 0 0 -193 -209 -209 -209 -225 -225 12 -193 22 16 13 15 15 -193 -193 -193 -193 -193 0 0 0 0 0 0 0 0 10 -193 0 -177 11 11 11 11 -193 -193 12 13 10 12 11 11 11 10 11 12 12 11 10 11 10 9 14 10 10 9 9 0 0 0 0 0 0 0 0 0 0 12 10 12 11 11 12 13 13 16 11 12 11 12 12 12 13 17 11 12 14 20 15 15 16 16 15 19 20 21 16 27 32 33 33 38 36 38 30 29 29 23 22 21 20 18 18 18 18 12 18 20 20 20 17 22 24 23 24 24 -209 24 23 24 23 22 22 22 22 24 23 23 -193 27 30 32 33 30 30 32 32 33 31 0 0 0 0 0
    0 0 0 0 0 0 0 0 0 0 0 0 0 0 0 0 0 0 0 0 0 0 0 0 0 0 0 0 0 0 0 0 0 0 0 0 0 0 0 0 0 0 0 0 0 0 0 0 0 0 0 0 0 0 0 0 0 0 0 0 0 0 0 0 0 0 0 0 0 13 11 13 12 12 0 0 0 0 0 0 -177 12 13 17 14 13 13 13 13 10 11 12 0 0 0 0 9 9 9 9 10 9 9 0 0 0 9 0 0 0 0 0 0 0 0 0 0 0 0 0 0 0 0 0 0 0 0 0 0 0 0 0 0 0 0 0 0 12 11 11 11 10 10 11 12 12 0 0 0 9 0 0 0 0 9 0 0 0 0 0 0 0 0 0 0 0 0 -209 -209 -225 -225 -225 -193 -193 21 14 12 13 14 -193 -193 -193 -193 -193 0 0 0 0 0 0 0 0 -209 -193 -193 -177 12 11 12 11 -193 -193 12 13 10 12 11 11 11 10 11 11 11 10 9 11 9 0 13 10 10 10 9 0 0 0 0 0 0 0 0 0 0 13 10 13 12 12 13 14 14 16 12 12 10 11 12 11 12 15 10 12 13 20 15 15 16 16 15 20 21 22 18 28 34 34 34 38 37 39 31 29 29 23 22 -193 20 18 17 17 17 12 16 19 20 20 17 21 23 23 24 24 -209 25 25 25 23 23 23 23 23 23 23 23 -193 27 29 32 32 30 31 33 32 34 31 0 0 0 0 0
    0 0 0 0 0 0 0 0 0 0 0 0 0 0 0 0 0 0 0 0 0 0 0 0 0 0 0 0 0 0 0 0 0 0 0 0 0 0 0 0 0 0 0 0 0 0 0 0 0 0 0 0 0 0 0 0 0 0 0 0 0 0 0 0 0 0 0 0 0 13 11 14 13 13 0 0 0 0 0 0 -177 13 13 17 14 14 14 13 13 10 12 12 0 0 0 0 0 9 10 10 10 10 9 9 9 9 9 0 0 0 0 0 0 0 0 0 0 0 0 0 0 0 0 0 0 0 0 0 0 0 0 0 0 0 0 0 0 12 10 11 11 10 10 11 12 12 0 0 0 9 0 0 0 0 0 0 0 0 0 0 0 0 0 0 0 0 0 9 -209 -225 -225 -225 29 27 23 13 11 13 14 -193 -193 -193 -193 -193 -193 -193 -193 0 0 0 0 0 10 -209 -193 -177 12 12 13 12 -193 -193 12 13 10 12 11 11 11 10 11 11 11 10 9 10 9 0 12 9 10 9 9 0 0 0 0 0 0 0 0 0 0 14 11 14 12 12 13 14 14 16 12 12 10 12 12 12 12 15 10 11 13 20 15 14 15 16 16 20 21 22 21 29 33 34 34 38 37 38 31 30 29 23 22 -193 20 18 17 17 17 12 16 19 20 20 17 21 23 23 24 24 -209 26 26 26 24 23 24 24 24 23 23 23 -209 27 29 32 32 30 31 34 33 34 31 0 0 0 0 0
    0 0 0 0 0 0 0 0 0 0 0 0 0 0 0 0 0 0 0 0 0 0 0 0 0 0 0 0 0 0 0 0 0 0 0 0 0 0 0 0 0 0 0 0 0 0 0 0 0 0 0 0 0 0 0 0 0 0 0 0 0 0 0 0 0 0 0 0 0 13 12 14 14 13 0 0 0 0 0 0 -177 13 13 17 14 14 14 13 13 10 11 11 0 0 0 0 0 0 10 10 11 10 9 10 10 10 10 0 0 0 0 0 0 0 0 0 0 0 0 0 0 0 0 0 0 0 0 0 0 0 0 0 0 0 0 0 0 11 10 11 10 -193 -193 10 11 11 0 0 0 9 0 8 0 9 9 0 0 0 0 0 0 0 0 0 0 0 0 10 12 25 30 31 29 -193 20 11 10 13 14 -193 -193 -193 -193 -193 -193 -193 -193 0 0 0 0 0 10 -193 -193 -193 12 12 13 12 -193 -193 12 13 10 12 12 11 12 10 11 11 11 10 0 9 0 0 10 0 0 9 0 0 0 0 0 0 0 0 0 0 0 15 11 15 13 13 13 15 14 16 12 13 10 12 13 13 13 15 11 11 13 20 15 14 15 16 16 20 21 23 -193 29 34 34 35 38 37 38 32 31 29 24 23 -193 20 18 16 16 16 12 16 19 20 20 18 23 24 24 24 24 -209 27 27 27 24 24 24 25 25 23 23 23 -209 27 30 33 32 31 32 34 33 34 31 0 0 0 0 0
    0 0 0 0 0 0 0 0 0 0 0 0 0 0 0 0 0 0 0 0 0 0 0 0 0 0 0 0 0 0 0 0 0 0 0 0 0 0 0 0 0 0 0 0 0 0 0 0 0 0 0 0 0 0 0 0 0 0 0 0 0 0 0 0 0 0 0 0 0 13 12 14 14 14 0 0 0 0 0 0 -177 13 13 17 14 14 14 14 13 10 12 12 0 0 0 0 0 0 11 10 11 9 9 9 9 9 10 0 0 0 0 0 0 0 0 0 0 0 0 0 0 0 0 0 0 0 0 0 0 0 0 0 0 0 0 0 0 11 9 10 10 -193 -193 10 11 11 0 0 9 9 0 9 9 10 9 0 0 0 0 0 0 0 0 0 0 0 0 10 -177 22 29 30 -193 9 -193 9 9 12 12 -193 -193 -193 -193 -193 -193 -193 0 0 0 0 0 0 10 -193 -209 -193 12 11 13 12 -193 12 12 13 10 13 12 11 12 10 11 11 11 10 9 9 0 0 9 0 0 0 0 0 0 0 0 0 8 9 9 0 9 16 12 15 13 13 13 14 14 15 12 13 10 12 13 14 14 16 12 11 14 21 15 14 15 17 16 20 21 23 -193 30 34 35 35 38 37 39 33 32 29 24 23 22 21 19 16 16 16 12 16 20 21 21 19 24 25 25 25 24 -209 28 28 28 26 25 25 26 26 23 23 23 -209 28 31 33 32 31 31 33 32 33 31 0 0 0 0 0
    0 0 0 0 0 0 0 0 0 0 0 0 0 0 0 0 0 0 0 0 0 0 0 0 0 0 0 0 0 0 0 0 0 0 0 0 0 0 0 0 0 0 0 0 0 0 0 0 0 0 0 0 0 0 0 0 0 0 0 0 0 0 0 0 0 0 0 0 0 13 13 14 14 14 0 0 0 0 0 0 -177 13 13 17 14 14 14 14 13 10 11 11 0 0 0 0 0 0 11 10 11 9 9 9 9 9 10 0 0 0 0 0 0 0 0 -193 0 0 0 0 0 0 9 0 0 0 0 0 0 0 0 0 0 0 0 0 0 10 9 10 10 -193 -193 10 11 11 0 8 9 9 0 10 9 10 9 0 0 0 0 0 0 0 0 0 0 0 9 9 0 14 -193 -209 -193 0 -193 0 0 11 11 0 0 9 9 0 0 0 0 0 0 0 0 0 10 -209 -209 -193 12 11 12 12 -193 12 12 13 11 13 13 12 13 10 12 12 11 10 9 9 0 0 9 0 0 0 0 0 0 0 0 0 9 10 9 9 9 16 12 15 13 13 13 14 14 14 12 13 10 12 13 15 14 17 13 11 15 22 16 15 15 17 17 20 21 22 -193 29 33 34 34 37 37 39 32 31 29 24 23 22 20 19 16 16 16 12 16 20 21 21 20 25 26 27 27 25 -193 29 29 29 27 26 26 27 27 24 24 24 25 28 30 32 31 30 31 32 32 33 31 0 0 0 0 0
    0 0 0 0 0 0 0 0 0 0 0 0 0 0 0 0 0 0 0 0 0 0 0 0 0 0 0 0 0 0 0 0 0 0 0 0 0 0 0 0 0 0 0 0 0 0 0 0 0 0 0 0 0 0 0 0 0 0 0 0 0 0 0 0 0 0 0 0 0 13 13 14 14 14 0 0 0 0 0 0 -177 14 14 18 15 14 14 14 14 10 11 12 0 0 0 0 0 0 12 11 11 9 9 9 9 9 10 0 0 0 0 0 0 0 0 -193 0 0 0 0 0 0 10 0 0 0 0 0 0 0 0 0 0 0 0 0 0 11 9 10 9 -193 -193 10 10 10 0 9 9 9 0 9 9 9 9 0 0 0 0 0 0 0 0 0 0 9 10 9 0 11 18 -209 -193 0 0 0 0 10 10 0 0 9 9 0 0 0 0 0 0 0 0 0 10 -193 -177 18 11 11 12 11 13 12 12 13 11 13 13 12 13 11 12 12 12 10 10 10 9 0 9 0 0 0 0 0 0 0 0 0 10 11 10 10 10 16 12 16 13 13 13 14 13 14 13 13 11 12 14 16 14 17 14 11 16 22 16 15 15 17 17 19 21 22 -177 29 32 33 33 36 36 38 31 30 27 23 22 21 20 18 15 16 16 12 16 21 22 22 21 25 26 27 28 27 38 29 30 30 29 27 27 28 28 25 25 25 26 28 30 32 30 30 32 33 32 33 31 0 0 0 0 0
    0 0 0 0 0 0 0 0 0 0 0 0 0 0 0 0 0 0 0 0 0 0 0 0 0 0 0 0 0 0 0 0 0 0 0 0 0 0 0 0 0 0 0 0 0 0 0 0 0 0 0 0 0 0 0 0 0 0 0 0 0 0 0 0 0 0 0 0 0 13 13 14 14 14 0 0 0 0 0 -177 22 14 14 18 15 14 14 14 14 10 12 12 0 0 0 0 0 0 12 10 10 9 9 9 9 9 9 0 0 0 0 0 0 0 0 -193 0 0 9 0 9 10 12 9 9 0 0 0 0 0 0 0 0 0 0 0 0 10 0 9 9 9 -193 9 10 9 0 9 10 10 0 9 9 0 0 0 0 0 0 0 0 0 0 0 0 9 10 9 0 9 9 10 0 0 0 0 0 0 9 0 0 9 0 0 0 0 0 0 0 0 0 0 9 0 -177 18 11 10 12 11 12 12 12 12 10 13 13 12 13 11 12 12 12 10 10 10 10 0 10 0 0 0 0 0 0 0 0 0 10 12 11 11 10 16 13 16 13 13 13 14 13 14 13 13 11 13 14 17 16 18 17 12 19 22 17 16 15 17 17 19 21 22 -193 29 31 31 32 35 35 38 29 28 26 23 21 20 20 18 15 16 16 13 16 21 22 22 21 25 26 28 29 28 38 30 30 30 29 28 28 28 28 25 25 25 26 28 29 31 30 31 32 33 32 33 31 0 0 0 0 0
    0 0 0 0 0 0 0 0 0 0 0 0 0 0 0 0 0 0 0 0 0 0 0 0 0 0 0 0 0 0 0 0 0 0 0 0 0 0 0 0 0 0 0 0 0 0 0 0 0 0 0 0 0 0 0 0 0 0 0 0 0 0 0 0 0 0 0 0 0 14 13 14 14 14 0 0 0 0 0 9 22 13 13 17 14 13 14 13 13 10 12 12 0 0 9 0 0 0 12 10 10 0 0 0 9 9 9 0 0 0 0 0 0 0 0 -193 0 9 9 0 9 11 14 10 9 0 0 0 0 0 0 0 0 0 0 0 0 10 0 0 0 9 0 0 9 9 0 9 11 10 0 9 9 0 0 0 0 0 0 0 0 0 0 0 0 9 9 0 0 0 0 0 0 0 0 0 0 0 0 0 0 0 0 0 0 0 0 0 9 0 0 0 9 0 -177 17 10 9 11 10 12 11 11 12 10 12 13 11 13 10 12 11 11 10 10 10 -193 0 10 0 0 0 0 0 0 0 9 0 11 13 11 11 11 16 13 15 13 13 13 14 14 14 14 13 12 14 15 18 17 19 19 13 21 23 18 17 15 17 16 18 20 21 -193 28 30 30 30 33 33 37 28 27 24 22 20 20 19 18 15 16 16 13 16 21 22 22 21 25 25 27 28 27 37 29 30 30 29 29 28 29 28 25 26 25 26 28 29 31 29 30 32 32 32 32 31 0 0 0 0 0
    0 0 0 0 0 0 0 0 0 0 0 0 0 0 0 0 0 0 0 0 0 0 0 0 0 0 0 0 0 0 0 0 0 0 0 0 0 0 0 0 0 0 0 0 0 0 0 0 0 0 0 0 0 0 0 0 0 0 0 0 0 0 0 0 0 0 0 0 0 13 13 14 15 14 0 0 0 9 9 11 22 14 13 17 14 13 13 13 13 -193 11 12 9 9 9 0 0 0 12 10 11 0 0 0 9 9 9 0 0 0 0 0 0 0 0 -193 0 9 9 8 10 12 15 11 -193 0 0 0 0 0 0 0 0 0 0 0 0 9 0 0 0 0 0 0 0 0 0 10 12 10 9 9 9 0 0 0 0 0 0 0 0 0 0 0 0 9 9 0 0 0 0 0 0 0 0 0 0 9 0 0 0 9 9 0 9 0 0 0 9 9 9 0 10 10 9 15 9 9 10 9 11 11 11 11 10 12 13 11 13 10 12 11 11 10 10 10 10 0 10 0 0 0 0 0 0 0 9 9 11 13 11 11 11 15 13 15 13 13 13 14 14 14 16 14 13 15 15 19 18 20 20 13 22 24 19 18 15 17 16 16 19 20 -193 -193 28 28 29 32 31 37 27 27 25 22 21 20 20 18 15 16 16 13 16 21 22 22 21 24 24 25 26 25 37 29 29 29 29 -193 28 29 29 25 26 26 27 28 29 30 30 30 32 32 32 32 31 0 0 0 0 0
    0 0 0 0 0 0 0 0 0 0 0 0 0 0 0 0 0 0 0 0 0 0 0 0 0 0 0 0 0 0 0 0 0 0 0 0 0 0 0 0 0 0 0 0 0 0 0 0 0 0 0 0 0 0 0 0 0 0 0 0 0 0 0 0 0 0 0 0 0 13 -193 14 14 14 0 0 0 0 9 11 21 13 13 17 13 12 13 13 12 -193 11 11 9 10 10 9 0 0 12 10 11 9 9 9 9 9 10 0 0 0 0 0 0 0 0 -193 0 9 10 9 10 13 16 -193 -193 0 0 0 0 0 0 0 0 0 0 0 0 0 0 0 0 0 0 0 0 0 0 9 11 10 9 9 9 0 0 0 0 0 0 0 0 0 0 0 0 9 0 0 0 0 0 0 0 0 10 9 10 10 9 0 0 9 9 0 9 0 0 0 9 9 9 0 11 10 9 14 0 0 9 9 11 10 10 10 9 12 13 11 13 10 11 11 11 10 10 10 10 0 9 0 0 0 0 0 0 0 9 9 11 14 12 12 11 15 13 14 12 13 12 14 13 13 17 14 14 15 16 20 19 20 21 14 23 24 19 18 14 17 15 15 18 18 -193 -193 25 25 -209 28 25 34 27 27 25 23 21 21 20 19 15 16 16 13 15 20 21 21 20 23 22 24 26 24 36 29 29 29 29 -193 -193 29 28 26 27 27 28 28 29 31 30 30 32 32 32 32 31 0 0 0 0 0
    0 0 0 0 0 0 0 0 0 0 0 0 0 0 0 0 0 0 0 0 0 0 0 0 0 0 0 0 0 0 0 0 0 0 0 0 0 0 0 0 0 0 0 0 0 0 0 0 0 0 0 0 0 0 0 0 0 0 0 0 0 0 0 0 0 0 0 0 0 13 -193 14 14 14 0 0 0 0 9 11 21 13 12 15 12 11 12 12 12 -209 11 11 9 11 11 11 9 9 12 10 11 0 0 0 0 9 9 0 0 0 0 0 0 0 0 -193 0 9 9 9 10 12 15 10 0 0 0 0 0 0 0 0 0 0 0 0 0 0 0 0 0 0 0 0 0 0 0 9 10 10 9 9 9 0 0 0 0 0 0 0 0 0 0 0 0 0 0 0 0 0 0 0 0 0 10 10 11 11 9 0 9 9 9 0 0 0 0 0 9 0 9 0 11 11 9 12 0 0 9 9 10 9 9 10 9 12 13 11 12 10 11 11 11 10 10 9 9 0 9 0 0 0 0 9 9 0 9 9 12 14 12 12 11 14 13 13 12 12 12 14 13 13 18 15 15 16 16 20 19 21 21 15 24 24 20 19 14 17 -193 14 16 15 11 18 19 19 15 24 23 -209 26 26 26 23 21 21 21 -193 14 16 16 12 14 20 21 21 19 22 21 23 27 25 37 30 29 29 -193 -193 -193 28 28 25 26 27 28 28 29 31 30 31 32 32 31 32 31 0 0 0 0 0
    0 0 0 0 0 0 0 0 0 0 0 0 0 0 0 0 0 0 0 0 0 0 0 0 0 0 0 0 0 0 0 0 0 0 0 0 0 0 0 0 0 0 0 0 0 0 0 0 0 0 0 0 0 0 0 0 0 0 0 0 0 0 0 0 0 0 0 0 0 13 -193 -193 -193 14 0 0 0 9 11 14 20 12 12 15 11 10 11 11 11 -193 12 11 10 13 13 12 11 10 12 9 10 0 0 0 0 9 9 0 0 0 0 0 0 0 0 0 0 9 9 0 9 11 13 9 0 0 0 0 0 0 0 0 0 0 0 0 0 0 0 0 0 0 0 0 0 0 0 9 10 10 0 0 0 0 0 0 0 0 0 0 0 0 0 0 0 0 0 0 0 0 0 0 0 0 11 10 11 11 9 0 0 9 0 0 0 0 0 0 9 0 9 9 11 12 9 11 0 0 9 0 10 9 9 10 10 11 13 11 12 10 11 12 12 10 10 11 10 10 11 0 0 0 0 10 9 9 9 10 12 14 13 13 12 14 13 12 12 13 13 13 13 14 19 15 16 16 17 20 20 21 21 15 24 24 20 19 14 17 -193 14 16 15 10 14 15 15 11 20 22 -193 26 26 26 23 21 22 21 -193 14 16 16 12 14 19 20 20 19 21 20 -193 28 -193 38 33 33 34 34 -193 29 30 29 25 27 27 28 28 29 30 30 31 33 32 32 32 32 0 0 0 0 0
    0 0 0 0 0 0 0 0 0 0 0 0 0 0 0 0 0 0 0 0 0 0 0 0 0 0 0 0 0 0 0 0 0 0 0 0 0 0 0 0 0 0 0 0 0 0 0 0 0 0 0 0 0 0 0 0 0 0 0 0 0 0 0 0 0 0 0 0 0 13 -177 -193 -193 -193 0 0 9 9 12 15 20 14 14 17 12 11 12 12 12 10 13 12 11 15 15 14 13 11 13 10 11 9 0 0 0 9 9 0 0 0 0 0 0 0 0 0 0 9 9 0 9 12 13 10 0 0 0 0 0 0 0 0 0 0 0 0 0 0 0 0 0 0 0 0 0 0 0 9 9 10 0 0 0 0 0 0 0 0 0 0 0 0 0 0 0 0 0 0 0 0 0 0 9 9 11 11 11 11 10 0 0 9 0 0 0 0 0 0 9 0 9 0 10 12 9 10 0 0 9 9 10 9 9 10 10 11 12 11 12 10 11 12 12 10 11 13 11 11 11 0 0 0 9 11 9 9 10 11 12 14 14 13 12 14 13 12 12 13 14 13 13 13 19 15 16 15 16 20 19 20 21 15 23 24 20 19 14 17 -193 14 16 15 10 13 14 14 11 18 21 -193 26 26 26 23 22 22 22 -193 14 16 16 12 13 19 20 20 19 20 20 -193 -209 -193 38 37 36 39 39 37 33 34 33 28 30 29 28 28 29 30 30 32 34 34 33 34 34 0 0 0 0 0
    0 0 0 0 0 0 0 0 0 0 0 0 0 0 0 0 0 0 0 0 0 0 0 0 0 0 0 0 0 0 0 0 0 0 0 0 0 0 0 0 0 0 0 0 0 0 0 0 0 0 0 0 0 0 0 0 0 0 0 0 0 0 0 0 0 0 0 0 0 -193 -177 -193 -193 -193 0 0 -193 0 11 14 18 13 15 17 -193 -209 12 12 12 11 14 12 12 16 15 15 14 12 12 10 11 9 9 9 9 9 10 0 0 0 0 0 0 0 0 0 0 0 0 0 0 11 12 9 0 0 0 0 0 0 0 0 0 0 0 0 0 0 0 0 0 0 0 0 0 0 0 0 0 9 0 0 0 0 0 0 0 0 0 0 0 0 0 0 0 0 0 0 0 0 0 0 9 9 12 11 12 11 10 9 9 9 9 0 0 0 0 0 0 0 0 0 9 11 9 9 0 0 9 9 10 9 9 10 10 11 12 11 11 10 10 11 11 9 10 11 8 10 10 0 9 9 9 11 10 10 10 12 13 14 15 14 13 14 14 13 14 14 15 13 14 13 19 15 16 15 16 19 19 20 21 14 23 24 20 19 14 17 -193 14 16 15 10 13 14 14 11 18 21 -209 26 26 26 24 22 22 22 -193 14 16 16 13 13 19 20 20 20 21 21 -193 -193 -209 40 54 38 41 -193 -193 36 36 34 28 30 32 30 29 29 31 31 34 35 36 36 36 37 0 0 0 0 0
    0 0 0 0 0 0 0 0 0 0 0 0 0 0 0 0 0 0 0 0 0 0 0 0 0 0 0 0 0 0 0 0 0 0 0 0 0 0 0 0 0 0 0 0 0 0 0 0 0 0 0 0 0 0 0 0 0 0 0 0 0 0 0 0 0 0 0 0 0 -193 -177 -193 -193 15 -193 -209 10 0 11 13 16 -209 14 -193 -209 -209 -209 -209 -209 -209 14 11 13 16 15 15 14 12 12 10 12 10 10 10 10 10 10 0 0 0 0 0 0 0 0 0 0 0 0 0 0 10 10 0 0 0 0 0 0 0 0 0 0 0 0 0 0 0 0 0 0 0 0 0 0 0 0 0 0 9 0 0 0 0 0 0 0 0 0 0 0 0 0 0 0 0 0 0 0 0 0 0 9 9 12 11 12 12 11 10 9 9 9 0 0 0 0 0 0 0 0 0 9 10 0 9 0 0 0 9 10 9 9 9 10 11 12 10 11 10 10 10 10 0 9 9 0 0 0 0 9 9 9 12 10 11 11 13 13 15 17 15 14 15 15 14 14 15 17 14 15 15 20 16 16 15 15 19 19 20 21 15 23 24 20 19 15 17 -193 14 16 15 10 13 15 14 11 17 21 -193 25 26 26 23 22 22 22 -193 15 16 16 13 14 20 21 21 20 22 22 -193 -209 -193 41 52 39 42 42 -193 38 37 35 29 32 35 31 30 30 31 32 34 36 37 -193 38 40 0 0 0 0 0
    0 0 0 0 0 0 0 0 0 0 0 0 0 0 0 0 0 0 0 0 0 0 0 0 0 0 0 0 0 0 0 0 0 0 0 0 0 0 0 0 0 0 0 0 0 0 0 0 0 0 0 0 0 0 0 0 0 0 0 0 0 0 0 0 0 0 0 0 0 14 -193 14 15 15 -193 -209 11 0 11 13 -193 -193 -193 995 -193 -209 -209 -209 -209 -209 15 11 13 17 16 16 15 14 13 12 13 12 11 11 11 11 11 10 0 0 0 0 0 0 0 0 0 0 0 0 0 0 0 0 0 0 0 0 0 0 0 0 0 0 0 0 0 0 0 0 0 0 0 0 0 0 0 0 0 0 0 0 0 0 0 0 0 0 0 0 0 0 0 0 0 0 0 0 0 0 0 9 10 10 11 11 12 12 12 10 9 10 10 0 0 0 0 0 0 0 0 0 0 9 0 0 0 0 0 0 9 -193 9 9 10 11 12 10 10 10 9 9 9 0 0 8 0 0 0 0 9 10 10 13 11 11 11 14 13 15 18 16 15 15 15 15 15 16 17 14 15 15 20 16 16 15 15 18 18 20 21 14 22 24 20 19 15 17 14 14 16 15 10 13 14 14 12 17 21 -193 25 26 26 23 22 22 22 -193 15 17 16 12 14 21 22 22 22 23 -193 -193 -209 45 44 51 41 42 42 41 39 38 36 31 33 36 33 31 30 31 32 34 36 38 -193 39 43 0 0 0 0 0
    0 0 0 0 0 0 0 0 0 0 0 0 0 0 0 0 0 0 0 0 0 0 0 0 0 0 0 0 0 0 0 0 0 0 0 0 0 0 0 0 0 0 0 0 0 0 0 0 0 0 0 0 0 0 0 0 0 0 0 0 0 0 0 0 0 0 0 0 0 14 -193 14 15 15 9 10 12 0 10 13 -193 312 -193 993 -193 -193 -209 -209 -209 -209 -193 12 14 18 17 17 16 15 14 13 15 13 12 12 12 12 12 11 0 0 0 0 0 0 0 0 0 0 0 0 0 0 0 0 0 0 0 0 0 0 0 0 0 0 0 0 0 0 0 0 0 0 0 0 0 0 0 0 0 0 0 0 0 0 0 0 0 0 0 0 0 0 0 0 0 0 0 0 0 0 0 10 10 10 11 11 12 12 12 10 9 10 10 0 0 0 0 0 0 0 0 0 0 0 0 0 0 0 0 0 9 -193 9 9 10 11 12 10 10 10 9 9 0 0 0 0 0 0 0 9 9 10 10 14 11 11 11 15 13 15 19 16 15 16 15 15 15 16 17 14 15 14 20 16 16 14 14 18 17 19 21 14 21 24 20 19 14 17 14 14 15 15 10 13 15 14 12 17 21 -193 26 26 26 23 22 22 22 -177 17 19 18 13 17 23 -193 -209 -193 24 -209 -209 51 46 46 52 44 44 44 44 41 41 39 36 34 38 34 32 32 32 33 36 37 39 -193 42 46 0 0 0 0 0
    0 0 0 0 0 0 0 0 0 0 0 0 0 0 0 0 0 0 0 0 0 0 0 0 0 0 0 0 0 0 0 0 0 0 0 0 0 0 0 0 0 0 0 0 0 0 0 0 0 0 0 0 0 0 0 0 0 0 0 0 0 0 0 0 0 0 0 0 0 14 12 15 15 15 9 11 12 0 10 11 311 312 -193 -209 -193 -193 -193 -209 -209 -209 18 13 15 18 17 17 16 15 15 14 15 14 12 13 13 12 13 12 0 0 0 0 0 0 0 0 0 0 0 0 0 0 0 0 0 0 0 0 0 0 0 0 0 0 0 0 0 0 0 0 0 0 0 0 0 0 0 0 0 0 0 0 0 0 0 0 0 0 0 0 0 0 0 0 0 0 0 0 0 0 0 10 10 10 11 11 11 11 12 10 9 10 10 0 0 0 0 0 0 0 0 0 0 0 0 0 0 0 0 0 9 -193 9 10 10 11 12 9 10 9 0 0 0 0 0 0 0 0 0 8 0 9 9 12 10 11 11 14 13 14 19 16 16 16 16 15 15 15 17 13 14 13 19 15 15 13 14 17 17 19 20 14 20 24 20 19 14 16 14 14 15 15 10 15 19 18 17 20 22 -193 27 27 27 24 23 23 23 -177 -193 -193 21 -193 -193 27 30 30 27 33 40 48 49 46 47 51 46 46 46 45 43 42 41 41 36 40 36 35 34 34 35 38 38 43 48 47 50 0 0 0 0 0
    0 0 0 0 0 0 0 0 0 0 0 0 0 0 0 0 0 0 0 0 0 0 0 0 0 0 0 0 0 0 0 0 0 0 0 0 0 0 0 0 0 0 0 0 0 0 0 0 0 0 0 0 0 0 0 0 0 0 0 0 0 0 0 0 0 0 0 0 0 14 12 15 15 15 10 11 12 9 10 -193 -193 313 -193 -209 -193 -193 -193 -209 -209 -177 18 14 15 18 17 17 17 15 15 14 15 14 12 13 13 12 13 12 0 0 0 0 0 0 0 0 0 0 0 0 0 0 0 0 0 0 0 0 0 0 0 0 0 0 0 0 0 0 0 0 0 0 0 0 0 0 0 0 0 0 0 0 0 0 0 0 0 0 0 0 0 0 0 0 0 0 0 0 0 0 0 9 9 9 10 10 10 10 12 10 9 9 9 0 0 0 0 0 0 0 0 0 0 0 0 0 0 0 -193 0 9 -193 9 10 10 11 11 9 9 0 0 0 0 0 0 0 0 0 8 9 0 9 9 11 10 10 11 14 13 14 20 16 17 16 16 15 15 15 16 13 14 12 18 15 14 13 13 17 17 18 20 15 20 24 20 19 14 16 13 13 15 15 11 16 21 20 21 21 23 33 27 27 28 25 24 23 -193 -177 -193 -193 -193 -193 26 32 37 37 35 40 43 47 49 46 47 51 46 46 46 46 44 43 43 43 39 42 39 38 37 37 38 40 40 45 50 50 52 0 0 0 0 0
    0 0 0 0 0 0 0 0 0 0 0 0 0 0 0 0 0 0 0 0 0 0 0 0 0 0 0 0 0 0 0 0 0 0 0 0 0 0 0 0 0 0 0 0 0 0 0 0 0 0 0 0 0 0 0 0 0 0 0 0 0 0 0 0 0 0 0 0 0 13 12 14 15 15 10 12 12 9 10 -193 -193 313 -193 -209 -177 -193 -193 -209 -209 -177 18 14 15 18 17 17 16 15 15 14 15 14 12 12 12 12 13 12 9 0 0 0 0 0 0 0 0 0 0 0 0 0 0 0 0 9 0 0 0 0 0 0 0 0 0 0 0 0 0 0 0 0 0 0 0 0 0 0 0 0 0 0 0 0 0 0 0 0 0 0 0 0 0 0 0 0 0 0 0 0 0 9 8 0 9 9 9 9 12 10 9 10 10 0 0 0 0 0 0 0 0 0 0 0 0 0 0 0 -193 0 9 -193 10 10 10 10 11 0 9 0 0 0 0 0 0 10 9 9 10 10 9 9 10 11 9 10 10 13 12 13 20 16 17 16 16 16 15 16 16 13 15 12 17 15 13 12 13 17 16 18 20 15 19 24 20 19 14 16 14 14 16 16 12 18 22 22 23 23 24 33 28 28 29 26 -193 25 26 -193 -193 -193 -193 -193 30 37 39 41 39 42 44 46 47 45 46 49 45 46 46 45 44 44 44 43 41 43 41 41 40 39 41 43 43 46 51 50 52 0 0 0 0 0
    0 0 0 0 0 0 0 0 0 0 0 0 0 0 0 0 0 0 0 0 0 0 0 0 0 0 0 0 0 0 0 0 0 0 0 0 0 0 0 0 0 0 0 0 0 0 0 0 0 0 0 0 0 0 0 0 0 0 0 0 0 0 0 0 0 0 0 0 0 13 12 14 15 15 10 11 12 9 10 12 -193 313 -193 -209 -193 -193 -193 -209 -209 -177 18 14 15 18 17 17 17 15 15 14 15 14 12 12 12 12 13 12 10 9 0 0 0 0 0 0 0 0 0 0 0 0 9 9 0 10 0 0 0 0 0 0 0 0 0 0 0 0 0 0 0 0 0 0 0 0 0 0 0 0 0 0 0 0 0 0 0 0 0 0 0 0 0 0 0 0 0 0 0 0 0 0 0 0 9 9 9 9 12 10 9 10 10 0 0 0 0 0 0 0 0 0 0 0 0 0 0 0 -193 9 9 -193 10 10 10 10 11 0 0 0 0 0 0 0 0 10 10 10 10 11 9 10 10 11 9 10 10 13 11 13 20 15 17 16 16 16 15 16 16 14 15 12 17 15 13 12 12 16 15 17 20 15 17 24 21 19 14 15 14 14 16 16 14 18 23 23 24 23 25 33 29 29 32 28 -193 26 28 -193 -193 31 -193 -193 35 39 41 42 41 42 44 45 46 45 46 49 45 45 45 45 43 43 43 42 41 43 43 42 41 41 42 43 44 45 51 50 52 0 0 0 0 0
    0 0 0 0 0 0 0 0 0 0 0 0 0 0 0 0 0 0 0 0 0 0 0 0 0 0 0 0 0 0 0 0 0 0 0 0 0 0 0 0 0 0 0 0 0 0 0 0 0 0 0 0 0 0 0 0 0 0 0 0 0 0 0 0 0 0 0 0 0 13 12 14 15 15 10 11 12 9 9 11 -193 313 -193 -209 -193 -193 -209 -209 -177 -177 17 14 15 18 17 17 17 14 15 14 14 14 12 13 12 12 13 12 10 9 9 9 0 0 0 0 0 0 0 0 0 9 10 10 0 10 0 0 0 0 0 0 0 0 0 0 0 0 0 0 0 0 0 0 0 0 0 0 0 0 0 0 0 0 9 0 0 0 0 9 0 9 9 0 9 0 0 0 0 0 0 0 0 0 0 0 9 0 13 10 9 10 11 0 0 0 0 0 0 0 0 0 0 0 0 0 0 0 -193 0 0 -193 10 10 10 10 11 0 0 9 0 0 0 0 9 11 10 10 10 11 10 10 10 11 9 10 10 12 11 12 20 15 18 16 17 16 15 16 16 14 16 12 16 15 13 12 12 16 15 17 19 15 15 23 21 18 14 15 14 15 17 17 15 18 24 24 24 24 26 32 30 31 35 32 -193 29 31 32 30 36 37 35 39 41 42 43 42 44 45 46 46 45 47 48 45 44 44 44 42 42 42 41 41 42 43 43 42 42 43 44 45 44 52 51 53 0 0 0 0 0
    0 0 0 0 0 0 0 0 0 0 0 0 0 0 0 0 0 0 0 0 0 0 0 0 0 0 0 0 0 0 0 0 0 0 0 0 0 0 0 0 0 0 0 0 0 0 0 0 0 0 0 0 0 0 0 0 0 0 0 0 0 0 0 0 0 0 0 0 0 13 12 14 15 15 10 12 12 9 9 10 -193 314 -193 -209 -209 -193 -209 -209 -177 -209 16 14 14 18 17 17 17 14 15 13 14 14 12 12 12 12 13 12 10 9 9 9 0 0 0 0 0 0 0 0 0 9 10 10 9 11 9 9 9 0 0 0 0 0 0 0 0 0 0 0 0 0 0 0 0 0 0 0 0 0 0 0 0 0 10 0 0 0 0 10 9 9 9 0 10 10 10 9 0 0 0 0 0 0 0 0 0 0 12 10 9 10 11 0 0 0 0 0 0 0 0 0 0 0 0 0 0 0 -193 -193 -193 -193 10 10 10 10 11 0 9 10 9 9 10 10 10 11 11 10 10 11 10 10 10 11 9 10 10 11 11 12 20 15 18 16 17 16 16 16 17 14 16 13 16 15 13 13 13 16 15 17 18 15 15 22 21 17 14 15 15 16 18 18 17 18 25 25 25 25 27 32 31 33 37 36 34 32 35 36 35 38 40 38 41 42 43 45 43 45 46 46 46 45 46 47 44 44 44 44 42 42 42 42 42 43 44 43 43 43 44 44 46 44 53 51 53 0 0 0 0 0
    0 0 0 0 0 0 0 0 0 0 0 0 0 0 0 0 0 0 0 0 0 0 0 0 0 0 0 0 0 0 0 0 0 0 0 0 0 0 0 0 0 0 0 0 0 0 0 0 0 0 0 0 0 0 0 0 0 0 0 0 0 0 0 0 0 0 0 0 0 12 12 14 14 14 10 12 12 9 9 11 12 314 -193 -209 -209 -177 -193 -193 -209 -209 17 13 14 18 17 17 17 14 16 13 14 14 12 12 12 12 13 12 10 10 9 9 0 0 0 0 0 0 0 0 0 9 10 10 9 11 9 9 9 0 0 0 0 0 0 0 0 0 0 0 0 0 0 0 0 0 0 0 0 0 0 0 0 0 10 0 0 0 0 10 10 9 9 0 10 10 10 9 0 0 0 0 0 0 0 0 0 0 11 10 9 10 11 9 0 0 0 0 0 0 0 0 0 0 0 0 0 0 -209 -193 -193 -193 10 10 10 9 11 0 10 12 12 12 14 13 13 13 11 11 11 11 10 10 10 10 9 9 10 10 10 11 19 14 18 15 16 16 16 16 16 14 16 12 15 15 13 13 13 16 15 17 19 16 14 21 21 17 14 15 16 17 19 19 19 20 26 27 27 27 28 32 34 35 39 38 37 36 37 38 38 39 41 39 42 43 44 46 44 45 46 46 46 45 46 47 45 45 46 45 43 43 44 43 43 44 44 44 43 44 45 45 47 43 54 51 53 0 0 0 0 0
    0 0 0 0 0 0 0 0 0 0 0 0 0 0 0 0 0 0 0 0 0 0 0 0 0 0 0 0 0 0 0 0 0 0 0 0 0 0 0 0 0 0 0 0 0 0 0 0 0 0 0 0 0 0 0 0 0 0 0 0 0 0 0 0 0 0 0 0 0 12 12 13 14 14 9 11 12 10 9 11 13 -209 -193 -209 -209 -177 -177 -177 -209 -209 16 13 14 18 17 17 16 14 15 12 13 13 11 12 12 12 13 12 11 10 10 10 0 0 0 0 0 0 0 0 9 10 11 10 10 11 0 8 0 0 0 0 0 0 0 0 0 0 0 0 0 0 0 0 0 0 0 0 0 0 0 0 0 0 10 0 0 0 0 11 10 10 9 0 10 10 10 9 0 0 0 0 0 0 0 0 0 0 11 10 9 10 11 9 9 0 0 0 0 0 0 0 0 0 0 0 0 0 9 -193 -193 -193 10 10 10 9 10 9 12 14 16 17 19 18 18 15 13 11 12 11 10 10 10 10 0 9 9 9 9 10 19 13 17 15 16 17 16 17 16 14 16 12 14 15 13 14 13 16 16 17 19 17 15 20 21 16 14 15 16 18 20 20 21 21 26 28 28 29 29 33 36 37 40 39 39 38 38 40 39 41 42 40 43 43 44 46 44 45 45 45 46 44 46 47 45 46 47 46 44 46 48 45 45 45 45 44 44 45 45 45 48 42 53 50 52 0 0 0 0 0
    0 0 0 0 0 0 0 0 0 0 0 0 0 0 0 0 0 0 0 0 0 0 0 0 0 0 0 0 0 0 0 0 0 0 0 0 0 0 0 0 0 0 0 0 0 0 0 0 0 0 0 0 0 0 0 0 0 0 0 0 0 0 0 0 0 0 0 0 0 12 11 13 14 14 9 10 11 10 9 11 13 -193 -193 -209 -209 -193 -193 -193 -209 9 15 14 14 18 17 17 16 14 15 12 13 13 11 12 12 12 13 12 12 11 12 12 9 9 0 0 0 0 9 9 10 11 12 11 10 11 0 0 0 0 0 0 0 0 0 0 0 0 0 0 0 0 0 0 0 0 0 0 0 0 0 0 0 0 11 0 0 0 0 11 10 10 9 0 10 10 10 9 0 0 0 0 0 0 0 0 0 0 11 10 -193 10 10 -193 9 0 0 0 0 0 0 0 0 0 0 0 0 0 9 -193 -193 -193 10 10 9 0 9 9 13 18 21 22 23 22 22 18 14 12 12 11 10 9 10 10 0 9 9 0 9 9 18 13 17 15 16 17 16 17 16 14 16 13 14 15 14 14 14 16 16 17 19 17 15 19 21 16 15 15 17 18 21 21 21 21 27 29 29 30 30 33 36 37 40 39 39 38 39 40 40 41 42 41 43 43 44 46 43 44 44 45 45 44 45 47 44 46 46 45 44 47 48 45 46 46 46 45 45 45 45 45 48 42 51 48 51 0 0 0 0 0
    0 0 0 0 0 0 0 0 0 0 0 0 0 0 0 0 0 0 0 0 0 0 0 0 0 0 0 0 0 0 0 0 0 0 0 0 0 0 0 0 0 0 0 0 0 0 0 0 0 0 0 0 0 0 0 0 0 0 0 0 0 0 0 0 0 0 0 0 0 12 11 13 13 13 0 10 11 9 9 11 12 10 11 9 -193 -193 -193 -209 -209 9 15 14 14 18 17 17 17 14 15 12 13 12 11 12 12 12 14 13 13 13 14 14 10 9 0 0 0 0 9 0 10 11 12 12 11 11 0 0 0 0 0 0 0 0 0 0 0 0 0 0 0 0 0 0 0 0 0 0 0 0 0 0 0 0 11 0 0 9 9 11 10 10 9 0 9 10 9 0 0 0 0 0 0 0 0 0 0 0 -193 -193 -193 10 11 -193 10 9 9 0 0 0 0 0 0 0 0 0 -209 9 10 -193 -193 0 10 10 10 0 9 10 15 22 24 24 26 24 24 20 16 12 12 11 10 10 11 10 9 10 10 9 9 9 18 13 16 15 16 17 17 18 17 14 17 14 14 16 15 15 15 17 17 18 19 18 16 19 21 16 15 15 17 19 21 21 22 -193 27 29 29 30 29 33 36 37 40 40 40 39 39 41 41 41 43 41 43 43 44 46 43 44 44 45 45 44 45 46 44 45 46 44 44 47 49 45 46 46 46 45 45 45 46 45 48 42 50 47 50 0 0 0 0 0
    0 0 0 0 0 0 0 0 0 0 0 0 0 0 0 0 0 0 0 0 0 0 0 0 0 0 0 0 0 0 0 0 0 0 0 0 0 0 0 0 0 0 0 0 0 0 0 0 0 0 0 0 0 0 0 0 0 0 0 0 0 0 0 0 0 0 0 0 0 12 11 13 13 13 0 10 10 9 0 10 12 10 11 10 -193 -193 -209 -209 -209 9 14 14 14 17 17 16 16 14 15 12 13 12 11 13 13 14 16 15 16 16 17 16 9 0 0 0 0 0 0 0 10 12 13 12 11 12 0 0 0 0 0 0 0 0 0 0 0 0 0 0 0 0 0 0 0 0 0 0 0 0 0 9 9 0 13 0 9 9 9 11 10 10 9 0 9 9 9 0 0 0 0 0 0 0 0 0 0 0 -193 -193 -193 -193 -193 -193 10 10 10 0 0 0 0 0 0 0 0 0 -209 9 10 9 -193 0 9 10 9 0 9 10 17 24 26 26 28 27 28 22 19 13 12 11 10 10 11 10 9 10 10 9 9 9 17 13 16 15 15 17 17 18 17 14 17 15 14 16 15 16 16 17 17 18 19 18 16 18 21 15 15 15 18 19 21 22 22 -177 27 29 29 31 30 34 37 37 41 40 41 40 40 41 41 -193 43 41 43 43 44 46 43 44 44 44 45 43 44 46 44 45 46 44 44 47 48 45 46 46 46 45 45 45 45 45 47 42 48 46 49 0 0 0 0 0
    0 0 0 0 0 0 0 0 0 0 0 0 0 0 0 0 0 0 0 0 0 0 0 0 0 0 0 0 0 0 0 0 0 0 0 0 0 0 0 0 0 0 0 0 0 0 0 0 0 0 0 0 0 0 0 0 0 0 0 0 0 0 0 0 0 0 0 0 0 13 11 13 13 12 0 10 10 9 0 9 11 9 10 10 9 -193 -209 -209 -193 10 14 15 14 17 16 16 16 14 14 12 13 13 12 15 16 16 18 -193 -193 -193 20 19 9 0 0 0 0 0 0 0 9 11 12 11 10 11 0 0 0 0 0 0 0 0 0 0 0 0 0 0 0 0 0 0 0 0 0 0 0 9 9 10 10 10 14 9 9 9 9 10 10 10 9 0 9 9 9 0 0 0 0 0 0 0 0 0 0 0 -193 -193 395 -193 -193 -193 11 11 11 0 0 0 0 0 0 0 0 0 -193 9 10 9 9 0 9 9 9 0 9 11 19 26 27 28 31 32 31 -193 -193 -193 12 12 10 10 11 10 9 10 10 9 10 9 17 13 15 15 15 17 17 19 17 14 17 15 14 16 16 16 16 18 18 18 20 18 17 18 21 15 16 16 18 19 22 22 22 -177 27 29 29 31 30 34 38 38 42 40 41 40 -193 41 41 -193 43 41 43 42 43 45 43 44 44 44 45 43 44 46 44 45 46 44 44 47 48 45 46 46 46 45 45 45 45 45 47 42 48 47 49 0 0 0 0 0
    0 0 0 0 0 0 0 0 0 0 0 0 0 0 0 0 0 0 0 0 0 0 0 0 0 0 0 0 0 0 0 0 0 0 0 0 0 0 0 0 0 0 0 0 0 0 0 0 0 0 0 0 0 0 0 0 0 0 0 0 0 0 0 0 0 0 0 0 0 13 11 12 13 12 0 10 10 9 0 9 10 0 9 9 0 -193 -209 -193 10 10 13 15 14 16 16 15 15 13 14 12 12 12 12 15 17 17 -193 -177 -177 -193 -193 -193 -209 0 0 0 0 0 0 0 9 10 10 9 9 10 0 0 0 0 0 0 0 0 0 0 0 0 0 0 0 0 0 0 0 0 0 0 0 9 9 10 10 10 14 9 9 9 9 10 10 10 9 0 10 11 10 9 0 0 0 0 0 0 0 0 0 0 -193 -193 395 -193 -193 11 12 12 11 9 9 9 9 10 0 0 0 0 -193 10 11 9 9 9 9 10 10 9 11 13 22 27 29 31 34 35 34 -193 -193 -193 12 11 10 10 11 10 9 10 10 9 9 9 17 13 15 15 15 17 17 19 17 14 18 16 14 16 16 17 17 18 18 18 20 19 17 18 21 15 16 16 18 19 22 22 23 -177 -193 29 29 31 30 35 38 37 41 40 40 40 -193 41 41 -193 42 40 43 42 43 45 43 44 44 45 45 44 45 46 44 45 46 44 43 46 48 45 46 46 46 46 45 45 45 45 47 43 48 47 -193 0 0 0 0 0
    0 0 0 0 0 0 0 0 0 0 0 0 0 0 0 0 0 0 0 0 0 0 0 0 0 0 0 0 0 0 0 0 0 0 0 0 0 0 0 0 0 0 0 0 0 0 0 0 0 0 0 0 0 0 0 0 0 0 0 0 0 0 0 0 0 0 0 0 0 13 11 12 13 12 0 9 10 0 0 0 9 0 9 9 9 0 9 9 10 10 12 16 14 15 15 14 15 13 13 12 12 12 12 16 18 19 -193 -177 -177 -177 -193 -177 731 -193 0 0 0 0 0 0 9 10 10 9 9 9 0 0 0 0 0 0 0 0 0 0 0 0 0 0 0 0 0 0 0 0 0 0 0 0 9 10 10 10 13 0 0 0 0 10 10 9 9 0 10 11 11 11 0 0 0 0 0 0 0 0 0 0 -193 -193 -193 -193 -193 11 12 12 11 9 10 15 15 15 10 0 0 9 -193 10 11 10 9 9 9 10 11 10 13 18 24 29 32 34 36 37 35 31 -209 -193 13 12 10 10 11 10 10 11 11 10 10 10 17 13 15 15 15 17 17 19 17 14 18 17 14 17 16 17 17 19 19 19 20 19 18 19 21 15 16 16 19 19 22 22 -193 -177 28 31 31 33 31 36 37 37 40 39 39 39 39 41 -193 -209 -193 -193 42 42 42 44 43 43 44 45 45 43 45 46 44 45 46 43 43 46 47 45 46 46 46 46 45 45 45 45 46 43 48 47 -193 0 0 0 0 0
    0 0 0 0 0 0 0 0 0 0 0 0 0 0 0 0 0 0 0 0 0 0 0 0 0 0 0 0 0 0 0 0 0 0 0 0 0 0 0 0 0 0 0 0 0 0 0 0 0 0 0 0 0 0 0 0 0 0 0 0 0 0 0 0 0 0 0 0 0 13 11 12 12 11 0 9 10 0 0 0 9 0 9 10 10 9 10 10 11 11 12 17 14 14 15 14 15 13 13 13 12 14 14 18 20 21 -193 -177 -193 -209 27 -209 731 -193 -193 0 0 0 0 0 9 11 11 10 9 9 0 0 0 0 0 0 0 0 0 0 0 0 0 9 9 9 0 0 0 0 0 0 0 0 9 10 10 10 12 0 9 0 9 10 10 10 9 0 10 12 13 12 0 0 0 0 0 0 0 0 0 -193 -193 11 10 10 10 11 12 12 12 11 14 24 24 23 18 13 10 11 11 10 12 10 10 9 9 10 12 11 16 20 25 31 32 34 36 36 34 30 -209 -209 14 13 11 11 12 9 10 11 11 11 11 10 17 13 14 16 15 17 17 19 17 14 18 17 14 17 16 17 17 19 19 19 20 20 19 19 21 15 16 16 19 19 22 23 -193 -177 28 31 32 33 31 36 37 37 40 39 39 39 39 40 -193 -177 -193 -193 42 42 42 44 42 43 43 44 44 43 44 45 43 45 45 43 43 45 47 45 46 46 46 46 45 45 45 44 46 43 48 48 -193 0 0 0 0 0
    0 0 0 0 0 0 0 0 0 0 0 0 0 0 0 0 0 0 0 0 0 0 0 0 0 0 0 0 0 0 0 0 0 0 0 0 0 0 0 0 0 0 0 0 0 0 0 0 0 0 0 0 0 0 0 0 0 0 0 0 0 0 0 0 0 0 0 0 0 13 11 12 12 11 0 9 10 0 0 0 0 0 9 10 10 9 10 10 11 11 12 18 14 15 16 15 16 14 14 15 14 16 17 21 23 24 26 29 31 29 28 29 -209 -193 0 0 0 0 0 0 10 12 12 11 10 10 9 0 0 0 0 0 0 0 0 0 0 0 10 10 10 9 0 0 0 9 0 0 0 0 9 10 10 10 11 0 9 9 9 10 10 10 9 9 11 14 15 14 11 -193 -209 -209 -209 -193 -209 -209 -209 -209 -193 14 11 11 11 12 14 15 14 14 21 27 30 28 23 20 13 12 12 10 12 10 10 10 9 11 13 13 22 22 26 32 33 34 36 36 33 31 -209 -209 15 14 11 11 12 9 10 11 11 11 12 11 17 13 14 16 15 16 16 19 17 14 18 18 14 17 17 18 18 20 20 19 21 20 19 19 21 15 16 16 19 19 22 22 -193 -193 28 31 32 33 31 35 37 37 39 38 39 39 39 40 -193 -177 -193 39 42 42 41 43 42 42 43 43 44 43 44 45 43 44 45 43 43 45 48 45 46 46 46 46 45 45 45 44 46 43 48 48 -193 0 0 0 0 0
    0 0 0 0 0 0 0 0 0 0 0 0 0 0 0 0 0 0 0 0 0 0 0 0 0 0 0 0 0 0 0 0 0 0 0 0 0 0 0 0 0 0 0 0 0 0 0 0 0 0 0 0 0 0 0 0 0 0 0 0 0 0 0 0 0 0 0 0 0 13 11 12 12 11 0 9 10 0 0 0 0 0 9 10 10 10 10 10 12 12 12 18 15 14 16 16 16 14 16 17 15 19 21 24 26 26 28 31 33 32 30 29 13 9 0 0 0 0 0 0 11 13 12 12 11 11 10 0 0 0 0 0 0 0 0 0 9 9 13 11 12 12 10 -193 -193 10 9 0 0 0 9 10 10 11 12 10 10 10 10 11 11 12 11 10 13 19 20 20 18 27 31 32 33 33 32 27 -193 -209 -209 19 13 12 12 13 15 18 17 18 24 29 35 33 31 -193 14 13 -193 10 12 10 10 10 9 11 15 16 25 25 28 34 34 35 37 37 35 34 39 -177 -193 -193 -193 11 12 9 10 11 12 12 12 11 17 14 14 16 15 16 16 19 17 14 19 18 15 18 17 18 18 20 20 19 21 20 20 20 21 15 16 16 19 19 21 22 -193 -177 28 31 32 32 31 35 36 36 38 37 38 38 39 40 40 -193 41 39 42 42 41 43 42 42 43 43 44 42 43 44 43 44 44 42 43 45 48 45 46 46 46 46 46 45 45 45 46 44 47 49 -193 0 0 0 0 0
    0 0 0 0 0 0 0 0 0 0 0 0 0 0 0 0 0 0 0 0 0 0 0 0 0 0 0 0 0 0 0 0 0 0 0 0 0 0 0 0 0 0 0 0 0 0 0 0 0 0 0 0 0 0 0 0 0 0 0 0 0 0 0 0 0 0 0 0 0 13 11 12 12 11 0 9 10 0 0 0 0 9 9 10 11 10 10 11 12 12 12 18 14 14 16 16 17 15 17 19 17 22 24 25 28 28 30 32 34 34 30 29 12 9 10 0 0 9 9 9 11 13 13 12 11 12 11 10 10 11 0 0 0 0 0 12 9 10 16 12 14 14 12 -193 -193 12 10 0 9 0 9 10 9 11 12 10 11 11 11 14 14 16 15 13 19 24 24 25 25 29 34 35 34 34 34 30 28 27 26 22 15 14 13 14 17 20 20 21 27 33 37 36 38 -209 -193 13 -209 9 12 10 10 10 10 12 -193 22 28 28 29 34 34 34 36 36 35 33 37 -209 -193 18 15 12 13 10 10 11 13 12 12 11 16 13 14 16 15 16 16 19 17 15 19 19 15 18 18 19 19 21 20 20 22 21 20 20 21 15 17 17 19 19 21 22 -193 -177 28 31 32 32 30 35 36 36 38 37 38 38 39 39 39 40 41 39 42 42 41 43 42 43 44 43 44 42 43 44 43 44 44 42 43 45 47 46 46 46 46 46 46 45 45 45 46 44 47 49 50 0 0 0 0 0
    0 0 0 0 0 0 0 0 0 0 0 0 0 0 0 0 0 0 0 0 0 0 0 0 0 0 0 0 0 0 0 0 0 0 0 0 0 0 0 0 0 0 0 0 0 0 0 0 0 0 0 0 0 0 0 0 0 0 0 0 0 0 0 0 0 0 0 0 0 13 11 12 12 12 0 9 10 0 0 0 0 9 9 10 11 10 11 11 13 12 11 18 14 14 16 16 18 16 19 20 19 24 25 26 29 28 29 31 33 33 30 29 -193 0 10 0 0 10 10 10 12 14 14 14 12 13 14 13 15 18 19 13 10 20 17 20 12 14 21 15 17 19 -193 -193 -193 -193 12 9 10 9 9 10 0 10 11 0 12 14 14 21 21 23 24 -193 23 26 26 28 27 31 35 37 35 35 35 32 30 29 28 25 18 17 16 17 20 22 23 23 29 35 38 38 39 -209 -193 -193 -209 -209 11 -209 -209 -193 11 15 -193 -193 31 33 33 36 36 35 36 36 35 33 36 -209 -193 21 19 14 13 10 10 11 13 12 12 11 17 14 14 17 15 16 17 19 18 15 19 19 16 19 19 19 19 21 20 20 22 21 20 20 21 15 17 17 19 19 21 22 -193 -177 28 31 33 33 31 36 37 37 38 37 38 38 39 39 39 40 40 40 42 42 42 43 43 43 44 44 44 43 44 44 44 44 45 43 44 45 47 46 46 46 46 46 46 45 45 45 46 45 47 50 50 0 0 0 0 0
    0 0 0 0 0 0 0 0 0 0 0 0 0 0 0 0 0 0 0 0 0 0 0 0 0 0 0 0 0 0 0 0 0 0 0 0 0 0 0 0 0 0 0 0 0 0 0 0 0 0 0 0 0 0 0 0 0 0 0 0 0 0 0 0 0 0 0 0 0 12 10 11 12 11 0 9 10 0 0 0 9 10 9 10 12 11 11 12 13 12 12 19 15 14 -193 17 -193 -193 20 22 21 25 26 28 29 28 29 33 35 34 32 30 -193 23 -193 11 12 13 12 12 13 17 16 16 14 14 17 -193 -193 -193 -193 25 18 26 25 25 18 20 24 19 20 22 -193 -193 -193 -193 13 10 11 10 9 10 0 10 12 -193 20 25 25 26 26 26 27 26 25 27 27 30 29 32 35 37 35 36 36 35 32 32 31 28 22 21 20 21 23 25 25 26 32 36 38 38 -193 -209 -193 -193 -209 -177 -209 -209 -209 -193 -193 21 -193 31 34 35 34 35 36 35 36 35 35 33 35 33 -193 25 22 16 14 10 10 11 14 13 12 11 17 14 15 17 16 16 17 20 18 16 20 19 16 19 19 19 20 21 21 20 22 21 21 21 22 16 18 18 19 20 22 23 -193 -177 28 32 33 33 31 36 37 37 37 36 37 38 38 38 38 39 40 39 42 42 41 43 43 43 45 44 44 43 44 44 45 44 45 43 44 46 47 47 46 46 47 47 46 46 46 46 47 46 47 50 49 0 0 0 0 0
    0 0 0 0 0 0 0 0 0 0 0 0 0 0 0 0 0 0 0 0 0 0 0 0 0 0 0 0 0 0 0 0 0 0 0 0 0 0 0 0 0 0 0 0 0 0 0 0 0 0 0 0 0 0 0 0 0 0 0 0 0 0 0 0 0 0 0 0 0 12 10 11 12 12 0 10 10 0 0 0 10 11 10 11 12 11 12 12 14 12 12 19 15 15 -193 18 -193 -193 22 23 23 27 29 29 30 28 31 34 36 35 33 30 27 26 27 25 21 18 16 16 17 20 19 19 16 17 -193 -193 -193 -193 -193 28 25 27 27 26 24 24 29 23 23 -193 -193 -193 -193 -193 13 10 11 10 9 9 0 10 13 -193 26 28 27 28 29 29 29 28 27 28 28 32 30 32 35 37 36 36 37 36 34 34 33 31 25 24 24 24 25 27 28 28 34 37 38 38 -209 -209 -209 -193 -209 -193 -209 -209 -209 -193 -209 -209 36 37 37 38 37 37 37 37 37 36 37 35 36 35 30 29 26 20 17 10 10 11 14 13 12 12 17 14 15 17 16 16 18 20 19 17 20 20 17 20 20 20 20 21 21 21 23 22 21 21 22 17 18 18 20 20 22 -193 -193 -177 29 33 34 34 31 36 37 37 37 36 36 37 38 38 38 39 39 39 42 41 41 42 43 43 45 44 44 43 44 44 45 44 45 43 44 46 48 47 47 47 48 48 47 47 47 47 48 48 48 51 49 0 0 0 0 0
    0 0 0 0 0 0 0 0 0 0 0 0 0 0 0 0 0 0 0 0 0 0 0 0 0 0 0 0 0 0 0 0 0 0 0 0 0 0 0 0 0 0 0 0 0 0 0 0 0 0 0 0 0 0 0 0 0 0 0 0 0 0 0 0 0 0 0 0 0 12 11 11 12 12 0 10 11 0 0 0 11 12 10 11 12 11 12 13 14 12 12 18 15 -193 -193 20 -193 -193 -193 25 26 29 31 32 31 30 33 35 35 35 33 30 28 29 28 27 24 22 20 21 20 22 21 22 -193 -193 -193 -193 -193 -193 29 29 26 28 28 28 27 27 33 28 25 28 -177 -193 -193 -193 12 9 10 9 0 0 0 9 13 26 29 31 30 31 31 31 32 30 29 29 29 34 32 34 35 37 36 37 37 37 36 36 35 33 27 26 26 25 27 29 30 30 36 37 37 37 38 -209 -177 -209 -209 -209 -193 -193 -209 -209 -209 -209 40 40 39 39 38 37 37 36 37 36 36 35 36 36 33 33 32 24 20 10 9 11 14 13 13 12 17 14 16 18 17 16 18 20 19 17 21 20 18 20 20 20 20 22 21 21 23 22 21 21 22 17 18 19 20 21 22 -193 -193 -177 29 33 35 34 32 36 37 36 36 36 36 36 37 37 37 38 38 39 41 41 41 42 43 43 44 44 43 43 44 44 45 44 44 43 44 46 47 47 47 47 49 50 49 49 48 48 49 49 48 50 47 0 0 0 0 0
    0 0 0 0 0 0 0 0 0 0 0 0 0 0 0 0 0 0 0 0 0 0 0 0 0 0 0 0 0 0 0 0 0 0 0 0 0 0 0 0 0 0 0 0 0 0 0 0 0 0 0 0 0 0 0 0 0 0 0 0 0 0 0 0 0 0 0 0 0 12 11 12 13 13 0 11 14 9 0 9 12 13 10 11 13 12 13 14 16 13 12 19 16 -193 -193 21 -193 -193 26 28 30 32 34 34 34 32 36 36 36 36 34 31 29 30 29 27 25 24 22 23 23 24 25 28 -209 -209 -193 -193 32 30 30 29 28 29 28 29 29 30 35 33 29 31 -193 -193 -209 -193 12 9 9 0 0 0 0 9 -209 28 33 35 34 35 35 35 34 33 32 31 31 35 34 35 36 38 37 38 39 38 37 37 37 36 31 32 30 29 30 32 33 33 36 37 36 36 36 -209 -209 -209 -209 -177 -193 -193 -209 -193 -177 -193 43 42 39 39 38 37 37 37 37 37 37 37 38 39 36 37 38 -193 -193 10 0 10 15 13 12 12 17 14 16 18 18 17 19 21 20 19 22 21 19 21 21 21 21 22 22 22 24 22 22 22 23 18 19 19 21 22 23 -193 -177 -177 29 32 35 34 32 35 37 36 35 36 37 35 37 37 36 37 38 39 41 40 41 42 43 43 44 43 43 43 43 43 44 43 44 43 44 46 47 47 47 48 49 50 49 50 49 49 50 50 47 51 46 0 0 0 0 0
    0 0 0 0 0 0 0 0 0 0 0 0 0 0 0 0 0 0 0 0 0 0 0 0 0 0 0 0 0 0 0 0 0 0 0 0 0 0 0 0 0 0 0 0 0 0 0 0 0 0 0 0 0 0 0 0 0 0 0 0 0 0 0 0 0 0 0 0 0 12 12 12 14 14 9 14 19 12 11 11 14 14 11 12 14 13 14 16 18 14 14 20 18 -193 -209 22 -193 -193 28 32 32 34 36 35 35 34 36 36 36 36 35 31 30 31 30 28 25 24 23 25 26 29 34 33 36 38 36 34 33 31 30 30 29 30 28 29 30 33 36 36 33 34 -193 29 -193 -209 -209 9 9 0 0 0 0 -177 -209 29 35 37 37 37 38 37 37 36 36 34 33 36 35 35 36 38 37 39 40 39 38 38 38 37 33 34 33 30 32 33 34 34 35 37 35 35 35 29 -209 -209 -209 -193 -177 -193 -193 -209 -177 501 -193 42 40 39 38 37 37 37 37 37 38 37 38 40 38 39 40 -193 -193 9 0 10 14 13 12 12 18 14 17 20 19 18 20 22 21 20 23 22 21 23 23 22 23 24 23 24 26 24 23 23 24 19 20 21 21 22 -193 -193 158 159 29 32 34 34 32 36 37 37 36 36 37 36 36 36 35 36 38 39 40 40 41 41 43 43 44 43 42 42 43 43 44 43 44 43 44 46 47 47 47 48 49 51 50 50 50 50 50 50 47 51 46 0 0 0 0 0
    0 0 0 0 0 0 0 0 0 0 0 0 0 0 0 0 0 0 0 0 0 0 0 0 0 0 0 0 0 0 0 0 0 0 0 0 0 0 0 0 0 0 0 0 0 0 0 0 0 0 0 0 0 0 0 0 0 0 0 0 0 0 0 0 0 0 0 0 0 13 12 13 14 15 10 16 21 14 14 13 17 15 12 13 15 14 15 17 19 14 15 20 19 -193 -209 23 -193 -193 31 35 34 35 36 36 36 35 37 37 37 37 36 33 32 33 30 28 25 24 24 26 28 32 36 35 38 39 37 36 34 33 31 31 30 31 29 29 32 34 36 37 35 36 -193 30 -193 -209 -209 0 9 0 0 0 0 9 -209 31 35 37 37 38 38 38 37 37 36 34 32 35 34 35 35 37 37 38 40 40 38 38 38 38 35 35 35 -193 35 36 35 35 36 37 35 35 35 31 -209 -209 -177 -209 -209 -209 -209 -193 -177 -177 -193 42 40 39 38 38 38 38 38 38 39 38 39 41 40 40 40 41 -193 -209 -209 11 17 14 13 13 19 16 18 21 20 19 22 24 23 -193 25 24 24 25 26 25 25 25 24 26 28 25 24 24 26 21 22 22 23 23 24 -193 158 159 29 33 34 35 34 38 39 38 37 37 37 37 36 36 33 34 36 39 39 39 40 41 42 42 44 43 42 42 43 43 44 43 44 43 44 46 47 47 47 48 50 51 50 51 51 51 51 51 47 51 46 0 0 0 0 0
    0 0 0 0 0 0 0 0 0 0 0 0 0 0 0 0 0 0 0 0 0 0 0 0 0 0 0 0 0 0 0 0 0 0 0 0 0 0 0 0 0 0 0 0 0 0 0 0 0 0 0 0 0 0 0 0 0 0 0 0 0 0 0 0 0 0 0 0 0 13 13 13 15 16 10 17 23 16 18 16 19 15 12 13 15 14 16 17 19 15 16 21 20 -193 -209 -193 34 31 34 35 36 36 37 37 37 36 38 38 38 37 37 34 34 35 31 28 25 24 24 26 28 34 36 36 39 39 38 37 35 35 32 32 31 31 29 29 33 35 37 37 36 37 -193 -193 -193 -193 -193 -209 -193 -193 0 0 0 -209 -209 32 35 37 37 38 38 38 37 37 36 35 33 34 34 34 35 37 38 39 40 40 39 39 39 39 38 36 36 -193 36 37 35 36 36 37 34 34 34 32 33 -209 -209 -209 -209 -209 -209 -193 -177 -177 503 -193 39 39 38 37 37 37 37 38 38 37 38 40 39 39 40 40 -193 38 41 12 19 16 16 16 22 19 21 22 22 22 25 25 25 25 26 27 27 28 31 30 29 27 -193 28 30 27 24 24 26 23 24 24 25 25 25 27 -193 -193 31 36 37 38 39 40 40 39 37 37 37 36 36 36 34 35 36 39 39 39 41 41 42 42 43 43 42 42 42 43 44 43 44 43 44 46 46 47 47 48 50 52 51 51 51 51 51 51 48 51 47 0 0 0 0 0
    0 0 0 0 0 0 0 0 0 0 0 0 0 0 0 0 0 0 0 0 0 0 0 0 0 0 0 0 0 0 0 0 0 0 0 0 0 0 0 0 0 0 0 0 0 0 0 0 0 0 0 0 0 0 0 0 0 0 0 0 0 0 0 0 0 0 0 0 0 13 13 13 15 16 11 19 23 19 22 20 20 17 13 15 17 16 18 19 20 17 19 22 23 -209 -209 28 37 34 35 36 37 37 37 37 36 36 38 38 38 37 37 35 35 36 33 28 25 24 25 27 31 36 37 37 40 40 -177 38 36 35 32 31 30 30 28 29 33 36 36 37 36 37 304 305 -177 -177 -177 -209 -209 -193 -193 -193 0 -209 -209 33 36 38 38 38 39 39 38 38 37 36 35 34 34 34 34 37 39 40 41 41 40 40 40 40 41 37 37 -193 36 37 35 36 35 36 34 34 33 32 -193 -209 -193 317 -209 -209 -193 -193 -177 -177 -177 -209 39 39 39 38 38 38 38 38 38 38 38 40 40 40 40 41 40 41 42 42 26 23 25 24 29 25 27 26 27 28 30 29 30 28 29 31 33 34 37 38 39 -209 -209 -193 -209 -209 28 27 31 31 31 32 33 33 33 34 -193 -209 37 39 40 42 42 42 39 38 36 34 35 34 34 35 33 35 36 39 39 39 41 41 42 42 43 43 42 42 42 42 43 43 44 43 43 46 46 47 47 48 50 52 51 51 51 51 51 51 48 51 47 0 0 0 0 0
    0 0 0 0 0 0 0 0 0 0 0 0 0 0 0 0 0 0 0 0 0 0 0 0 0 0 0 0 0 0 0 0 0 0 0 0 0 0 0 0 0 0 0 0 0 0 0 0 0 0 0 0 0 0 0 0 0 0 0 0 0 0 0 0 0 0 0 0 0 14 14 14 17 18 12 21 24 22 24 23 22 19 16 17 18 18 20 20 22 20 23 25 26 -209 -193 32 38 33 35 36 36 36 36 36 36 36 38 38 38 37 36 35 35 35 31 27 25 23 24 27 33 -193 38 37 40 40 -177 38 36 35 32 31 30 29 28 28 32 36 35 36 -193 -193 306 307 305 -177 -177 -193 -193 -209 -193 -193 -193 -209 -209 33 36 37 39 39 39 39 39 39 38 37 38 36 37 37 36 38 40 41 42 42 41 41 41 41 42 39 39 37 36 37 36 36 35 36 34 33 33 33 33 -193 -177 318 -209 -209 -209 -193 -177 -177 -177 -193 39 39 38 37 38 38 38 38 38 38 39 41 41 41 41 41 41 42 42 44 34 32 34 35 36 35 38 33 36 36 36 34 35 33 34 35 36 36 38 40 -209 -193 58 56 -193 -193 54 37 38 39 39 39 39 39 39 40 -209 -209 -193 40 41 43 42 42 38 36 34 32 33 31 31 33 31 33 35 38 39 39 41 41 42 42 42 43 41 41 41 42 43 42 43 42 42 45 46 47 47 48 50 52 51 51 50 50 51 51 48 51 47 0 0 0 0 0
    0 0 0 0 0 0 0 0 0 0 0 0 0 0 0 0 0 0 0 0 0 0 0 0 0 0 0 0 0 0 0 0 0 0 0 0 0 0 0 0 0 0 0 0 0 0 0 0 0 0 0 0 0 0 0 0 0 0 0 0 0 0 0 0 0 0 0 0 0 18 17 18 21 22 19 24 26 26 26 25 24 21 21 21 22 22 22 23 -209 -209 -193 -193 29 32 35 34 38 34 35 36 36 36 36 36 36 36 38 37 37 37 36 35 34 34 28 25 22 20 22 26 35 -209 -209 38 41 40 -177 37 35 34 30 30 29 29 29 30 33 36 34 37 37 -193 307 307 305 -177 -177 -209 -209 -193 -193 -193 -177 -209 -209 34 37 37 39 39 39 40 39 39 39 38 39 38 39 39 38 39 40 41 42 42 42 42 42 42 43 41 40 39 37 37 36 36 35 36 34 33 33 34 34 -193 -177 -177 -193 -209 -209 -193 -177 -193 -177 40 40 39 39 38 38 38 39 39 39 39 39 41 41 41 42 42 42 43 42 44 37 37 37 38 38 38 41 34 35 34 34 32 32 31 31 33 33 34 36 39 -209 -193 59 57 57 56 55 41 41 44 44 42 41 42 42 45 -209 -193 -209 41 43 44 44 43 39 39 37 37 36 33 33 34 33 35 36 39 40 41 41 42 42 42 42 42 41 41 41 41 42 42 43 42 42 44 46 47 47 48 49 52 50 50 50 50 50 50 47 51 46 0 0 0 0 0
    0 0 0 0 0 0 0 0 0 0 0 0 0 0 0 0 0 0 0 0 0 0 0 0 0 0 0 0 0 0 0 0 0 0 0 0 0 0 0 0 0 0 0 0 0 0 0 0 0 0 0 0 0 0 0 0 0 0 0 0 0 0 0 0 0 0 0 0 0 21 22 23 25 27 25 27 30 30 29 28 27 25 26 -209 -209 -209 -209 -209 -209 -193 -193 -193 -193 -193 -193 36 38 35 35 36 36 36 36 36 36 36 37 37 37 36 36 35 34 34 26 25 20 18 22 28 36 -209 -209 38 40 39 38 36 33 33 30 30 30 30 31 33 34 36 34 38 38 -193 307 -177 -177 -177 -177 -209 -177 -177 -177 -177 -177 -193 -209 37 38 39 40 40 40 40 40 40 39 38 39 38 40 40 39 40 42 42 43 42 42 42 43 43 43 41 40 39 38 38 36 36 35 36 34 33 34 34 35 34 -193 -193 -193 -209 -209 -177 -177 -193 -177 41 39 39 38 38 38 38 38 39 38 39 39 41 42 42 42 43 42 43 42 43 36 36 38 38 39 39 41 36 36 35 33 30 30 29 28 31 30 33 35 -193 -209 -193 60 58 -193 -193 54 47 44 46 44 43 42 42 43 46 -209 -193 -193 43 45 47 48 46 42 42 39 41 38 33 33 34 33 36 37 40 40 41 42 44 43 42 42 43 42 41 41 42 42 42 43 43 43 44 46 48 48 48 49 51 50 49 49 49 49 49 46 51 46 0 0 0 0 0
    0 0 0 0 0 0 0 0 0 0 0 0 0 0 0 0 0 0 0 0 0 0 0 0 0 0 0 0 0 0 0 0 0 0 0 0 0 0 0 0 0 0 0 0 0 0 0 0 0 0 0 0 0 0 0 0 0 0 0 0 0 0 0 0 0 0 0 0 0 26 26 27 28 32 29 30 31 32 30 29 29 28 29 32 33 33 34 33 -193 -209 39 39 37 -193 37 36 38 35 35 35 36 36 36 36 36 37 38 38 38 37 37 36 35 36 26 24 16 17 24 31 37 -209 -209 38 40 38 38 36 33 34 30 31 31 32 34 35 35 37 35 38 38 40 -193 -193 -193 -177 -209 -209 -177 -177 -177 -177 -177 -193 -193 38 39 40 42 42 42 42 42 42 41 40 41 39 40 42 40 40 42 42 42 42 41 42 42 42 42 41 40 39 39 38 36 37 35 36 34 34 35 35 36 35 -193 -193 -193 -209 -209 -177 -177 -193 -177 40 39 39 39 39 39 39 39 39 39 40 40 42 42 42 42 43 42 43 41 43 36 37 37 38 38 38 40 36 36 35 33 31 31 30 29 33 34 36 38 42 49 -193 59 -193 -193 -193 -193 50 47 47 45 44 44 44 44 46 46 48 44 45 47 49 50 48 44 43 40 42 40 36 36 37 36 39 38 41 41 42 42 44 43 42 42 42 42 42 41 42 43 43 43 43 44 44 47 48 49 48 49 51 50 49 49 49 49 48 46 51 46 0 0 0 0 0
    0 0 0 0 0 0 0 0 0 0 0 0 0 0 0 0 0 0 0 0 0 0 0 0 0 0 0 0 0 0 0 0 0 0 0 0 0 0 0 0 0 0 0 0 0 0 0 0 0 0 0 0 0 0 0 0 0 0 0 0 0 0 0 0 0 0 0 0 0 -193 28 28 28 33 30 30 30 31 30 30 30 30 30 32 34 35 36 35 35 37 37 39 38 38 37 38 38 36 36 36 36 36 36 36 36 36 37 37 37 37 37 36 35 36 27 25 19 20 26 35 39 -209 -209 39 40 39 38 37 34 35 30 33 33 34 35 36 36 37 36 39 40 42 43 -193 -193 -209 -209 -193 -177 -177 -177 -177 -177 -193 -193 39 40 40 44 45 44 45 44 44 42 42 44 41 43 45 41 41 42 42 42 41 41 41 41 42 42 40 39 39 39 39 37 37 35 36 35 35 36 35 36 36 35 -193 -193 -209 -209 -177 -177 -193 -177 37 39 39 39 38 39 38 38 39 38 39 39 41 41 42 42 42 42 43 41 42 37 37 38 39 39 39 40 38 38 37 34 30 30 31 32 35 35 36 38 41 45 49 -209 -209 -209 -193 -193 50 49 50 47 46 46 46 46 48 49 50 46 47 48 50 51 49 44 43 40 42 38 35 36 37 37 40 39 41 43 43 44 46 44 43 43 44 45 42 42 43 44 44 44 44 44 43 47 48 49 48 49 52 50 50 49 49 49 48 46 51 46 0 0 0 0 0
    0 0 0 0 0 0 0 0 0 0 0 0 0 0 0 0 0 0 0 0 0 0 0 0 0 0 0 0 0 0 0 0 0 0 0 0 0 0 0 0 0 0 0 0 0 0 0 0 0 0 0 0 0 0 0 0 0 0 0 0 0 0 0 0 0 0 0 0 0 -193 29 29 28 32 32 31 31 31 31 31 32 33 33 34 36 39 38 -193 -193 39 39 41 40 39 38 39 39 37 37 36 37 37 37 37 35 36 37 37 37 37 37 36 35 38 27 26 -193 23 28 37 40 -209 -209 40 41 40 39 39 35 36 31 36 35 35 37 37 37 38 37 40 41 43 45 43 48 46 49 -193 -193 -177 -177 -193 -177 -193 43 42 42 43 46 48 46 47 46 45 43 44 46 43 44 46 42 41 42 42 42 42 41 41 41 42 42 41 41 42 40 39 38 37 36 37 36 36 36 36 37 36 36 38 -193 -209 -209 -177 -177 -193 -193 33 38 39 39 39 39 39 39 39 39 40 39 42 42 42 42 42 42 42 41 43 38 39 40 40 41 41 42 41 41 41 39 32 28 32 35 35 36 36 36 38 41 44 -209 -209 -209 -209 -209 47 48 49 46 46 45 46 46 47 49 49 47 47 48 49 50 48 44 43 39 42 38 36 37 38 38 41 39 41 43 44 45 48 45 45 44 45 47 43 43 43 45 44 44 44 45 43 47 49 49 48 49 51 51 50 49 49 48 48 45 52 47 0 0 0 0 0
    0 0 0 0 0 0 0 0 0 0 0 0 0 0 0 0 0 0 0 0 0 0 0 0 0 0 0 0 0 0 0 0 0 0 0 0 0 0 0 0 0 0 0 0 0 0 0 0 0 0 0 0 0 0 0 0 0 0 0 0 0 0 0 0 0 0 0 0 0 30 33 32 30 34 34 34 33 33 33 33 34 35 35 35 38 40 39 39 39 40 40 41 41 40 39 41 40 38 38 37 38 38 37 37 35 36 37 36 37 37 37 35 35 37 28 28 32 28 32 38 41 42 -209 41 42 41 40 40 37 38 33 36 35 36 37 37 37 39 38 41 42 45 47 45 51 49 50 49 49 47 -193 44 46 44 46 46 45 47 49 52 50 51 51 48 45 48 48 45 46 49 43 43 44 43 43 42 41 42 42 43 43 42 41 43 41 40 38 37 36 37 36 37 36 36 37 37 37 38 38 -209 -209 -209 -177 -193 -193 36 38 40 40 38 39 38 38 39 39 40 38 42 41 42 42 43 42 42 41 43 39 40 41 41 41 42 42 42 42 42 41 37 27 34 36 35 36 36 36 39 40 43 -209 -209 -209 -209 -209 -209 -193 46 44 44 44 45 44 46 47 48 46 47 47 47 48 47 44 43 41 43 40 37 39 41 41 46 44 44 47 47 49 51 48 48 46 47 49 44 44 44 45 45 44 44 45 43 47 49 49 48 48 51 50 50 49 49 48 48 45 52 47 0 0 0 0 0
    0 0 0 0 0 0 0 0 0 0 0 0 0 0 0 0 0 0 0 0 0 0 0 0 0 0 0 0 0 0 0 0 0 0 0 0 0 0 0 0 0 0 0 0 0 0 0 0 0 0 0 0 0 0 0 0 0 0 0 0 0 0 0 0 0 0 0 0 0 34 36 35 34 35 36 35 34 34 35 34 35 36 37 36 37 40 38 38 38 39 39 39 40 40 39 43 41 39 38 38 39 38 37 37 35 37 37 36 37 36 36 36 36 37 29 32 38 34 36 39 41 43 -193 42 42 41 41 40 38 38 35 37 36 36 37 38 38 39 39 41 44 47 50 48 54 51 52 51 50 49 46 47 49 46 48 49 49 51 51 53 52 52 53 51 48 51 50 48 48 51 45 45 46 46 45 43 43 43 43 44 44 43 43 46 44 41 39 38 37 38 38 38 38 37 38 38 39 40 39 39 -193 -209 -209 -209 -193 39 39 41 40 40 40 39 39 40 40 41 39 43 42 42 42 43 42 42 41 43 39 40 40 40 41 42 42 42 42 42 41 40 33 37 37 35 35 36 36 37 37 -209 -209 -209 -209 -209 -209 -193 -193 46 43 44 44 44 43 44 47 48 46 48 48 47 48 46 45 44 43 44 42 39 41 42 43 46 44 44 48 47 48 51 49 50 49 49 51 45 45 45 46 45 45 45 45 43 48 49 49 48 48 51 50 49 48 48 47 47 44 52 47 0 0 0 0 0
    0 0 0 0 0 0 0 0 0 0 0 0 0 0 0 0 0 0 0 0 0 0 0 0 0 0 0 0 0 0 0 0 0 0 0 0 0 0 0 0 0 0 0 0 0 0 0 0 0 0 0 0 0 0 0 0 0 0 0 0 0 0 0 0 0 0 0 0 0 36 37 -193 35 35 36 35 34 34 35 34 36 37 38 37 38 40 38 38 38 39 38 39 39 40 39 44 42 41 40 38 39 38 38 37 36 37 37 37 38 37 37 36 36 37 31 35 39 37 38 40 41 43 42 42 42 41 40 39 37 38 35 37 36 36 37 38 38 39 39 42 46 50 52 51 55 53 53 52 52 51 47 48 50 47 49 50 50 52 51 53 52 52 54 52 50 52 50 50 50 52 46 46 48 48 46 44 44 44 43 44 44 44 42 44 44 41 40 39 38 39 39 40 39 39 40 39 41 42 41 40 39 39 41 -209 43 42 39 42 41 43 41 40 40 41 41 42 40 43 42 43 43 43 42 42 41 43 39 40 40 39 40 41 41 41 41 42 41 42 -193 39 39 36 36 37 36 36 35 -209 -209 -209 -209 -209 -209 -193 -193 47 44 44 43 43 43 44 46 46 44 46 46 -193 47 43 43 -193 40 44 42 40 42 43 44 46 45 45 47 47 50 52 51 51 50 50 52 46 46 46 47 46 45 45 45 43 48 49 49 47 48 51 50 48 48 47 47 46 44 52 46 0 0 0 0 0
    0 0 0 0 0 0 0 0 0 0 0 0 0 0 0 0 0 0 0 0 0 0 0 0 0 0 0 0 0 0 0 0 0 0 0 0 0 0 0 0 0 0 0 0 0 0 0 0 0 0 0 0 0 0 0 0 0 0 0 0 0 0 0 0 0 0 0 0 0 37 38 -193 36 36 36 35 33 33 34 34 35 37 37 36 37 39 38 37 38 38 38 39 40 41 41 44 43 41 40 39 39 38 38 38 37 37 38 37 38 36 38 36 36 36 32 36 39 38 39 40 41 43 42 42 42 41 39 38 37 39 36 38 37 37 38 39 40 41 41 44 48 53 53 53 55 53 53 52 52 51 47 49 51 48 50 51 50 52 51 52 52 52 53 52 51 53 52 53 53 54 48 48 51 49 47 45 44 44 43 44 43 42 40 41 42 40 39 39 38 -193 40 42 41 40 41 41 42 43 42 41 40 39 41 -209 43 41 38 42 44 45 44 41 41 42 41 44 40 43 42 42 43 43 42 42 41 43 39 39 39 39 39 40 41 41 41 42 42 42 43 41 41 37 37 38 38 37 35 -193 -209 -209 -209 -209 -209 -209 46 48 46 44 44 44 43 43 45 43 42 -209 -193 -209 -209 -209 -209 -209 -193 45 44 -193 46 46 48 51 48 49 48 50 52 54 52 53 51 50 52 47 46 46 47 45 45 45 46 43 48 48 49 47 47 50 50 49 48 47 48 47 44 53 46 0 0 0 0 0
    0 0 0 0 0 0 0 0 0 0 0 0 0 0 0 0 0 0 0 0 0 0 0 0 0 0 0 0 0 0 0 0 0 0 0 0 0 0 0 0 0 0 0 0 0 0 0 0 0 0 0 0 0 0 0 0 0 0 0 0 0 0 0 0 0 0 0 0 0 39 40 -193 38 37 37 36 35 34 35 33 34 36 34 34 35 38 36 36 36 37 36 38 40 41 41 44 43 41 41 40 40 39 39 39 38 38 38 37 38 38 38 37 37 37 34 37 40 39 39 40 40 42 42 42 41 40 38 38 37 40 38 40 39 39 40 41 42 44 43 46 50 54 55 54 56 54 54 54 54 53 50 51 52 51 52 52 52 53 52 52 52 53 54 54 54 55 55 56 56 56 53 53 54 51 48 45 44 44 42 42 42 40 39 40 42 40 39 -193 -209 -209 42 44 43 42 42 42 43 44 42 42 40 38 -193 -209 -193 -193 34 -209 -209 48 45 42 41 43 42 44 40 43 42 42 42 43 42 42 41 43 38 39 39 38 39 40 41 42 42 43 44 45 46 46 45 42 42 41 42 41 38 40 -209 -209 -209 -209 -209 -209 47 50 47 -193 45 44 42 43 44 42 42 -209 -193 29 -193 -193 -209 -209 -209 -209 -209 -209 -193 52 52 54 50 50 48 50 52 54 53 54 52 51 53 49 48 47 47 45 45 45 46 42 46 47 47 46 46 50 50 48 48 47 48 47 45 54 47 0 0 0 0 0
    0 0 0 0 0 0 0 0 0 0 0 0 0 0 0 0 0 0 0 0 0 0 0 0 0 0 0 0 0 0 0 0 0 0 0 0 0 0 0 0 0 0 0 0 0 0 0 0 0 0 0 0 0 0 0 0 0 0 0 0 0 0 0 0 0 0 0 0 0 -209 42 -209 39 38 39 37 37 36 37 36 36 37 36 34 35 37 35 35 35 35 34 37 39 40 41 44 43 42 42 41 41 39 40 39 38 39 38 38 39 38 38 38 37 38 36 39 41 40 40 41 40 42 42 41 40 39 37 37 37 40 39 42 41 41 42 43 44 46 46 50 52 56 56 55 56 56 55 55 55 55 53 53 54 53 53 53 53 53 52 52 53 53 55 54 54 55 55 55 56 56 54 53 55 52 49 45 44 43 41 41 -193 39 38 39 41 40 40 -209 -209 -209 -193 45 43 43 43 43 44 44 42 42 39 38 -193 -209 -209 -193 -193 -177 -209 -209 45 42 42 45 42 45 41 44 42 43 43 43 42 42 41 43 39 40 39 38 39 40 41 42 43 44 45 47 49 49 49 46 46 44 45 46 -209 -193 45 46 -193 -209 -209 -209 47 51 49 -209 44 43 42 42 43 43 44 44 43 33 -193 -209 -209 -193 -209 -209 -209 -193 61 57 55 56 55 54 51 52 54 55 55 56 54 52 54 49 48 47 47 44 44 44 45 42 45 45 46 44 45 48 48 47 46 46 46 45 44 53 46 0 0 0 0 0
    0 0 0 0 0 0 0 0 0 0 0 0 0 0 0 0 0 0 0 0 0 0 0 0 0 0 0 0 0 0 0 0 0 0 0 0 0 0 0 0 0 0 0 0 0 0 0 0 0 0 0 0 0 0 0 0 0 0 0 0 0 0 0 0 0 0 0 0 0 46 -209 -193 44 41 43 40 40 39 40 39 38 39 37 35 35 37 35 35 35 35 33 37 39 40 41 45 43 43 43 42 41 40 40 39 38 39 38 37 38 37 38 38 37 37 36 39 41 41 41 41 41 42 42 41 40 -193 37 37 38 42 40 44 44 44 46 47 49 51 50 53 55 57 57 57 57 57 56 57 56 57 55 55 55 54 53 54 53 54 53 52 52 53 54 54 54 55 54 54 55 55 53 52 55 52 50 45 44 44 -193 41 -193 38 -193 38 -193 39 -193 -209 -209 -209 -193 45 44 44 44 43 44 45 42 42 39 37 -193 -193 -193 -193 -193 -193 -209 -209 47 45 44 46 43 45 41 43 42 42 42 43 42 42 41 43 40 41 40 39 39 41 42 43 45 46 46 49 50 51 51 48 49 47 49 -193 -209 -209 -209 -209 -193 -193 -209 -209 -209 -209 -209 -209 -209 -209 39 40 41 42 45 45 44 -193 -209 -209 -209 -209 -209 -209 -193 69 65 60 58 59 60 59 55 55 56 57 58 58 56 54 54 50 49 48 46 44 43 43 44 42 44 44 45 44 45 47 47 45 44 44 44 44 44 51 45 0 0 0 0 0
    0 0 0 0 0 0 0 0 0 0 0 0 0 0 0 0 0 0 0 0 0 0 0 0 0 0 0 0 0 0 0 0 0 0 0 0 0 0 0 0 0 0 0 0 0 0 0 0 0 0 0 0 0 0 0 0 0 0 0 0 0 0 0 0 0 0 0 0 0 45 47 46 45 44 46 44 43 42 42 41 40 40 40 35 35 36 34 35 36 36 34 37 39 41 42 44 43 42 43 42 41 40 40 39 38 39 38 37 37 37 38 38 37 37 35 39 41 41 41 41 39 41 -193 41 38 -193 36 36 38 -193 42 46 46 46 48 50 51 52 51 55 55 58 58 57 57 57 56 57 57 57 56 56 56 55 55 55 54 54 52 52 52 53 54 54 54 55 55 55 55 55 52 52 55 52 50 45 44 44 -209 -193 -209 37 -193 -193 -209 -193 -209 -209 -209 -193 -193 46 44 44 44 44 45 46 43 43 39 37 -193 -209 -209 420 -193 -193 -193 -209 52 50 46 49 44 46 42 44 42 42 43 43 42 43 42 44 41 42 41 39 39 -193 42 43 45 46 46 49 50 50 50 48 50 48 51 55 -209 -209 -209 -209 57 -209 -209 -209 -209 46 49 -209 36 37 37 38 40 40 44 44 45 47 -209 -209 -209 -209 65 -209 68 72 69 62 59 61 62 63 58 57 57 60 59 59 57 55 55 52 49 47 44 42 41 42 42 42 44 -209 48 46 46 47 47 44 42 42 42 41 42 44 41 0 0 0 0 0
    0 0 0 0 0 0 0 0 0 0 0 0 0 0 0 0 0 0 0 0 0 0 0 0 0 0 0 0 0 0 0 0 0 0 0 0 0 0 0 0 0 0 0 0 0 0 0 0 0 0 0 0 0 0 0 0 0 0 0 0 0 0 0 0 0 0 0 0 0 45 45 44 44 44 46 45 45 44 44 42 42 42 41 33 32 35 32 32 33 -193 -193 36 39 40 41 43 43 41 42 42 41 39 39 39 38 39 38 37 37 37 38 38 37 37 35 39 40 40 39 38 37 -193 -209 40 36 -193 34 35 38 -209 44 47 47 48 50 52 52 53 52 55 56 59 58 58 58 57 57 58 58 59 57 57 57 56 55 55 54 54 52 52 52 53 54 54 55 55 55 56 55 55 53 52 54 51 49 45 43 44 -209 -209 -209 37 -193 -193 -193 -193 -209 -209 147 -193 -193 48 45 46 46 45 46 47 44 44 40 38 -209 -209 -209 420 -209 -193 -193 -209 -209 53 48 -193 45 47 43 44 -193 -193 43 43 43 43 42 43 38 39 38 36 37 39 -193 42 45 46 46 48 49 49 49 47 49 47 50 55 55 51 54 54 -193 -209 -209 -209 -209 50 53 -209 -209 44 40 41 41 41 45 47 48 52 57 66 65 62 64 -193 66 71 69 63 59 60 62 62 58 57 57 59 59 60 58 57 55 55 49 42 40 38 -193 -209 -209 -209 -209 -209 -209 -209 -209 -209 -209 -209 -209 -209 -209 -209 -209 -209 -193 0 0 0 0 0
    0 0 0 0 0 0 0 0 0 0 0 0 0 0 0 0 0 0 0 0 0 0 0 0 0 0 0 0 0 0 0 0 0 0 0 0 0 0 0 0 0 0 0 0 0 0 0 0 0 0 0 0 0 0 0 0 0 0 0 0 0 0 0 0 0 0 0 0 0 46 46 46 45 46 49 47 47 46 47 44 42 43 -193 30 29 32 30 31 30 32 -193 36 39 40 41 43 42 41 42 41 41 39 39 38 38 39 39 37 37 37 38 37 37 37 33 37 38 39 38 36 36 -193 -209 40 35 -193 -193 -193 38 -193 45 48 48 49 50 52 53 53 52 54 55 58 58 57 57 57 58 59 59 60 58 57 58 57 56 55 55 54 52 52 52 54 55 55 55 56 56 56 55 55 53 51 54 51 49 45 -193 -193 -209 -209 -209 37 -193 -193 -193 -209 -193 -209 148 -193 -193 50 47 47 47 47 47 47 44 44 -193 38 -209 -193 -193 -193 -209 -193 -193 -209 -209 -209 -193 -209 -209 -193 -193 -193 -193 -193 -193 44 43 44 41 40 34 37 35 34 36 38 -209 42 47 48 47 49 50 49 49 47 49 48 52 56 57 55 57 56 58 -193 -193 -209 -209 56 60 61 61 57 55 50 53 48 52 53 54 56 61 68 67 65 65 67 64 69 68 61 58 58 60 60 57 57 56 57 58 60 59 58 57 57 52 -209 -209 -209 -209 -209 -209 -209 -209 -193 -209 -209 -209 -209 -209 -209 -209 -209 -209 -209 -209 -209 -209 0 0 0 0 0
    0 0 0 0 0 0 0 0 0 0 0 0 0 0 0 0 0 0 0 0 0 0 0 0 0 0 0 0 0 0 0 0 0 0 0 0 0 0 0 0 0 0 0 0 0 0 0 0 0 0 0 0 0 0 0 0 0 0 0 0 0 0 0 0 0 0 0 0 0 48 48 47 46 47 50 48 47 46 47 45 42 43 -193 27 27 29 27 27 22 -209 -193 -193 -209 42 43 43 42 40 41 41 41 39 39 38 39 40 39 38 37 37 37 37 36 36 32 35 -193 -193 37 -193 32 -209 -209 -193 34 -193 -193 -193 -225 -225 45 48 48 49 51 53 53 54 51 54 54 57 57 56 56 57 57 59 59 60 59 58 58 58 56 56 55 54 53 53 53 55 55 55 56 57 57 57 56 56 54 52 54 51 50 45 -193 -193 -209 -177 -193 -193 -193 -193 -193 -193 204 208 146 -193 -209 51 48 49 48 48 48 48 45 45 -193 -193 -209 -209 -209 -193 -193 -193 -193 -209 -209 -209 -209 -209 -209 -193 111 -225 -225 -225 -225 -225 -225 -225 -225 -225 -225 -225 -225 35 -193 -209 -209 46 53 51 51 52 52 51 51 50 51 51 55 57 59 58 60 60 60 63 66 68 69 62 66 64 64 63 60 57 58 56 56 56 56 59 63 70 68 67 66 68 65 68 67 61 -193 58 59 59 57 58 57 60 60 63 62 60 61 62 55 -209 -193 -209 -209 -209 -209 -209 -209 -209 -209 85 -209 -209 92 -193 -193 -193 -209 -209 -209 -209 -209 0 0 0 0 0
    0 0 0 0 0 0 0 0 0 0 0 0 0 0 0 0 0 0 0 0 0 0 0 0 0 0 0 0 0 0 0 0 0 0 0 0 0 0 0 0 0 0 0 0 0 0 0 0 0 0 0 0 0 0 0 0 0 0 0 0 0 0 0 0 0 0 0 0 0 50 50 49 48 48 51 50 49 48 49 46 45 44 -209 -193 23 16 17 10 11 0 -193 -209 -209 -193 42 41 41 39 41 41 41 38 39 39 39 40 39 -193 37 37 37 37 36 36 31 -193 -193 -193 35 30 29 -193 -209 -209 -225 -225 -225 -225 -225 -225 47 50 49 51 52 54 54 54 52 55 55 57 57 56 56 57 57 59 59 60 59 59 59 59 57 57 56 55 54 54 54 56 -193 56 57 58 58 58 56 56 55 53 55 52 50 46 -193 -209 -193 -209 -193 -193 -193 -193 -193 -225 -225 -225 -225 -225 -193 -193 -193 49 48 48 -225 47 45 -225 -225 -225 -225 -225 -225 -209 -225 -225 -209 -225 -225 -225 -225 -225 -225 -225 -225 -225 -225 -225 -225 -225 -225 -225 -225 -225 -225 -225 -225 -225 -225 45 -209 55 57 54 54 53 54 53 52 51 52 51 56 57 59 60 61 64 63 66 68 70 73 68 69 67 65 66 62 59 60 58 57 56 58 60 62 68 67 66 66 68 66 68 66 61 -193 58 58 58 56 58 57 61 61 64 65 63 66 69 59 -209 -209 -209 -209 -209 -209 -209 -209 -193 -193 87 89 89 94 96 98 99 99 94 -209 -209 -209 0 0 0 0 0
    0 0 0 0 0 0 0 0 0 0 0 0 0 0 0 0 0 0 0 0 0 0 0 0 0 0 0 0 0 0 0 0 0 0 0 0 0 0 0 0 0 0 0 0 0 0 0 0 0 0 0 0 0 0 0 0 0 0 0 0 0 0 0 0 0 0 0 0 0 50 50 50 49 49 51 51 51 51 52 50 52 50 49 -209 21 12 13 0 0 -177 18 30 -209 -209 42 42 -193 37 40 44 -225 -225 -225 -225 -225 40 38 38 38 37 37 37 37 38 33 -225 -225 -225 -225 -225 -225 -225 -225 -225 -225 -225 -225 -225 -225 -225 48 50 50 51 53 54 54 54 52 56 57 57 58 57 56 58 58 59 59 61 60 59 59 59 57 57 57 55 55 56 55 57 58 57 58 58 58 57 55 56 54 52 54 52 52 46 -225 -225 -225 -225 -225 -225 -225 -225 -225 -225 -225 -225 -225 -225 -225 -225 -225 -225 -225 -225 -225 -225 -225 -225 -225 -225 -225 -225 -225 -225 -225 -225 -225 -225 -225 -225 -225 -225 -225 -225 -225 -225 -225 -225 -225 -225 -225 -225 -225 -225 -225 -225 -225 -225 -225 -193 -209 58 59 55 55 54 55 54 53 52 52 52 56 57 59 60 61 65 63 66 68 69 72 69 69 66 64 64 61 59 59 58 57 56 57 59 60 66 64 64 65 68 65 67 63 60 -193 56 58 56 55 -193 56 60 59 62 63 61 64 65 59 -209 -209 -209 -209 -209 85 -193 -209 78 82 87 88 89 93 94 95 96 98 94 93 -209 -209 0 0 0 0 0
    0 0 0 0 0 0 0 0 0 0 0 0 0 0 0 0 0 0 0 0 0 0 0 0 0 0 0 0 0 0 0 0 0 0 0 0 0 0 0 0 0 0 0 0 0 0 0 0 0 0 0 0 0 0 0 0 0 0 0 0 0 0 0 0 0 0 0 0 0 50 50 50 51 50 52 52 53 53 53 53 55 55 56 -209 -209 -225 -225 -225 -225 -225 -225 -225 -225 -225 -225 -209 -209 -225 -225 -225 -225 -225 -225 -225 -225 -225 -225 -225 -225 -225 -225 -225 -225 -225 -225 -225 -225 -225 -225 -225 -225 -225 -225 -225 -225 -225 -225 -225 -225 -225 49 49 52 53 54 55 55 55 54 58 59 58 59 59 58 59 59 60 60 62 61 59 59 59 58 58 58 56 56 57 56 58 59 58 57 57 58 57 54 54 52 49 53 53 52 -225 -225 -225 -225 -225 -225 -225 -225 -225 -225 -225 -225 -225 -225 -225 -225 -225 -225 -225 -225 -225 -225 -225 -225 -225 -225 -225 -225 -225 -225 -225 -225 -225 -225 -225 -225 -225 -225 -225 -225 -225 -225 -225 -225 -225 -225 -225 -225 -225 -225 -225 -225 -225 -225 -225 -225 -225 -209 58 60 56 56 55 55 54 53 53 53 53 57 58 60 61 62 66 64 66 68 68 71 66 67 64 61 61 60 59 59 57 56 55 57 58 59 63 62 61 64 66 63 63 59 -193 54 55 58 55 56 -209 56 66 59 63 -209 61 65 64 58 -209 -209 75 82 -193 81 85 -209 73 76 83 84 89 92 92 92 92 94 93 93 -209 -209 0 0 0 0 0
    0 0 0 0 0 0 0 0 0 0 0 0 0 0 0 0 0 0 0 0 0 0 0 0 0 0 0 0 0 0 0 0 0 0 0 0 0 0 0 0 0 0 0 0 0 0 0 0 0 0 0 0 0 0 0 0 0 0 0 0 0 0 0 0 0 0 0 0 0 51 50 50 51 51 52 52 53 53 53 54 55 56 57 56 -225 -225 -225 -225 -225 -225 -225 -225 -225 -225 -225 -225 -225 -225 -225 -225 -225 -225 -225 -225 -225 -225 -225 -225 -225 -225 -225 -225 -225 -225 -225 -225 -225 -225 -225 -225 -225 -225 -225 -225 -225 -225 -225 -225 -225 -225 -225 48 50 52 53 54 54 54 53 58 59 59 59 59 58 58 59 61 60 62 60 59 59 59 59 59 58 57 57 60 58 61 60 58 57 57 58 57 54 53 52 50 54 54 53 -225 -225 -225 -225 -225 -225 -225 -225 -225 -225 -225 -225 -225 -225 -225 -225 -225 -225 -225 -225 -225 -225 -225 -225 -225 -225 -225 -225 -225 -225 -225 -225 -225 -225 -225 -225 -225 -225 -225 -225 -225 -225 -225 -225 -225 -225 -225 -225 -225 -225 -225 -225 -225 -225 -225 -225 -225 66 62 63 61 61 59 57 54 51 49 51 52 57 57 60 62 64 68 67 68 69 69 71 65 65 62 60 60 59 58 59 57 56 56 58 59 60 64 63 62 65 68 64 -209 -209 47 49 53 -193 53 -193 -209 59 68 61 66 66 63 67 66 58 64 -209 72 -209 -209 75 -209 68 71 73 80 85 89 91 91 91 91 92 92 92 -193 -209 0 0 0 0 0
    0 0 0 0 0 0 0 0 0 0 0 0 0 0 0 0 0 0 0 0 0 0 0 0 0 0 0 0 0 0 0 0 0 0 0 0 0 0 0 0 0 0 0 0 0 0 0 0 0 0 0 0 0 0 0 0 0 0 0 0 0 0 0 0 0 0 0 0 0 50 49 50 50 50 52 52 53 54 55 55 57 58 59 58 -225 -225 -225 -225 -225 -225 -225 -225 -225 -225 -225 -225 -225 -225 -225 -225 -225 -225 -225 -225 -225 -225 -225 -225 -225 -225 -225 -225 -225 -225 -225 -225 -225 -225 -225 -225 -225 -225 -225 -225 -225 -225 -225 -225 -225 -225 -225 48 48 49 51 52 52 52 48 56 57 57 59 58 57 57 58 60 59 62 59 59 58 59 58 59 58 58 -209 61 59 63 61 58 57 57 58 59 54 54 53 51 55 55 54 -225 -225 -225 -225 -225 -225 -225 -225 -225 -225 -225 -225 -225 -225 -225 -225 -225 -225 -225 -225 -225 -225 -225 -225 -225 -225 -225 -225 -225 -225 -225 -225 -225 -225 -225 -225 -225 -225 -225 -225 -225 -225 -225 -225 -225 -225 -225 -225 -225 -225 -225 -225 -225 -225 -225 -225 -225 -225 69 68 68 67 63 -193 52 44 41 45 48 53 54 58 61 65 69 68 68 70 68 69 65 65 62 59 60 59 59 59 58 57 57 60 61 62 66 66 66 68 70 66 -209 -209 -193 45 50 50 49 51 -209 -193 58 55 59 62 60 67 66 56 61 59 72 -209 -209 -209 -209 63 69 72 78 84 87 90 90 90 91 91 91 91 89 -209 0 0 0 0 0
    0 0 0 0 0 0 0 0 0 0 0 0 0 0 0 0 0 0 0 0 0 0 0 0 0 0 0 0 0 0 0 0 0 0 0 0 0 0 0 0 0 0 0 0 0 0 0 0 0 0 0 0 0 0 0 0 0 0 0 0 0 0 0 0 0 0 0 0 0 -209 -209 -209 -209 -193 56 56 59 60 59 61 61 61 64 -225 -225 -225 -225 -225 -225 -225 -225 -225 -225 -225 -225 -225 -225 -225 -225 -225 -225 -225 -225 -225 -225 -225 -225 -225 -225 -225 -225 -225 -225 -225 -225 -225 -225 -225 -225 -225 -225 -225 -225 -225 -225 -225 -225 -225 -225 -225 -225 48 48 49 52 54 54 54 51 56 58 58 59 58 56 56 57 59 59 60 58 57 56 56 56 57 56 55 -209 61 60 -193 -193 -209 57 57 59 59 55 55 54 51 55 55 54 -225 -225 -225 -225 -225 -225 -225 -225 -225 -225 -225 -225 -225 -225 -225 -225 -225 -225 -225 -225 -225 -225 -225 -225 -225 -225 -225 -225 -225 -225 -225 -225 -225 -225 -225 -225 -225 -225 -225 -225 -225 -225 -225 -225 -225 -225 -225 -225 -225 -225 -225 -225 -225 -225 -225 -225 -225 -225 -225 68 68 69 70 61 -193 -193 -193 42 48 55 54 -193 61 65 69 68 68 69 67 68 66 65 63 60 61 61 60 61 60 59 59 64 65 67 70 70 70 72 73 -209 -209 -209 40 44 48 47 47 46 -209 51 54 53 55 -193 55 62 -209 56 61 64 71 -209 64 72 60 62 69 72 78 85 87 90 90 90 90 90 91 90 84 76 0 0 0 0 0
    0 0 0 0 0 0 0 0 0 0 0 0 0 0 0 0 0 0 0 0 0 0 0 0 0 0 0 0 0 0 0 0 0 0 0 0 0 0 0 0 0 0 0 0 0 0 0 0 0 0 0 0 0 0 0 0 0 0 0 0 0 0 0 0 0 0 0 0 0 68 -193 75 77 -209 -209 71 71 71 69 69 68 64 68 -225 -225 -225 -225 -225 -225 -225 -225 -225 -225 -225 -225 -225 -225 -225 -225 -225 -225 -225 -225 -225 -225 -225 -225 -225 -225 -225 -225 -225 -225 -225 -225 -225 -225 -225 -225 -225 -225 -225 -225 -225 -225 -225 -225 -225 -225 -225 -225 -225 48 49 52 54 54 54 52 56 58 58 59 57 54 55 56 59 58 58 56 53 52 53 -225 -225 -225 -225 -225 -225 -225 -193 255 -193 58 58 60 59 56 56 55 54 57 57 -225 -225 -225 -225 -225 -225 -225 -225 -225 -225 -225 -225 -225 -225 -225 -225 -225 -225 -225 -225 -225 -225 -225 -225 -225 -225 -225 -225 -225 -225 -225 -225 -225 -225 -225 -225 -225 -225 -225 -225 -225 -225 -225 -225 -225 -225 -225 -225 -225 -225 -225 -225 -225 -225 -225 -225 -225 -225 -225 69 68 69 70 71 66 63 -209 -209 48 54 60 58 61 64 67 70 69 69 69 66 68 68 66 63 59 61 62 62 62 61 61 62 69 70 72 73 74 75 76 76 78 -193 -209 -209 -209 -209 -209 -193 -193 -193 49 52 53 54 55 54 61 63 58 64 70 72 69 70 73 -209 66 69 72 79 86 88 90 89 90 90 90 91 90 79 72 0 0 0 0 0
    0 0 0 0 0 0 0 0 0 0 0 0 0 0 0 0 0 0 0 0 0 0 0 0 0 0 0 0 0 0 0 0 0 0 0 0 0 0 0 0 0 0 0 0 0 0 0 0 0 0 0 0 0 0 0 0 0 0 0 0 0 0 0 0 0 0 0 0 0 -209 78 80 -209 137 -193 68 69 69 67 66 65 62 67 -225 -225 -225 -225 -225 -225 -225 -225 -225 -225 -225 -225 -225 -225 -225 -225 -225 -225 -225 -225 -225 -225 -225 -225 -225 -225 -225 -225 -225 -225 -225 -225 -225 -225 -225 -225 -225 -225 -225 -225 -225 -225 -225 -225 -225 -225 -225 -225 -225 -225 50 53 55 55 55 54 57 59 59 60 -225 -225 -225 -225 -225 58 59 -225 -225 -225 -225 -225 -225 -225 -225 -225 -225 -225 -225 -225 -225 -225 58 61 60 58 58 58 58 59 -225 -225 -225 -225 -225 -225 -225 -225 -225 -225 -225 -225 -225 -225 -225 -225 -225 -225 -225 -225 -225 -225 -225 -225 -225 -225 -225 -225 -225 -225 -225 -225 -225 -225 -225 -225 -225 -225 -225 -225 -225 -225 -225 -225 -225 -225 -225 -225 -225 -225 -225 -225 -225 -225 -225 -225 -225 -225 -225 69 70 69 70 71 72 69 -193 -209 -209 -209 57 64 60 64 68 69 71 70 69 68 63 64 64 64 62 56 57 60 61 61 61 60 62 71 73 74 77 77 79 80 81 83 85 85 86 85 87 87 85 -209 -193 47 52 52 53 -193 -193 64 -193 -209 69 74 78 77 75 82 85 -193 73 77 84 88 89 91 90 90 90 89 90 90 78 73 0 0 0 0 0
    0 0 0 0 0 0 0 0 0 0 0 0 0 0 0 0 0 0 0 0 0 0 0 0 0 0 0 0 0 0 0 0 0 0 0 0 0 0 0 0 0 0 0 0 0 0 0 0 0 0 0 0 0 0 0 0 0 0 0 0 0 0 0 0 0 0 0 0 0 70 79 83 -193 -209 -193 66 69 69 66 66 65 62 67 -225 -225 -225 -225 -225 -225 -225 -225 -225 -225 -225 -225 -225 -225 -225 -225 -225 -225 -225 -225 -225 -225 -225 -225 -225 -225 -225 -225 -225 -225 -225 -225 -225 -225 -225 -225 -225 -225 -225 -225 -225 -225 -225 -225 -225 -225 -225 -225 -225 -225 -225 -225 -225 -225 -225 -225 -225 -225 -225 -225 -225 -225 -225 -225 -225 -225 -225 -225 -225 -225 -225 -225 -225 -225 -225 -225 -225 -225 -225 -225 -225 -225 -225 -225 -225 -225 -225 -225 -225 -225 -225 -225 -225 -225 -225 -225 -225 -225 -225 -225 -225 -225 -225 -225 -225 -225 -225 -225 -225 -225 -225 -225 -225 -225 -225 -225 -225 -225 -225 -225 -225 -225 -225 -225 -225 -225 -225 -225 -225 -225 -225 -225 -225 -225 -225 -225 -225 -225 -225 -225 -225 -225 -225 -225 -225 -225 -225 -225 -225 -209 -209 -209 75 75 -209 -209 -209 -209 -209 -209 -209 -209 -209 -209 -209 -209 71 69 62 59 57 58 55 56 -209 44 45 48 -209 -209 -209 -209 62 71 77 78 82 81 82 84 84 86 87 87 87 87 88 88 87 -193 -209 -193 48 51 -193 -209 -193 65 -209 -209 -209 79 87 90 85 88 90 90 87 89 88 90 90 91 90 89 88 85 87 87 76 74 0 0 0 0 0
    0 0 0 0 0 0 0 0 0 0 0 0 0 0 0 0 0 0 0 0 0 0 0 0 0 0 0 0 0 0 0 0 0 0 0 0 0 0 0 0 0 0 0 0 0 0 0 0 0 0 0 0 0 0 0 0 0 0 0 0 0 0 0 0 0 0 0 0 0 68 77 81 80 -209 -193 65 69 69 67 67 65 63 -225 -225 -225 -225 -225 -225 -225 -225 -225 -225 -225 -225 -225 -225 -225 -225 -225 -225 -225 -225 -225 -225 -225 -225 -225 -225 -225 -225 -225 -225 -225 -225 -225 -225 -225 -225 -225 -225 -225 -225 -225 -225 -225 -225 -225 -225 -225 -225 -225 -225 -225 -225 -225 -225 -225 -225 -225 -225 -225 -225 -225 -225 -225 -225 -225 -225 -225 -225 -225 -225 -225 -225 -225 -225 -225 -225 -225 -225 -225 -225 -225 -225 -225 -225 -225 -225 -225 -225 -225 -225 -225 -225 -225 -225 -225 -225 -225 -225 -225 -225 -225 -225 -225 -225 -225 -225 -225 -225 -225 -225 -225 -225 -225 -225 -225 -225 -225 -225 -225 -225 -225 -225 -225 -225 -225 -225 -225 -225 -225 -225 -225 -225 -225 -225 -225 -225 -225 -225 -225 -225 -225 -225 -225 -225 -225 -225 -225 -225 -225 -209 -209 -209 -209 -209 -225 -209 -209 -209 -209 -209 -209 -209 -209 -209 -209 -209 -209 68 -209 -209 50 52 52 49 -209 27 36 37 -209 -209 -209 -209 -209 72 -193 77 80 83 83 84 86 86 87 88 88 88 88 88 87 87 -193 -209 -209 51 -209 -209 -209 -209 -209 -193 -209 -209 85 90 94 88 90 92 92 90 90 90 91 90 92 91 89 86 83 86 86 77 77 0 0 0 0 0
    0 0 0 0 0 0 0 0 0 0 0 0 0 0 0 0 0 0 0 0 0 0 0 0 0 0 0 0 0 0 0 0 0 0 0 0 0 0 0 0 0 0 0 0 0 0 0 0 0 0 0 0 0 0 0 0 0 0 0 0 0 0 0 0 0 0 0 0 0 -209 90 -193 112 -193 -209 -209 71 -225 -225 -225 -225 -225 -225 -225 -225 -225 -225 -225 -225 -225 -225 -225 -225 -225 -225 -225 -225 -225 -225 -225 -225 -225 -225 -225 -225 -225 -225 -225 -225 -225 -225 -225 -225 -225 -225 -225 -225 -225 -225 -225 -225 -225 -225 -225 -225 -225 -225 -225 -225 -225 -225 -225 -225 -225 -225 -225 -225 -225 -225 -225 -225 -225 -225 -225 -225 -225 -225 -225 -225 -225 -225 -225 -225 -225 -225 -225 -225 -225 -225 -225 -225 -225 -225 -225 -225 -225 -225 -225 -225 -225 -225 -225 -225 -225 -225 -225 -225 -225 -225 -225 -225 -225 -225 -225 -225 -225 -225 -225 -225 -225 -225 -225 -225 -225 -225 -225 -225 -225 -225 -225 -225 -225 -225 -225 -225 -225 -225 -225 -225 -225 -225 -225 -225 -225 -225 -225 -225 -225 -225 -225 -225 -225 -225 -225 -225 -225 -225 -225 -225 -209 -209 -209 -209 -209 -209 -209 -225 -209 -209 -209 -209 -209 -209 -209 -209 -209 -209 -209 -209 -209 -209 -209 -209 -193 -209 -193 -209 -209 36 -209 -209 -209 -209 -209 -209 -193 80 81 82 85 84 85 87 87 88 90 89 90 89 89 88 88 90 -209 -209 -193 -209 -209 -209 -209 -209 -193 95 -209 89 92 95 88 89 92 92 90 90 91 91 91 93 92 90 87 83 86 86 78 82 0 0 0 0 0
    0 0 0 0 0 0 0 0 0 0 0 0 0 0 0 0 0 0 0 0 0 0 0 0 0 0 0 0 0 0 0 0 0 0 0 0 0 0 0 0 0 0 0 0 0 0 0 0 0 0 0 0 0 0 0 0 0 0 0 0 0 0 0 0 0 0 0 0 0 102 101 107 114 115 121 129 -225 -225 -225 -225 -225 -225 -225 -225 -225 -225 -225 -225 -225 -225 -225 -225 -225 -225 -225 -225 -225 -225 -225 -225 -225 -225 -225 -225 -225 -225 -225 -225 -225 -225 -225 -225 -225 -225 -225 -225 -225 -225 -225 -225 -225 -225 -225 -225 -225 -225 -225 -225 -225 -225 -225 -225 -225 -225 -225 -225 -225 -225 -225 -225 -225 -225 -225 -225 -225 -225 -225 -225 -225 -225 -225 -225 -225 -225 -225 -225 -225 -225 -225 -225 -225 -225 -225 -225 -225 -225 -225 -225 -225 -225 -225 -225 -225 -225 -225 -225 -225 -225 -225 -225 -225 -225 -225 -225 -225 -225 -225 -225 -225 -225 -225 -225 -225 -225 -225 -225 -225 -225 -225 -225 -225 -225 -225 -225 -225 -225 -225 -225 -225 -225 -225 -225 -225 -225 -225 -225 -225 -225 -225 -225 -225 -225 -225 -225 -225 -225 -225 -225 -225 -209 -209 -209 -209 -209 -209 -209 -225 -209 -225 -209 -209 -209 -209 -209 -209 -209 -209 -209 -209 -209 -209 -209 34 -193 -209 -193 -209 26 37 -209 -209 -209 -209 -209 -209 86 89 87 86 87 86 86 88 88 88 90 90 91 90 90 89 89 91 -209 -209 -193 -209 -209 -209 94 92 91 98 100 93 99 101 90 90 93 93 90 91 91 92 91 94 94 91 88 84 86 -209 79 84 0 0 0 0 0
    0 0 0 0 0 0 0 0 0 0 0 0 0 0 0 0 0 0 0 0 0 0 0 0 0 0 0 0 0 0 0 0 0 0 0 0 0 0 0 0 0 0 0 0 0 0 0 0 0 0 0 0 0 0 0 0 0 0 0 0 0 0 0 0 0 0 0 0 0 102 102 106 108 110 119 127 -225 -225 -225 -225 -225 -225 -225 -225 -225 -225 -225 -225 -225 -225 -225 -225 -225 -225 -225 -225 -225 -225 -225 -225 -225 -225 -225 -225 -225 -225 -225 -225 -225 -225 -225 -225 -225 -225 -225 -225 -225 -225 -225 -225 -225 -225 -225 -225 -225 -225 -225 -225 -225 -225 -225 -225 -225 -225 -225 -225 -225 -225 -225 -225 -225 -225 -225 -225 -225 -225 -225 -225 -225 -225 -225 -225 -225 -225 -225 -225 -225 -225 -225 -225 -225 -225 -225 -225 -225 -225 -225 -225 -225 -225 -225 -225 -225 -225 -225 -225 -225 -225 -225 -225 -225 -225 -225 -225 -225 -225 -225 -225 -225 -225 -225 -225 -225 -225 -225 -225 -225 -225 -225 -225 -225 -225 -225 -225 -225 -225 -225 -225 -225 -225 -225 -225 -225 -225 -225 -225 -225 -225 -225 -225 -225 -225 -225 -225 -225 -225 -225 -225 -225 -209 -209 -209 -209 -209 -209 -209 -225 -225 -225 -225 -209 -209 -209 -209 -209 -209 -209 -209 -209 -209 -209 26 32 35 -209 -209 -209 -209 -209 -209 -209 -209 -209 92 90 91 91 89 88 88 87 87 89 89 89 91 90 91 90 90 90 90 92 -193 -209 -209 -209 -209 -193 96 95 94 99 102 97 101 103 93 92 95 94 91 92 92 92 91 95 97 93 91 -209 -193 -193 83 87 0 0 0 0 0
    0 0 0 0 0 0 0 0 0 0 0 0 0 0 0 0 0 0 0 0 0 0 0 0 0 0 0 0 0 0 0 0 0 0 0 0 0 0 0 0 0 0 0 0 0 0 0 0 0 0 0 0 0 0 0 0 0 0 0 0 0 0 0 0 0 0 0 0 0 102 102 105 107 108 118 126 -225 -225 -225 -225 -225 -225 -225 -225 -225 -225 -225 -225 -225 -225 -225 -225 -225 -225 -225 -225 -225 -225 -225 -225 -225 -225 -225 -225 -225 -225 -225 -225 -225 -225 -225 -225 -225 -225 -225 -225 -225 -225 -225 -225 -225 -225 -225 -225 -225 -225 -225 -225 -225 -225 -225 -225 -225 -225 -225 -225 -225 -225 -225 -225 -225 -225 -225 -225 -225 -225 -225 -225 -225 -225 -225 -225 -225 -225 -225 -225 -225 -225 -225 -225 -225 -225 -225 -225 -225 -225 -225 -225 -225 -225 -225 -225 -225 -225 -225 -225 -225 -225 -225 -225 -225 -225 -225 -225 -225 -225 -225 -225 -225 -225 -225 -225 -225 -225 -225 -225 -225 -225 -225 -225 -225 -225 -225 -225 -225 -225 -225 -225 -225 -225 -225 -225 -225 -225 -225 -225 -225 -225 -225 -225 -225 -225 -225 -225 -225 -225 -225 -225 -225 -209 -209 -209 -209 -209 -209 -209 -225 -225 -225 -225 -209 -209 -209 -209 -209 -209 -209 -209 -209 -209 -209 -209 -209 -209 -209 -209 -209 -209 -209 -209 -209 -209 -209 -193 93 94 95 92 90 90 89 89 90 91 90 92 91 90 90 90 90 90 92 91 -193 -193 89 92 98 98 96 95 99 102 99 102 103 93 92 95 95 92 93 93 93 92 97 99 97 100 106 -193 107 -193 94 0 0 0 0 0
    0 0 0 0 0 0 0 0 0 0 0 0 0 0 0 0 0 0 0 0 0 0 0 0 0 0 0 0 0 0 0 0 0 0 0 0 0 0 0 0 0 0 0 0 0 0 0 0 0 0 0 0 0 0 0 0 0 0 0 0 0 0 0 0 0 0 0 0 0 102 102 105 107 108 118 126 -225 -225 -225 -225 -225 -225 -225 -225 -225 -225 -225 -225 -225 -225 -225 -225 -225 -225 -225 -225 -225 -225 -225 -225 -225 -225 -225 -225 -225 -225 -225 -225 -225 -225 -225 -225 -225 -225 -225 -225 -225 -225 -225 -225 -225 -225 -225 -225 -225 -225 -225 -225 -225 -225 -225 -225 -225 -225 -225 -225 -225 -225 -225 -225 -225 -225 -225 -225 -225 -225 -225 -225 -225 -225 -225 -225 -225 -225 -225 -225 -225 -225 -225 -225 -225 -225 -225 -225 -225 -225 -225 -225 -225 -225 -225 -225 -225 -225 -225 -225 -225 -225 -225 -225 -225 -225 -225 -225 -225 -225 -225 -225 -225 -225 -225 -225 -225 -225 -225 -225 -225 -225 -225 -225 -225 -225 -225 -225 -225 -225 -225 -225 -225 -225 -225 -225 -225 -225 -225 -225 -225 -225 -225 -225 -225 -225 -225 -225 -225 -225 -225 -225 -225 -209 -209 -209 -209 -209 -209 -209 -225 -225 -225 -225 -209 -209 -209 -209 -209 -193 -209 -209 -209 -209 -209 -209 -209 -209 -209 -209 -209 -209 -193 -193 -209 -209 -193 99 95 96 96 93 92 92 90 89 90 92 91 92 91 91 90 91 91 91 93 93 -193 93 92 95 99 97 96 96 99 101 99 102 102 93 92 95 94 93 94 94 95 94 99 100 99 104 107 110 109 -193 101 0 0 0 0 0
    0 0 0 0 0 0 0 0 0 0 0 0 0 0 0 0 0 0 0 0 0 0 0 0 0 0 0 0 0 0 0 0 0 0 0 0 0 0 0 0 0 0 0 0 0 0 0 0 0 0 0 0 0 0 0 0 0 0 0 0 0 0 0 0 0 0 0 0 0 102 102 105 107 -209 118 126 -225 -225 -225 -225 -225 -225 -225 -225 -225 -225 -225 -225 -225 0 -256 -1 -27857 -225 -225 -225 -225 -225 -225 -225 -225 -225 -225 -225 -225 -225 -225 -225 -225 -225 -225 -225 -225 -225 -225 -225 -225 -225 -225 -225 -225 -225 -225 -225 -225 -225 -225 -225 -225 -225 -225 -225 -225 -225 -225 -225 -225 -225 -225 -225 -225 -225 -225 -225 -225 -225 -225 -225 -225 -225 -225 -225 -225 -225 -225 -225 -225 -225 -225 -225 -225 -225 -225 -225 -225 -225 -225 -225 -225 -225 -225 -225 -225 -225 -225 -225 -225 -225 -225 -225 -225 -225 -225 -225 -225 -225 -225 -225 -225 -225 -225 -225 -225 -225 -225 -225 -225 -225 -225 -225 -225 -225 -225 -225 -225 -225 -225 -225 -225 -225 -225 -225 -225 -225 -225 -225 -225 -225 -225 -225 -225 -225 -225 -225 -225 -225 -225 -225 -225 -225 -209 -209 -209 -209 -209 -209 -225 -225 -225 -225 -209 -209 -209 -209 -209 -193 63 -209 -209 -209 -209 -209 -209 -209 -209 -209 112 -209 -209 -209 -209 -209 -193 100 98 97 98 98 95 94 91 90 91 93 92 93 91 91 91 91 91 92 94 94 92 94 92 94 98 96 95 96 99 101 100 102 103 94 93 96 95 93 94 95 96 95 100 101 100 105 107 110 109 -193 103 0 0 0 0 0
    0 0 0 0 0 0 0 0 0 0 0 0 0 0 0 0 0 0 0 0 0 0 0 0 0 0 0 0 0 0 0 0 0 0 0 0 0 0 0 0 0 0 0 0 0 0 0 0 0 0 0 0 0 0 0 0 0 0 0 0 0 0 0 0 0 0 0 0 0 102 102 105 107 -209 118 126 -225 -225 -225 -225 -225 -225 -225 -225 -225 -225 -225 -225 -225 -225 -225 -225 -225 -225 -225 -225 -225 -225 -225 -225 -225 -225 -225 -225 -225 -225 -225 -225 -225 -225 -225 -225 -225 -225 -225 -225 -225 -225 -225 -225 -225 -225 -225 -225 -225 -225 -225 -225 -225 -225 -225 -225 -225 -225 -225 -225 -225 -225 -225 -225 -225 -225 -225 -225 -225 -225 -225 -225 -225 -225 -225 -225 -225 -225 -225 -225 -225 -225 -225 -225 -225 -225 -225 -225 -225 -225 -225 -225 -225 -225 -225 -225 -225 -225 -225 -225 -225 -225 -225 -225 -225 -225 -225 -225 -225 -225 -225 -225 -225 -225 -225 -225 -225 -225 -225 -225 -225 -225 -225 -225 -225 -225 -225 -225 -225 -225 -225 -225 -225 -225 -225 -225 -225 -225 -225 -225 -225 -225 -225 -225 -225 -225 -225 -225 -225 -225 -225 -225 -225 -225 -225 -225 -225 -225 -209 -225 -225 -225 -225 -225 -209 -209 -209 -209 -209 -193 -209 -209 -209 -209 -209 -209 -209 -209 -209 -209 -209 -209 -209 -209 -209 -209 -193 101 100 100 102 105 102 99 95 93 98 99 97 96 93 93 93 92 92 92 93 94 92 93 90 91 95 96 96 96 100 102 101 102 104 97 94 98 97 94 96 97 99 98 101 102 101 -193 107 111 109 106 105 0 0 0 0 0
    0 0 0 0 0 0 0 0 0 0 0 0 0 0 0 0 0 0 0 0 0 0 0 0 0 0 0 0 0 0 0 0 0 0 0 0 0 0 0 0 0 0 0 0 0 0 0 0 0 0 0 0 0 0 0 0 0 0 0 0 0 0 0 0 0 0 0 0 0 102 102 105 107 -209 118 126 -225 -225 -225 -225 -225 -225 -225 -225 -225 -225 -225 -225 -225 -225 -225 -225 -225 -225 -225 -225 -225 -225 -225 -225 -225 -225 -225 -225 -225 -225 -225 -225 -225 -225 -225 -225 -225 -225 -225 -225 -225 -225 -225 -225 -225 -225 -225 -225 -225 -225 -225 -225 -225 -225 -225 -225 -225 -225 -225 -225 -225 -225 -225 -225 -225 -225 -225 -225 -225 -225 -225 -225 -225 -225 -225 -225 -225 -225 -225 -225 -225 -225 -225 -225 -225 -225 -225 -225 -225 -225 -225 -225 -225 -225 -225 -225 -225 -225 -225 -225 -225 -225 -225 -225 -225 -225 -225 -225 -225 -225 -225 -225 -225 -225 -225 -225 -225 -225 -225 -225 -225 -225 -225 -225 -225 -225 -225 -225 -225 -225 -225 -225 -225 -225 -225 -225 -225 -225 -225 -225 -225 -225 -225 -225 -225 -225 -225 -225 -225 -225 -225 -225 -225 -225 -225 -225 -225 -225 -225 -225 -225 -225 -225 -225 -225 -209 -209 -209 -209 -209 -209 -209 -209 -209 -209 -209 -209 -209 -209 -209 -209 -209 -209 -209 -209 106 107 104 102 102 105 107 106 104 101 99 103 105 103 101 97 96 95 94 92 94 95 94 92 94 92 93 98 99 98 99 102 103 102 103 105 101 96 99 98 96 98 100 101 100 102 103 103 105 108 111 109 107 106 0 0 0 0 0
    0 0 0 0 0 0 0 0 0 0 0 0 0 0 0 0 0 0 0 0 0 0 0 0 0 0 0 0 0 0 0 0 0 0 0 0 0 0 0 0 0 0 0 0 0 0 0 0 0 0 0 0 0 0 0 0 0 0 0 0 0 0 0 0 0 0 0 0 0 102 102 104 -209 -193 116 126 -225 -225 -225 -225 -225 -225 -225 -225 -225 -225 -225 -225 -225 -225 -225 -225 -225 -225 -225 -225 -225 -225 -225 -225 -225 -225 -225 -225 -225 -225 -225 -225 -225 -225 -225 -225 -225 -225 -225 -225 -225 -225 -225 -225 -225 -225 -225 -225 -225 -225 -225 -225 -225 -225 -225 -225 -225 -225 -225 -225 -225 -225 -225 -225 -225 -225 -225 -225 -225 -225 -225 -225 -225 -225 -225 -225 -225 -225 -225 -225 -225 -225 -225 -225 -225 -225 -225 -225 -225 -225 -225 -225 -225 -225 -225 -225 -225 -225 -225 -225 -225 -225 -225 -225 -225 -225 -225 -225 -225 -225 -225 -225 -225 -225 -225 -225 -225 -225 -225 -225 -225 -225 -225 -225 -225 -225 -225 -225 -225 -225 -225 -225 -225 -225 -225 -225 -225 -225 -225 -225 -225 -225 -225 -225 -225 -225 -225 -225 -225 -225 -225 -225 -225 -225 -225 -225 -225 -225 -225 -225 -225 -225 -225 -225 -225 -225 -209 -209 -209 51 -193 -209 -209 -209 -209 -209 -209 -209 -209 -209 107 -209 -209 -209 105 106 107 106 105 105 107 110 108 107 106 106 107 109 108 -209 102 100 -193 -209 94 97 100 99 97 101 103 101 103 104 103 103 104 105 103 104 106 108 -193 -209 100 100 102 104 104 105 103 105 105 107 109 112 111 110 109 0 0 0 0 0
    0 0 0 0 0 0 0 0 0 0 0 0 0 0 0 0 0 0 0 0 0 0 0 0 0 0 0 0 0 0 0 0 0 0 0 0 0 0 0 0 0 0 0 0 0 0 0 0 0 0 0 0 0 0 0 0 0 0 0 0 0 0 0 0 0 0 0 0 0 101 101 -193 -209 275 -225 -225 -225 -225 -225 -225 -225 -225 -225 -225 -225 -225 -225 -225 -225 -225 -225 -225 -225 -225 -225 -225 -225 -225 -225 -225 -225 -225 -225 -225 -225 -225 -225 -225 -225 -225 -225 -225 -225 -225 -225 -225 -225 -225 -225 -225 -225 -225 -225 -225 -225 -225 -225 -225 -225 -225 -225 -225 -225 -225 -225 -225 -225 -225 -225 -225 -225 -225 -225 -225 -225 -225 -225 -225 -225 -225 -225 -225 -225 -225 -225 -225 -225 -225 -225 -225 -225 -225 -225 -225 -225 -225 -225 -225 -225 -225 -225 -225 -225 -225 -225 -225 -225 -225 -225 -225 -225 -225 -225 -225 -225 -225 -225 -225 -225 -225 -225 -225 -225 -225 -225 -225 -225 -225 -225 -225 -225 -225 -225 -225 -225 -225 -225 -225 -225 -225 -225 -225 -225 -225 -225 -225 -225 -225 -225 -225 -225 -225 -225 -225 -225 -225 -225 -225 -225 -225 -225 -225 -225 -225 -225 -225 -225 -225 -225 -225 -225 -225 -209 -209 -209 47 -193 -209 -209 -209 -209 -209 -209 -209 -209 107 108 -209 -209 -209 105 106 107 107 106 107 108 111 110 109 108 109 111 114 110 -209 104 102 102 100 96 99 102 103 101 105 106 105 105 106 105 106 106 108 104 106 109 115 114 120 -209 109 110 110 110 112 106 109 108 109 110 114 112 113 110 0 0 0 0 0
    0 0 0 0 0 0 0 0 0 0 0 0 0 0 0 0 0 0 0 0 0 0 0 0 0 0 0 0 0 0 0 0 0 0 0 0 0 0 0 0 0 0 0 0 0 0 0 0 0 0 0 0 0 0 0 0 0 0 0 0 0 0 0 0 0 0 0 0 0 -225 -225 -225 -225 -225 -225 -225 -225 -225 -225 -225 -225 -225 -225 -225 -225 -225 -225 -225 -225 -225 -225 -225 -225 -225 -225 -225 -225 -225 -225 -225 -225 -225 -225 -225 -225 -225 -225 -225 -225 -225 -225 -225 -225 -225 -225 -225 -225 -225 -225 -225 -225 -225 -225 -225 -225 -225 -225 -225 -225 -225 -225 -225 -225 -225 -225 -225 -225 -225 -225 -225 -225 -225 -225 -225 -225 -225 -225 -225 -225 -225 -225 -225 -225 -225 -225 -225 -225 -225 -225 -225 -225 -225 -225 -225 -225 -225 -225 -225 -225 -225 -225 -225 -225 -225 -225 -225 -225 -225 -225 -225 -225 -225 -225 -225 -225 -225 -225 -225 -225 -225 -225 -225 -225 -225 -225 -225 -225 -225 -225 -225 -225 -225 -225 -225 -225 -225 -225 -225 -225 -225 -225 -225 -225 -225 -225 -225 -225 -225 -225 -225 -225 -225 -225 -225 -225 -225 -225 -225 -225 -225 -225 -225 -225 -225 -225 -225 -225 -225 -225 -225 -225 -225 -209 -209 -209 45 54 65 -209 -209 -209 -209 -209 -209 105 108 110 111 -209 -209 -193 106 108 108 107 108 111 115 114 115 112 115 116 117 116 115 107 -193 105 -193 100 102 104 106 104 106 107 106 106 108 107 108 108 113 107 107 111 115 113 118 107 109 108 110 111 111 -193 108 105 107 110 115 113 118 114 0 0 0 0 0
    0 0 0 0 0 0 0 0 0 0 0 0 0 0 0 0 0 0 0 0 0 0 0 0 0 0 0 0 0 0 0 0 0 0 0 0 0 0 0 0 0 0 0 0 0 0 0 0 0 0 0 0 0 0 0 0 0 0 0 0 0 0 0 0 0 0 0 0 0 -225 -225 -225 -225 -225 -225 -225 -225 -225 -225 -225 -225 -225 -225 -225 -225 -225 -225 -225 -225 -225 -225 -225 -225 -225 -225 -225 -225 -225 -225 -225 -225 -225 -225 -225 -225 -225 -225 -225 -225 -225 -225 -225 -225 -225 -225 -225 -225 -225 -225 -225 -225 -225 -225 -225 -225 -225 -225 -225 -225 -225 -225 -225 -225 -225 -225 -225 -225 -225 -225 -225 -225 -225 -225 -225 -225 -225 -225 -225 -225 -225 -225 -225 -225 -225 -225 -225 -225 -225 -225 -225 -225 -225 -225 -225 -225 -225 -225 -225 -225 -225 -225 -225 -225 -225 -225 -225 -225 -225 -225 -225 -225 -225 -225 -225 -225 -225 -225 -225 -225 -225 -225 -225 -225 -225 -225 -225 -225 -225 -225 -225 -225 -225 -225 -225 -225 -225 -225 -225 -225 -225 -225 -225 -225 -225 -225 -225 -225 -225 -225 -225 -225 -225 -225 -225 -225 -225 -225 -225 -225 -225 -225 -225 -225 -225 -225 -225 -225 -225 -225 -225 -225 -225 -209 -209 -209 40 52 59 -209 -209 -209 -209 -209 -209 108 111 112 116 -193 -193 108 108 109 110 109 111 114 117 117 118 116 118 119 119 119 120 -193 -193 115 115 -209 106 107 109 106 109 110 109 110 114 112 113 114 118 115 112 117 117 114 119 -209 -209 106 108 109 108 -193 104 -193 -193 112 -193 120 -193 -193 0 0 0 0 0
    0 0 0 0 0 0 0 0 0 0 0 0 0 0 0 0 0 0 0 0 0 0 0 0 0 0 0 0 0 0 0 0 0 0 0 0 0 0 0 0 0 0 0 0 0 0 0 0 0 0 0 0 0 0 0 0 0 0 0 0 0 0 0 0 0 0 0 0 0 -225 -225 -225 -225 -225 -225 -225 -225 -225 -225 -225 -225 -225 -225 -225 -225 -225 -225 -225 -225 -225 -225 -225 -225 -225 -225 -225 -225 -225 -225 -225 -225 -225 -225 -225 -225 -225 -225 -225 -225 -225 -225 -225 -225 -225 -225 -225 -225 -225 -225 -225 -225 -225 -225 -225 -225 -225 -225 -225 -225 -225 -225 -225 -225 -225 -225 -225 -225 -225 -225 -225 -225 -225 -225 -225 -225 -225 -225 -225 -225 -225 -225 -225 -225 -225 -225 -225 -225 -225 -225 -225 -225 -225 -225 -225 -225 -225 -225 -225 -225 -225 -225 -225 -225 -225 -225 -225 -225 -225 -225 -225 -225 -225 -225 -225 -225 -225 -225 -225 -225 -225 -225 -225 -225 -225 -225 -225 -225 -225 -225 -225 -225 -225 -225 -225 -225 -225 -225 -225 -225 -225 -225 -225 -225 -225 -225 -225 -225 -225 -225 -225 -225 -225 -225 -225 -225 -225 -225 -225 -225 -225 -225 -225 -225 -225 -225 -225 -225 -225 -225 -225 -225 -225 -209 -193 -209 34 44 -209 -209 -209 -209 -209 -209 -209 115 114 115 117 117 115 112 111 112 113 114 116 116 118 119 119 118 118 119 119 -193 121 121 -193 -193 121 -193 117 119 116 109 113 114 112 114 116 115 115 116 119 118 115 117 117 115 119 105 108 107 108 112 110 -193 -209 -209 -209 -209 128 -209 -209 -209 0 0 0 0 0
    0 0 0 0 0 0 0 0 0 0 0 0 0 0 0 0 0 0 0 0 0 0 0 0 0 0 0 0 0 0 0 0 0 0 0 0 0 0 0 0 0 0 0 0 0 0 0 0 0 0 0 0 0 0 0 0 0 0 0 0 0 0 0 0 0 0 0 0 0 -225 -225 -225 -225 -225 -225 -225 -225 -225 -225 -225 -225 -225 -225 -225 -225 -225 -225 -225 -225 -225 -225 -225 -225 -225 -225 -225 -225 -225 -225 -225 -225 -225 -225 -225 -225 -225 -225 -225 -225 -225 -225 -225 -225 -225 -225 -225 -225 -225 -225 -225 -225 -225 -225 -225 -225 -225 -225 -225 -225 -225 -225 -225 -225 -225 -225 -225 -225 -225 -225 -225 -225 -225 -225 -225 -225 -225 -225 -225 -225 -225 -225 -225 -225 -225 -225 -225 -225 -225 -225 -225 -225 -225 -225 -225 -225 -225 -225 -225 -225 -225 -225 -225 -225 -225 -225 -225 -225 -225 -225 -225 -225 -225 -225 -225 -225 -225 -225 -225 -225 -225 -225 -225 -225 -225 -225 -225 -225 -225 -225 -225 -225 -225 -225 -225 -225 -225 -225 -225 -225 -225 -225 -225 -225 -225 -225 -225 -225 -225 -225 -225 -225 -225 -225 -225 -225 -225 -225 -225 -225 -225 -225 -225 -225 -225 -225 -225 -225 -225 -225 -225 -225 -209 -209 0 -193 -209 -209 49 -209 -209 -209 -209 -209 -209 117 116 116 118 119 118 115 115 116 116 118 120 119 119 120 121 119 119 120 118 -193 122 122 -209 -193 -193 123 119 121 118 110 115 115 114 115 117 116 116 118 119 119 115 119 117 116 120 117 116 118 118 124 -209 125 -209 -209 -209 -209 -209 -209 -209 -209 0 0 0 0 0
    0 0 0 0 0 0 0 0 0 0 0 0 0 0 0 0 0 0 0 0 0 0 0 0 0 0 0 0 0 0 0 0 0 0 0 0 0 0 0 0 0 0 0 0 0 0 0 0 0 0 0 0 0 0 0 0 0 0 0 0 0 0 0 0 0 0 0 0 0 -225 -225 -225 -225 -225 -225 -225 -225 -225 -225 -225 -225 -225 -225 -225 -225 -225 -225 -225 -225 -225 -225 -225 -225 -225 -225 -225 -225 -225 -225 -225 -225 -225 -225 -225 -225 -225 -225 -225 -225 -225 -225 -225 -225 -225 -225 -225 -225 -225 -225 -225 -225 -225 -225 -225 -225 -225 -225 -225 -225 -225 -225 -225 -225 -225 -225 -225 -225 -225 -225 -225 -225 -225 -225 -225 -225 -225 -225 -225 -225 -225 -225 -225 -225 -225 -225 -225 -225 -225 -225 -225 -225 -225 -225 -225 -225 -225 -225 -225 -225 -225 -225 -225 -225 -225 -225 -225 -225 -225 -225 -225 -225 -225 -225 -225 -225 -225 -225 -225 -225 -225 -225 -225 -225 -225 -225 -225 -225 -225 -225 -225 -225 -225 -225 -225 -225 -225 -225 -225 -225 -225 -225 -225 -225 -225 -225 -225 -225 -225 -225 -225 -225 -225 -225 -225 -225 -225 -225 -225 -225 -225 -225 -225 -225 -225 -225 -225 -225 -225 -225 -225 -209 -209 -209 -193 -193 -209 -209 46 -209 -209 -209 -209 -209 -209 116 117 118 120 121 120 119 118 118 119 121 122 121 120 122 123 121 120 123 119 -193 124 123 -209 -193 123 124 121 122 120 111 116 117 115 115 117 116 117 118 120 121 115 120 118 118 122 -209 -209 131 131 132 -209 131 134 -193 137 137 137 -193 -209 135 0 0 0 0 0
    0 0 0 0 0 0 0 0 0 0 0 0 0 0 0 0 0 0 0 0 0 0 0 0 0 0 0 0 0 0 0 0 0 0 0 0 0 0 0 0 0 0 0 0 0 0 0 0 0 0 0 0 0 0 0 0 0 0 0 0 0 0 0 0 0 0 0 0 0 -225 -225 -225 -225 -225 -225 -225 -225 -225 -225 -225 -225 -225 -225 -225 -225 -225 -225 -225 -225 -225 -225 -225 -225 -225 -225 -225 -225 -225 -225 -225 -225 -225 -225 -225 -225 -225 -225 -225 -225 -225 -225 -225 -225 -225 -225 -225 -225 -225 -225 -225 -225 -225 -225 -225 -225 -225 -225 -225 -225 -225 -225 -225 -225 -225 -225 -225 -225 -225 -225 -225 -225 -225 -225 -225 -225 -225 -225 -225 -225 -225 -225 -225 -225 -225 -225 -225 -225 -225 -225 -225 -225 -225 -225 -225 -225 -225 -225 -225 -225 -225 -225 -225 -225 -225 -225 -225 -225 -225 -225 -225 -225 -225 -225 -225 -225 -225 -225 -225 -225 -225 -225 -225 -225 -225 -225 -225 -225 -225 -225 -225 -225 -225 -225 -225 -225 -225 -225 -225 -225 -225 -225 -225 -225 -225 -225 -225 -225 -225 -225 -225 -225 -225 -225 -225 -225 -225 -225 -225 -225 -225 -225 -225 -225 -225 -225 -225 -225 -225 -225 -209 -209 -209 -209 -193 -193 -209 34 -209 -209 -209 -193 -209 -209 -209 -209 116 117 119 120 119 119 119 120 121 123 126 124 123 124 126 124 124 126 -193 123 127 126 126 123 124 124 122 123 121 113 117 119 118 117 118 117 118 120 121 122 116 120 118 -193 125 136 136 136 -193 136 137 135 137 138 137 138 138 139 138 137 0 0 0 0 0
    0 0 0 0 0 0 0 0 0 0 0 0 0 0 0 0 0 0 0 0 0 0 0 0 0 0 0 0 0 0 0 0 0 0 0 0 0 0 0 0 0 0 0 0 0 0 0 0 0 0 0 0 0 0 0 0 0 0 0 0 0 0 0 0 0 0 0 0 0 -225 -225 -225 -225 -225 -225 -225 -225 -225 -225 -225 -225 -225 -225 -225 -225 -225 -225 -225 -225 -225 -225 -225 -225 -225 -225 -225 -225 -225 -225 -225 -225 -225 -225 -225 -225 -225 -225 -225 -225 -225 -225 -225 -225 -225 -225 -225 -225 -225 -225 -225 -225 -225 -225 -225 -225 -225 -225 -225 -225 -225 -225 -225 -225 -225 -225 -225 -225 -225 -225 -225 -225 -225 -225 -225 -225 -225 -225 -225 -225 -225 -225 -225 -225 -225 -225 -225 -225 -225 -225 -225 -225 -225 -225 -225 -225 -225 -225 -225 -225 -225 -225 -225 -225 -225 -225 -225 -225 -225 -225 -225 -225 -225 -225 -225 -225 -225 -225 -225 -225 -225 -225 -225 -225 -225 -225 -225 -225 -225 -225 -225 -225 -225 -225 -225 -225 -225 -225 -225 -225 -225 -225 -225 -225 -225 -225 -225 -225 -225 -225 -225 -225 -225 -225 -225 -225 -225 -225 -225 -225 -225 -225 -225 -225 -225 -225 -225 -225 -225 -209 -209 -209 -209 -209 -193 -193 -209 -209 -209 -209 -209 -193 -209 -209 -209 -193 117 -193 120 120 120 121 121 122 123 125 128 128 126 126 129 128 129 128 -193 125 128 128 127 124 125 125 124 126 123 -209 -209 -209 -209 120 121 118 118 120 121 122 118 120 -193 -209 -209 -209 -209 138 139 138 139 138 139 139 138 139 139 139 139 138 0 0 0 0 0</data></disparity>
</opencv_storage>
