<?xml version="1.0"?>
<opencv_storage>
<gps_time_stamp>17005</gps_time_stamp>
<gps_x>1.5996046364307404e-002</gps_x>
<gps_y>2.0066784694790840e-002</gps_y>
<gps_z>-6.8683633580803871e-003</gps_z>
<image_time_stamp>4964</image_time_stamp>
<disparity type_id="opencv-matrix">
  <rows>80</rows>
  <cols>320</cols>
  <dt>s</dt>
  <data>
    0 0 0 0 0 0 0 0 0 0 0 0 0 0 0 0 0 0 0 0 0 0 0 0 0 0 0 0 0 0 0 0 0 0 0 0 0 0 0 0 0 0 0 0 0 0 0 0 0 0 0 0 0 0 0 0 0 0 0 0 0 0 0 0 0 0 0 0 0 113 115 114 113 110 108 109 109 109 110 112 113 113 111 112 115 110 112 110 110 110 110 111 112 111 115 110 114 113 112 112 111 110 109 107 110 107 108 107 -193 -193 111 115 111 112 112 113 112 113 112 112 110 111 111 111 109 111 109 109 110 108 109 110 106 106 105 104 105 107 108 114 110 110 112 111 112 113 111 112 110 112 113 111 112 112 111 112 110 110 109 108 108 109 109 108 107 109 108 110 111 111 112 112 112 112 111 113 113 112 113 110 110 110 110 110 111 110 112 112 113 115 116 115 118 111 111 113 113 113 113 111 111 110 113 114 111 110 109 109 113 110 111 110 110 109 110 111 111 108 111 109 111 110 113 113 112 112 112 111 112 112 111 111 110 110 110 111 111 111 110 111 111 111 113 112 115 112 111 112 113 113 113 113 115 112 118 120 121 122 122 122 122 121 120 119 119 114 112 112 113 112 113 112 115 113 115 117 117 119 122 122 123 119 119 119 119 118 116 112 114 111 114 115 112 114 115 115 117 116 116 115 113 118 121 122 132 137 139 138 145 141 142 144 143 144 142 0 0 0 0 0
    0 0 0 0 0 0 0 0 0 0 0 0 0 0 0 0 0 0 0 0 0 0 0 0 0 0 0 0 0 0 0 0 0 0 0 0 0 0 0 0 0 0 0 0 0 0 0 0 0 0 0 0 0 0 0 0 0 0 0 0 0 0 0 0 0 0 0 0 0 114 116 115 113 110 108 109 109 108 110 111 112 113 110 112 115 110 112 110 110 110 110 111 112 111 114 110 113 112 112 112 110 110 108 107 109 106 107 106 107 109 110 114 111 112 112 113 112 113 112 112 111 112 111 112 110 112 110 110 111 108 109 110 106 105 104 103 104 106 108 114 110 110 112 110 111 112 111 112 109 112 113 111 113 112 112 113 110 110 108 109 108 109 109 108 107 109 109 111 112 111 112 112 112 112 112 113 112 112 113 111 110 111 111 111 112 111 113 112 112 114 114 115 117 110 111 113 113 112 112 111 111 110 113 114 111 109 109 109 114 111 112 110 110 110 111 111 112 108 112 109 112 111 112 112 112 112 112 111 112 113 111 111 111 111 111 112 112 112 112 112 112 112 114 113 116 112 112 113 113 113 114 114 116 112 120 121 122 122 123 122 122 120 119 118 117 114 112 111 113 112 113 113 116 115 118 119 120 120 122 123 123 120 120 120 120 120 118 112 114 112 116 116 114 115 116 117 118 118 118 116 114 118 121 123 134 138 140 139 147 142 143 144 143 143 142 0 0 0 0 0
    0 0 0 0 0 0 0 0 0 0 0 0 0 0 0 0 0 0 0 0 0 0 0 0 0 0 0 0 0 0 0 0 0 0 0 0 0 0 0 0 0 0 0 0 0 0 0 0 0 0 0 0 0 0 0 0 0 0 0 0 0 0 0 0 0 0 0 0 0 115 116 114 113 111 108 109 109 108 109 110 110 111 109 111 114 110 112 110 110 110 110 111 111 111 114 110 113 112 112 111 110 110 108 107 109 106 107 106 106 109 110 114 111 111 112 112 112 112 112 112 111 112 113 113 112 113 111 110 111 108 109 109 105 105 104 104 105 107 108 114 110 109 111 110 111 112 110 111 109 112 113 111 113 113 113 114 110 111 108 109 108 110 109 108 107 109 109 112 112 112 112 112 113 113 112 113 112 112 112 110 110 111 111 110 112 111 112 112 111 112 113 114 117 109 110 114 113 112 112 111 110 109 113 114 111 109 110 110 114 111 112 110 110 110 111 111 112 108 112 109 112 111 113 112 112 111 112 111 112 112 111 112 112 112 112 114 114 115 115 114 114 114 115 114 117 113 113 113 113 113 114 115 116 113 121 121 123 123 123 123 122 121 120 119 118 115 113 112 114 113 115 115 118 117 120 120 121 121 122 123 123 121 121 120 121 120 119 114 115 114 117 117 115 116 117 118 119 119 119 117 116 119 122 126 134 138 139 138 146 141 142 143 143 143 142 0 0 0 0 0
    0 0 0 0 0 0 0 0 0 0 0 0 0 0 0 0 0 0 0 0 0 0 0 0 0 0 0 0 0 0 0 0 0 0 0 0 0 0 0 0 0 0 0 0 0 0 0 0 0 0 0 0 0 0 0 0 0 0 0 0 0 0 0 0 0 0 0 0 0 114 114 112 111 109 106 108 108 108 108 109 109 110 109 112 115 110 112 110 110 110 110 111 110 111 112 109 112 112 111 111 110 110 107 107 109 -209 107 106 107 110 111 115 111 111 111 111 112 112 112 112 111 112 114 114 114 115 113 112 113 109 109 110 106 106 105 106 107 109 110 115 110 109 111 110 110 111 110 111 109 112 114 112 114 114 113 114 110 111 108 109 109 110 109 108 108 110 110 113 112 112 113 113 113 113 112 113 111 111 112 110 110 112 111 110 112 110 111 110 109 112 112 113 117 108 109 114 114 112 111 110 110 110 113 114 111 110 111 111 115 112 113 111 111 110 112 112 112 109 112 109 112 111 112 111 111 111 111 110 111 111 111 111 111 112 112 114 114 115 116 115 115 115 115 115 117 114 113 113 113 113 114 115 116 113 121 121 122 122 123 122 121 121 120 119 118 115 115 114 115 115 116 117 119 119 121 120 121 121 122 123 122 121 121 120 121 120 119 116 116 115 117 118 116 117 118 119 120 120 120 119 118 121 123 127 133 136 138 137 144 141 142 143 143 143 142 0 0 0 0 0
    0 0 0 0 0 0 0 0 0 0 0 0 0 0 0 0 0 0 0 0 0 0 0 0 0 0 0 0 0 0 0 0 0 0 0 0 0 0 0 0 0 0 0 0 0 0 0 0 0 0 0 0 0 0 0 0 0 0 0 0 0 0 0 0 0 0 0 0 0 115 114 111 110 107 104 106 107 107 107 108 108 109 110 114 115 111 112 110 110 110 110 111 109 110 112 109 112 111 111 111 110 111 107 106 -193 -177 -193 -209 -209 -209 -209 -193 -193 110 111 110 111 111 111 111 110 112 114 114 116 115 114 112 115 109 110 110 106 106 107 107 107 108 109 115 110 109 111 109 110 111 110 111 109 112 114 112 114 114 113 114 110 110 108 109 109 110 109 108 108 111 111 114 113 113 114 113 113 113 113 113 111 112 113 110 111 114 113 112 113 111 111 111 109 112 112 112 115 107 108 113 113 112 111 110 110 110 112 114 111 110 111 112 115 113 113 112 111 110 112 112 112 109 111 109 112 111 112 111 111 111 111 110 111 111 111 110 111 111 111 113 114 115 116 115 116 115 116 116 118 114 114 113 114 113 114 116 117 114 121 122 122 122 122 122 121 121 120 120 118 116 115 115 116 116 117 118 120 120 121 121 121 121 122 122 122 121 120 120 121 120 -193 118 116 116 117 119 118 118 120 120 121 121 121 120 119 121 123 127 132 135 136 136 144 140 141 142 142 143 143 0 0 0 0 0
    0 0 0 0 0 0 0 0 0 0 0 0 0 0 0 0 0 0 0 0 0 0 0 0 0 0 0 0 0 0 0 0 0 0 0 0 0 0 0 0 0 0 0 0 0 0 0 0 0 0 0 0 0 0 0 0 0 0 0 0 0 0 0 0 0 0 0 0 0 116 113 109 110 107 103 105 105 104 106 107 109 110 111 116 116 112 113 111 111 111 111 111 109 111 111 109 112 112 111 111 110 111 107 106 -193 -209 -209 -193 -209 -209 -193 -193 -193 110 111 110 110 110 110 111 110 111 115 115 117 116 115 112 115 -209 -209 -209 -209 106 107 108 107 107 109 115 110 109 111 109 110 -193 111 111 110 112 114 112 115 114 114 114 110 110 108 109 109 110 110 108 109 112 112 115 114 113 114 114 114 114 113 113 111 113 115 112 112 115 115 114 115 113 112 110 108 110 109 109 111 106 107 111 112 112 111 110 109 109 112 113 111 110 110 111 114 112 112 111 110 110 111 111 112 109 111 109 112 112 114 112 112 111 112 111 113 112 111 110 112 111 112 114 115 116 116 116 116 116 116 116 119 115 114 113 114 114 114 117 118 116 121 123 123 123 123 122 121 121 119 120 116 114 114 113 116 118 118 120 121 121 122 122 122 122 122 123 122 121 121 120 120 119 -193 117 115 116 117 120 120 120 122 122 124 125 124 122 120 120 123 127 129 133 135 136 142 140 141 142 142 143 143 0 0 0 0 0
    0 0 0 0 0 0 0 0 0 0 0 0 0 0 0 0 0 0 0 0 0 0 0 0 0 0 0 0 0 0 0 0 0 0 0 0 0 0 0 0 0 0 0 0 0 0 0 0 0 0 0 0 0 0 0 0 0 0 0 0 0 0 0 0 0 0 0 0 0 118 115 -209 -209 -209 -209 -209 -209 -209 -209 -209 -209 -209 114 118 117 114 114 112 112 113 112 112 109 112 -193 -193 112 112 112 111 110 111 106 -193 -193 -209 -209 -193 -209 -209 562 -177 -193 -193 111 109 110 110 110 111 110 111 116 115 118 116 116 113 116 -209 -209 -193 -209 -193 114 116 110 107 -193 115 110 -193 110 109 -193 -193 -193 111 110 113 115 113 116 115 115 114 111 110 108 109 109 110 110 108 108 112 112 115 114 113 114 114 114 114 114 114 111 114 117 115 114 117 116 116 116 113 111 109 107 109 108 107 109 105 107 111 111 112 110 110 109 109 111 112 110 110 110 111 113 112 112 111 110 109 110 111 111 109 110 108 111 111 114 111 112 111 112 111 114 114 113 111 113 112 113 114 116 117 117 116 116 116 117 117 119 115 114 114 114 115 116 118 118 118 122 123 123 123 123 122 121 121 120 120 118 117 117 118 118 121 120 121 122 122 123 122 122 123 123 124 124 122 122 121 121 120 120 118 117 117 119 121 121 122 124 124 125 126 125 123 121 120 124 127 127 131 133 135 141 139 140 141 142 144 144 0 0 0 0 0
    0 0 0 0 0 0 0 0 0 0 0 0 0 0 0 0 0 0 0 0 0 0 0 0 0 0 0 0 0 0 0 0 0 0 0 0 0 0 0 0 0 0 0 0 0 0 0 0 0 0 0 0 0 0 0 0 0 0 0 0 0 0 0 0 0 0 0 0 0 -209 -209 -209 -209 -209 -209 -209 -209 -209 -209 -209 -209 -209 117 119 119 117 116 114 115 115 114 -193 -193 -193 -193 -193 111 112 111 110 109 111 107 -209 -177 -177 -209 -209 -209 -209 -193 -177 -177 -193 -193 -193 110 110 111 112 112 113 117 117 120 118 117 -193 117 -209 -209 -193 -209 -209 -209 -209 -209 -209 -209 -193 -193 -193 -193 -193 -193 -193 -193 111 111 113 116 114 117 115 116 114 111 109 108 108 109 110 110 108 108 111 112 115 114 113 114 114 114 114 114 114 111 115 -193 -193 -193 117 117 114 -209 112 108 106 105 -193 101 103 104 102 104 110 111 111 110 109 108 109 110 111 110 110 110 111 113 112 112 111 110 109 110 111 111 109 110 108 110 111 113 111 112 111 111 111 115 115 114 111 114 113 113 115 116 117 118 116 117 117 117 118 120 116 115 114 115 116 116 118 119 118 122 123 123 122 122 122 121 120 120 120 119 121 122 123 123 126 124 124 124 124 125 123 123 123 124 125 124 123 122 122 123 123 123 121 120 121 121 123 124 124 125 124 125 125 125 124 122 121 123 127 128 132 134 135 142 139 141 141 142 144 144 0 0 0 0 0
    0 0 0 0 0 0 0 0 0 0 0 0 0 0 0 0 0 0 0 0 0 0 0 0 0 0 0 0 0 0 0 0 0 0 0 0 0 0 0 0 0 0 0 0 0 0 0 0 0 0 0 0 0 0 0 0 0 0 0 0 0 0 0 0 0 0 0 0 0 130 -209 -209 -209 -209 -209 -209 -209 -209 -209 -209 -193 127 119 121 120 118 117 116 117 116 116 -209 -193 -193 -193 -193 -193 114 114 112 110 114 -193 -209 -177 -209 -209 -209 -209 -209 -209 -209 565 -209 -193 -193 -193 -177 -177 113 114 117 119 119 122 120 -209 -193 118 -209 -209 -209 -209 -209 -209 -209 -209 -209 -209 -193 -193 -193 -193 -193 560 561 561 -193 112 -193 117 115 119 116 115 114 110 108 106 107 108 109 -193 -193 108 111 112 116 115 114 115 115 115 114 114 114 111 -193 -193 -209 -209 -209 -209 -209 -209 -209 -209 -209 -209 -209 90 102 102 95 103 109 111 111 109 109 108 109 110 111 110 110 110 112 114 113 113 112 111 111 112 112 112 109 109 108 110 111 114 111 112 110 112 112 115 116 114 111 114 112 113 115 115 117 117 116 117 118 118 119 120 117 116 115 115 117 117 118 119 118 121 122 122 121 121 121 118 118 120 120 119 121 124 125 125 130 130 129 127 128 127 124 124 124 124 125 124 124 123 122 124 125 126 125 123 125 124 125 127 127 126 124 125 124 123 123 122 120 122 127 130 134 134 136 144 140 141 141 141 143 142 0 0 0 0 0
    0 0 0 0 0 0 0 0 0 0 0 0 0 0 0 0 0 0 0 0 0 0 0 0 0 0 0 0 0 0 0 0 0 0 0 0 0 0 0 0 0 0 0 0 0 0 0 0 0 0 0 0 0 0 0 0 0 0 0 0 0 0 0 0 0 0 0 0 0 133 -209 -209 -209 -209 -209 -209 -209 132 132 -209 125 127 120 122 121 118 -193 117 118 -193 -193 -209 -209 -193 -193 -193 -209 118 -209 117 117 118 -193 -209 -209 -209 -193 126 130 -209 -209 -209 -209 -209 -209 -209 -177 -177 -177 116 117 121 123 124 126 128 125 -209 122 -193 -209 -209 -209 -209 -209 -209 -209 -209 126 123 -209 -193 -193 558 559 561 562 -193 -193 -193 118 117 -193 118 115 113 109 107 -193 -193 109 111 -193 -193 -193 116 116 118 116 116 117 116 117 116 116 116 113 -193 -193 -209 -209 -209 -209 -209 -209 -209 -209 -209 -209 -209 -209 -209 -209 92 104 112 113 112 109 109 108 109 110 111 110 111 111 113 115 115 115 113 113 113 114 114 113 109 109 107 109 110 113 111 112 110 113 115 117 117 117 114 118 115 115 116 115 117 118 116 118 119 120 119 121 118 116 115 116 117 117 118 119 117 120 121 121 121 120 120 116 118 120 120 121 122 126 128 129 131 132 130 128 129 127 124 124 124 124 125 123 125 123 123 128 129 130 129 127 128 126 128 128 127 126 124 125 124 123 123 122 121 123 128 131 134 133 135 145 140 141 141 142 143 142 0 0 0 0 0
    0 0 0 0 0 0 0 0 0 0 0 0 0 0 0 0 0 0 0 0 0 0 0 0 0 0 0 0 0 0 0 0 0 0 0 0 0 0 0 0 0 0 0 0 0 0 0 0 0 0 0 0 0 0 0 0 0 0 0 0 0 0 0 0 0 0 0 0 0 134 135 -193 131 131 132 131 132 130 130 129 128 128 123 124 -193 -193 -209 -209 -193 -193 -209 -209 -209 -209 -209 -209 -209 -209 -209 122 123 122 126 126 127 130 127 127 131 130 -193 -209 -209 -209 -209 -209 -209 -177 -177 119 120 123 126 128 128 131 129 -193 126 129 128 -209 -209 -209 -209 128 128 125 129 127 127 -193 -193 558 559 562 562 -193 -209 -209 -209 -209 127 123 121 121 -193 -209 -209 -193 -193 -193 -193 -193 -209 122 120 121 118 118 119 119 120 119 119 120 118 121 -209 -209 -209 -209 -209 -209 -209 -209 -209 -209 -209 -209 -209 -209 -209 -209 -193 121 118 117 111 111 107 110 112 112 111 113 114 116 117 118 118 117 117 118 118 117 116 113 111 108 113 113 116 113 115 115 117 119 121 119 120 119 125 124 126 135 -193 128 134 123 123 123 125 123 124 119 118 117 117 118 118 119 119 118 120 121 120 120 119 119 115 118 121 121 121 124 130 131 131 132 132 130 128 128 127 124 123 124 123 125 124 127 125 127 131 132 132 131 130 130 128 129 129 128 127 125 125 126 125 125 124 122 124 128 131 134 133 135 144 140 141 141 142 143 142 0 0 0 0 0
    0 0 0 0 0 0 0 0 0 0 0 0 0 0 0 0 0 0 0 0 0 0 0 0 0 0 0 0 0 0 0 0 0 0 0 0 0 0 0 0 0 0 0 0 0 0 0 0 0 0 0 0 0 0 0 0 0 0 0 0 0 0 0 0 0 0 0 0 0 133 133 133 131 131 132 130 130 129 129 128 128 128 125 125 127 -193 -193 -209 122 123 124 -209 -209 -209 -209 -209 -209 -209 -209 133 132 127 130 130 130 131 128 127 131 130 132 -193 -209 -209 126 -209 -193 -193 121 121 122 127 129 131 130 133 131 128 128 130 129 130 -193 128 -193 129 130 127 131 129 130 127 126 -193 -193 -193 -193 -193 -193 126 133 134 133 129 126 126 125 124 124 -193 124 124 -193 -193 -193 125 124 126 121 121 124 122 123 122 122 123 122 124 124 -193 -209 -209 -209 -193 -209 -209 -209 -209 -209 -209 -209 -209 -193 125 125 125 123 123 122 119 111 115 118 116 116 119 120 120 120 121 121 120 122 124 123 122 123 123 124 119 123 121 -193 118 120 121 121 123 124 123 124 124 130 132 134 137 137 137 138 137 134 130 132 131 129 123 120 119 120 121 120 120 121 120 121 122 121 121 119 119 117 119 122 122 123 126 131 132 132 132 132 131 129 130 129 125 124 125 124 126 126 131 128 131 133 134 133 133 132 132 131 131 130 130 129 126 128 129 128 127 126 123 124 128 132 135 134 136 145 141 142 142 142 143 142 0 0 0 0 0
    0 0 0 0 0 0 0 0 0 0 0 0 0 0 0 0 0 0 0 0 0 0 0 0 0 0 0 0 0 0 0 0 0 0 0 0 0 0 0 0 0 0 0 0 0 0 0 0 0 0 0 0 0 0 0 0 0 0 0 0 0 0 0 0 0 0 0 0 0 133 132 131 130 130 131 129 129 128 126 126 127 126 125 124 126 123 123 123 123 124 124 -193 -209 -193 -193 -209 131 135 135 134 133 129 131 130 130 131 127 127 130 129 130 129 -193 126 127 -193 -193 -193 124 126 127 132 132 131 130 132 -193 129 129 130 129 130 128 -193 -193 129 130 128 132 130 130 129 129 130 130 132 132 -193 134 132 135 135 134 132 129 129 128 129 128 128 127 126 128 128 -193 127 126 130 126 126 131 127 127 128 126 126 125 126 125 -209 -209 -209 -209 -209 -209 -209 -209 -209 -209 -193 -209 -193 128 127 129 130 128 129 130 128 128 121 128 122 122 123 124 123 123 124 125 123 127 130 129 130 131 132 132 129 132 128 131 123 125 125 124 125 127 126 127 127 131 133 134 136 136 136 137 136 135 133 134 134 131 133 123 123 123 125 123 122 123 122 123 125 123 122 121 121 119 121 124 124 125 129 132 133 134 133 132 132 131 131 131 128 126 126 126 129 129 133 131 133 134 134 134 134 133 133 132 132 131 131 130 127 129 130 130 129 127 124 124 129 133 136 135 136 147 141 142 142 142 143 143 0 0 0 0 0
    0 0 0 0 0 0 0 0 0 0 0 0 0 0 0 0 0 0 0 0 0 0 0 0 0 0 0 0 0 0 0 0 0 0 0 0 0 0 0 0 0 0 0 0 0 0 0 0 0 0 0 0 0 0 0 0 0 0 0 0 0 0 0 0 0 0 0 0 0 132 131 131 130 130 131 129 129 128 126 126 126 126 125 124 124 122 123 123 123 124 124 125 125 126 132 -209 130 133 134 132 132 129 131 130 131 132 128 127 130 128 130 128 128 127 127 132 -193 126 129 130 131 133 133 132 130 131 -193 130 130 130 129 131 129 131 129 128 129 127 132 129 130 129 129 130 131 132 133 130 135 134 135 136 135 132 131 130 129 131 129 130 129 128 130 131 129 129 127 132 130 132 134 131 131 132 130 128 127 128 -193 -209 -193 -209 -209 -209 -209 -209 -193 -209 -193 -193 131 127 130 129 130 132 131 132 133 132 133 128 133 128 126 128 128 127 127 126 129 125 131 132 131 132 132 133 133 132 133 131 134 129 128 129 127 128 130 129 130 130 132 133 134 136 135 135 137 136 135 134 134 134 132 134 129 128 129 130 128 125 125 124 125 127 125 123 122 122 121 123 126 126 128 130 133 134 134 134 132 133 133 132 133 132 128 128 129 132 132 134 133 135 134 135 134 134 134 133 133 133 131 132 131 128 129 131 130 130 128 127 125 131 136 139 138 138 148 142 143 143 143 143 143 0 0 0 0 0
    0 0 0 0 0 0 0 0 0 0 0 0 0 0 0 0 0 0 0 0 0 0 0 0 0 0 0 0 0 0 0 0 0 0 0 0 0 0 0 0 0 0 0 0 0 0 0 0 0 0 0 0 0 0 0 0 0 0 0 0 0 0 0 0 0 0 0 0 0 131 131 131 131 129 130 128 128 128 126 125 126 125 125 124 124 122 123 123 123 124 124 -193 -193 -193 132 133 130 133 134 132 132 129 131 130 131 132 128 127 130 128 130 128 128 127 127 132 132 128 130 130 131 133 132 131 129 131 130 130 129 130 128 130 128 130 128 127 127 127 132 129 129 129 129 130 131 132 133 129 135 133 134 136 135 132 131 130 129 131 130 131 130 128 130 131 130 130 129 133 131 133 135 132 132 133 131 129 128 129 -193 -193 -193 -193 -193 129 132 131 131 132 130 132 132 129 131 130 131 133 132 133 133 131 133 131 134 131 130 131 131 130 131 129 131 127 132 132 132 132 133 134 134 132 133 132 134 132 131 131 130 131 132 131 131 131 133 133 134 135 135 135 136 136 134 133 134 134 133 135 133 133 133 133 132 128 127 126 127 128 126 124 122 122 123 127 129 128 131 131 134 134 134 134 132 133 133 131 134 134 129 129 131 133 133 135 134 135 134 135 135 134 134 134 133 133 131 133 130 128 128 130 130 131 131 132 132 135 140 142 140 141 148 143 144 144 144 144 143 0 0 0 0 0
    0 0 0 0 0 0 0 0 0 0 0 0 0 0 0 0 0 0 0 0 0 0 0 0 0 0 0 0 0 0 0 0 0 0 0 0 0 0 0 0 0 0 0 0 0 0 0 0 0 0 0 0 0 0 0 0 0 0 0 0 0 0 0 0 0 0 0 0 0 130 130 130 130 128 129 127 128 127 126 125 126 125 125 124 124 122 123 123 123 123 124 124 124 125 131 133 130 132 133 131 132 130 131 131 131 132 128 128 130 128 130 128 129 127 127 132 131 128 130 129 131 132 131 131 128 130 129 128 129 129 127 129 127 129 128 127 127 127 132 129 129 130 129 130 132 132 133 130 135 134 134 135 135 132 131 131 129 130 130 130 130 127 130 130 130 130 128 131 130 132 134 131 131 132 131 129 128 129 127 123 126 128 127 129 132 131 131 131 131 132 131 128 130 129 130 133 132 132 133 131 133 132 135 132 131 132 132 131 132 130 132 128 133 133 132 133 133 134 134 132 133 133 135 133 132 132 131 132 133 132 132 131 132 133 133 135 134 133 135 135 134 133 134 134 132 135 135 134 134 135 133 131 130 129 129 130 129 125 124 124 125 131 131 131 132 131 134 134 134 134 132 133 133 131 133 133 130 129 130 132 132 135 134 135 134 135 135 134 134 134 133 133 132 133 130 128 129 130 130 131 133 134 134 136 142 144 142 144 148 144 145 144 144 144 143 0 0 0 0 0
    0 0 0 0 0 0 0 0 0 0 0 0 0 0 0 0 0 0 0 0 0 0 0 0 0 0 0 0 0 0 0 0 0 0 0 0 0 0 0 0 0 0 0 0 0 0 0 0 0 0 0 0 0 0 0 0 0 0 0 0 0 0 0 0 0 0 0 0 0 130 130 129 130 129 130 128 128 128 127 126 126 125 126 125 125 123 123 122 122 122 123 123 123 124 129 133 130 132 133 131 132 131 131 130 130 132 128 127 130 128 129 128 129 128 127 132 131 128 130 129 130 131 130 130 128 129 128 128 128 128 126 128 126 129 127 127 128 128 133 129 130 130 130 131 132 132 133 130 136 134 134 135 135 132 131 131 130 130 130 130 130 127 129 130 130 130 127 131 129 132 134 131 131 132 131 130 129 130 127 124 126 129 127 129 132 131 131 132 131 132 131 129 130 129 130 132 131 132 133 131 133 132 134 132 131 132 132 131 132 130 132 128 133 132 132 133 133 134 133 132 133 133 134 133 132 133 131 132 133 132 132 131 132 133 133 134 133 133 135 134 134 133 134 133 132 135 135 135 135 135 134 133 132 131 131 131 132 129 127 127 128 134 132 132 133 131 133 133 134 133 130 134 134 133 136 136 134 134 133 133 135 135 134 136 134 134 134 134 134 133 132 133 131 132 131 130 131 132 133 133 134 136 136 138 141 142 142 143 147 143 143 143 142 143 142 0 0 0 0 0
    0 0 0 0 0 0 0 0 0 0 0 0 0 0 0 0 0 0 0 0 0 0 0 0 0 0 0 0 0 0 0 0 0 0 0 0 0 0 0 0 0 0 0 0 0 0 0 0 0 0 0 0 0 0 0 0 0 0 0 0 0 0 0 0 0 0 0 0 0 131 130 130 131 129 130 128 128 129 127 127 127 125 127 126 126 124 124 123 123 123 124 123 124 124 132 134 131 132 133 131 132 131 131 129 130 131 128 128 130 128 128 128 129 128 127 132 131 128 130 130 131 131 130 130 128 129 128 128 128 128 125 128 125 129 127 127 128 129 133 129 130 130 130 131 132 132 132 130 135 133 133 135 135 132 131 131 130 130 130 130 129 126 129 130 130 130 127 130 129 132 134 131 131 132 131 130 129 130 128 124 127 129 127 129 132 132 132 132 131 132 131 129 130 128 130 132 130 131 132 131 133 132 134 131 131 132 132 131 131 130 131 128 132 132 131 133 133 134 133 133 133 133 134 133 132 133 131 132 133 131 131 131 131 132 132 134 133 132 134 134 134 133 134 133 132 135 135 135 135 135 135 134 133 132 132 132 132 130 129 129 130 136 133 133 133 131 133 133 134 133 126 133 134 132 135 135 135 135 134 134 135 134 134 135 134 133 133 133 133 132 132 133 130 132 133 132 132 134 135 135 136 137 137 139 141 141 142 142 145 143 142 142 142 143 143 0 0 0 0 0
    0 0 0 0 0 0 0 0 0 0 0 0 0 0 0 0 0 0 0 0 0 0 0 0 0 0 0 0 0 0 0 0 0 0 0 0 0 0 0 0 0 0 0 0 0 0 0 0 0 0 0 0 0 0 0 0 0 0 0 0 0 0 0 0 0 0 0 0 0 131 130 130 131 130 130 129 128 129 127 127 127 125 128 126 126 124 124 124 124 124 126 124 126 126 133 133 131 132 132 130 131 130 131 128 130 131 128 127 129 127 128 127 129 127 127 131 131 127 130 130 132 132 131 131 129 129 129 129 129 127 125 127 125 130 128 127 128 129 133 129 130 130 129 131 131 132 131 129 134 132 132 133 134 132 131 131 130 131 131 131 130 126 129 130 130 130 127 130 129 132 134 131 131 132 131 130 129 130 128 125 127 129 127 130 132 132 131 132 131 132 130 127 129 127 129 131 129 131 132 131 133 131 134 131 131 132 131 131 131 130 131 128 132 132 131 132 132 134 133 133 133 133 134 134 132 133 131 131 132 131 131 131 130 132 132 134 133 131 134 134 133 133 134 133 132 135 135 135 136 135 135 134 133 132 132 133 133 131 131 131 132 136 133 133 133 131 132 133 133 132 125 132 133 133 136 136 136 136 135 135 135 135 134 135 134 133 133 133 132 133 132 133 131 133 133 133 133 134 135 136 136 137 138 140 143 140 142 142 144 142 142 142 142 143 144 0 0 0 0 0
    0 0 0 0 0 0 0 0 0 0 0 0 0 0 0 0 0 0 0 0 0 0 0 0 0 0 0 0 0 0 0 0 0 0 0 0 0 0 0 0 0 0 0 0 0 0 0 0 0 0 0 0 0 0 0 0 0 0 0 0 0 0 0 0 0 0 0 0 0 130 129 130 131 129 130 128 128 129 126 126 126 125 127 125 125 124 124 125 124 125 127 126 128 128 132 132 131 131 132 129 130 129 129 127 130 130 127 127 128 127 127 127 129 126 126 131 130 127 129 129 132 132 131 131 129 129 130 129 129 127 125 127 125 131 128 128 128 130 133 129 130 130 129 130 131 131 131 129 133 132 131 133 134 132 131 131 130 130 131 131 130 126 128 130 130 130 127 130 129 132 134 132 132 132 130 130 129 129 127 124 126 127 126 129 131 131 131 131 130 131 129 126 128 127 127 130 128 129 131 130 132 131 134 131 131 132 131 131 131 130 131 128 132 131 130 132 132 133 132 132 132 132 133 133 132 133 131 132 133 131 131 131 130 131 131 133 132 131 134 133 133 133 134 133 132 135 135 135 135 135 134 134 133 133 132 133 133 132 132 132 133 137 132 133 133 131 132 132 133 132 124 133 134 135 138 137 138 137 136 136 137 136 134 135 133 132 133 133 133 133 132 133 132 134 134 133 134 135 135 137 137 138 139 142 143 140 142 142 143 142 142 142 142 143 145 0 0 0 0 0
    0 0 0 0 0 0 0 0 0 0 0 0 0 0 0 0 0 0 0 0 0 0 0 0 0 0 0 0 0 0 0 0 0 0 0 0 0 0 0 0 0 0 0 0 0 0 0 0 0 0 0 0 0 0 0 0 0 0 0 0 0 0 0 0 0 0 0 0 0 130 129 128 131 129 129 128 128 129 126 126 126 125 126 125 124 123 125 126 124 126 128 127 128 129 132 131 130 130 130 127 128 128 127 126 129 129 127 127 128 127 128 127 129 126 127 131 130 127 129 128 131 131 130 131 129 129 130 129 128 127 125 127 125 131 129 128 128 131 133 129 130 130 128 130 130 131 130 128 133 131 131 132 134 132 131 131 130 130 131 131 130 125 128 130 130 130 127 130 130 132 134 132 132 132 130 130 129 129 127 124 125 127 125 129 131 131 131 131 130 131 129 127 128 127 128 130 128 130 131 130 132 131 134 131 131 132 131 131 131 130 131 127 132 131 130 132 132 133 132 132 132 132 133 134 132 133 132 132 133 132 131 131 130 131 131 133 132 130 133 133 132 133 133 133 132 134 135 134 135 135 134 133 132 132 132 133 133 131 132 132 133 137 132 133 132 131 132 132 133 132 124 133 135 136 138 138 138 138 136 136 137 136 135 136 133 132 132 134 133 134 133 134 133 135 135 134 135 135 136 137 138 138 140 142 142 140 142 141 142 142 142 142 142 143 145 0 0 0 0 0
    0 0 0 0 0 0 0 0 0 0 0 0 0 0 0 0 0 0 0 0 0 0 0 0 0 0 0 0 0 0 0 0 0 0 0 0 0 0 0 0 0 0 0 0 0 0 0 0 0 0 0 0 0 0 0 0 0 0 0 0 0 0 0 0 0 0 0 0 0 130 129 128 131 129 129 128 128 129 127 127 127 125 127 127 126 124 125 126 124 127 128 128 128 130 133 132 131 130 130 127 128 128 127 126 129 129 127 127 128 127 128 127 129 127 127 130 130 128 129 128 131 131 130 131 129 129 130 129 128 128 125 127 124 130 128 128 129 131 133 129 130 130 129 130 130 131 130 128 133 131 130 133 134 132 131 131 130 130 131 131 129 125 127 130 130 130 127 129 130 132 134 132 132 132 130 130 130 129 128 124 126 127 125 129 131 131 131 131 130 130 129 128 129 128 128 130 128 130 131 130 132 131 134 131 131 133 131 131 131 130 130 127 132 131 130 132 132 133 132 132 131 132 132 133 131 133 132 132 133 132 131 131 130 132 131 133 132 129 133 132 132 133 133 132 132 134 135 134 136 135 134 133 132 132 132 133 132 130 131 131 132 136 132 132 131 131 131 132 132 132 124 135 136 137 138 139 139 138 136 137 137 137 136 137 133 131 132 134 134 136 134 135 135 136 136 135 136 136 137 138 138 138 140 143 141 140 143 141 142 141 141 142 142 144 145 0 0 0 0 0
    0 0 0 0 0 0 0 0 0 0 0 0 0 0 0 0 0 0 0 0 0 0 0 0 0 0 0 0 0 0 0 0 0 0 0 0 0 0 0 0 0 0 0 0 0 0 0 0 0 0 0 0 0 0 0 0 0 0 0 0 0 0 0 0 0 0 0 0 0 130 130 128 130 129 128 128 128 129 127 128 128 127 129 129 128 125 126 127 124 127 128 128 128 130 134 132 132 131 131 128 128 128 128 126 129 129 127 126 128 127 128 127 129 126 127 130 130 129 129 128 131 132 131 132 130 129 130 129 128 127 124 126 123 127 126 128 127 132 133 130 131 131 130 131 130 131 130 128 132 130 130 132 133 131 131 131 130 129 131 130 128 124 127 129 128 129 127 128 129 131 133 132 132 132 130 131 131 130 128 125 127 127 125 128 130 130 130 130 129 130 129 127 129 127 128 129 127 129 131 130 132 130 134 131 131 132 131 130 130 130 130 127 132 131 129 132 132 132 131 131 130 131 131 133 131 132 132 132 133 132 131 132 130 132 131 133 132 129 133 132 132 133 133 132 132 134 135 134 136 136 134 134 132 132 132 133 132 130 131 131 132 136 131 132 131 130 131 132 133 133 125 137 139 140 139 140 140 139 137 137 137 137 137 137 133 129 -193 134 134 137 135 135 135 137 137 136 137 137 138 139 139 139 140 143 141 140 143 141 141 141 141 142 142 144 146 0 0 0 0 0
    0 0 0 0 0 0 0 0 0 0 0 0 0 0 0 0 0 0 0 0 0 0 0 0 0 0 0 0 0 0 0 0 0 0 0 0 0 0 0 0 0 0 0 0 0 0 0 0 0 0 0 0 0 0 0 0 0 0 0 0 0 0 0 0 0 0 0 0 0 130 130 -193 129 130 128 128 128 130 127 129 129 128 130 130 130 126 127 127 124 126 128 128 128 130 134 132 132 131 131 128 128 128 127 126 128 128 127 126 127 127 128 127 129 126 127 130 130 129 129 129 131 132 131 132 130 130 130 129 128 127 124 126 124 128 127 128 128 132 134 131 131 131 130 132 131 132 130 128 132 129 130 132 132 131 130 131 130 129 130 130 128 124 127 128 126 128 127 127 128 131 133 132 132 132 131 132 132 131 129 126 128 127 125 129 130 129 130 131 129 130 129 127 128 127 128 128 126 128 130 130 132 131 134 131 131 132 131 130 130 130 129 126 132 130 129 131 132 131 131 131 130 131 130 132 131 132 132 132 133 132 131 132 130 132 131 133 131 129 132 132 132 133 133 132 132 134 135 134 136 135 134 134 132 132 132 133 133 131 131 131 132 136 131 132 130 130 131 132 133 134 127 137 141 141 140 140 140 139 137 137 138 137 137 138 -193 129 128 135 -209 -193 137 136 136 137 137 137 137 138 139 139 139 139 141 143 141 140 142 140 139 140 140 141 142 143 145 0 0 0 0 0
    0 0 0 0 0 0 0 0 0 0 0 0 0 0 0 0 0 0 0 0 0 0 0 0 0 0 0 0 0 0 0 0 0 0 0 0 0 0 0 0 0 0 0 0 0 0 0 0 0 0 0 0 0 0 0 0 0 0 0 0 0 0 0 0 0 0 0 0 0 131 130 -193 128 130 -193 -193 -193 -193 -193 128 127 127 129 129 129 125 127 127 124 127 129 128 129 130 134 132 132 131 -193 127 128 127 127 125 128 127 127 125 127 126 128 127 128 126 127 129 130 129 129 129 131 133 132 132 131 130 131 130 129 128 125 128 125 129 128 129 128 132 134 131 132 131 130 132 130 131 129 128 131 128 129 131 132 130 130 131 130 129 130 130 127 124 127 128 125 128 127 127 128 131 133 132 133 133 131 132 132 131 130 126 128 127 125 129 129 129 131 131 129 -193 -193 127 129 127 128 128 126 128 129 129 132 131 134 131 131 132 131 130 130 129 129 126 131 130 128 131 132 130 130 131 129 131 130 132 130 132 132 132 133 132 131 132 130 132 131 133 132 130 133 132 132 133 133 132 132 134 134 134 136 135 134 134 133 132 132 133 133 131 131 131 132 136 131 131 129 130 130 132 133 134 128 138 142 143 142 142 141 140 138 138 138 138 138 138 136 131 132 136 -209 -193 139 138 137 137 138 138 138 140 140 140 140 140 142 142 141 140 142 139 139 140 140 141 142 142 146 0 0 0 0 0
    0 0 0 0 0 0 0 0 0 0 0 0 0 0 0 0 0 0 0 0 0 0 0 0 0 0 0 0 0 0 0 0 0 0 0 0 0 0 0 0 0 0 0 0 0 0 0 0 0 0 0 0 0 0 0 0 0 0 0 0 0 0 0 0 0 0 0 0 0 -193 -193 -193 126 127 -209 -177 -193 -193 -209 -209 121 125 127 128 127 124 127 127 125 128 130 130 131 132 134 132 132 130 -193 127 127 127 126 125 128 127 127 125 126 126 127 126 127 125 127 128 130 129 -193 -193 131 133 132 133 132 131 132 131 130 128 125 128 126 129 128 130 128 132 134 131 132 130 130 131 130 131 128 127 129 127 128 130 131 130 129 131 130 129 130 130 127 124 127 128 124 128 127 127 129 132 134 132 133 133 132 132 132 131 130 126 129 126 125 129 129 130 131 -193 -193 -193 -193 127 129 127 128 128 126 128 128 129 132 131 135 131 131 131 130 130 130 129 129 125 131 130 128 130 132 130 130 131 129 131 130 132 131 132 132 132 133 132 -193 132 130 132 132 133 132 130 133 133 133 133 133 132 133 134 135 134 136 135 134 133 132 132 131 133 132 130 130 130 131 136 130 130 129 131 131 132 133 134 131 138 142 145 142 142 142 140 138 139 139 138 138 138 136 133 134 137 -193 140 142 140 140 139 139 141 141 143 142 142 141 140 143 143 142 141 142 140 140 141 142 143 145 144 147 0 0 0 0 0
    0 0 0 0 0 0 0 0 0 0 0 0 0 0 0 0 0 0 0 0 0 0 0 0 0 0 0 0 0 0 0 0 0 0 0 0 0 0 0 0 0 0 0 0 0 0 0 0 0 0 0 0 0 0 0 0 0 0 0 0 0 0 0 0 0 0 0 0 0 -193 -193 -193 124 -193 -209 -177 -177 -193 -193 -209 119 123 125 127 127 124 128 128 126 129 131 132 131 132 134 131 131 -209 -209 126 126 126 126 125 127 127 127 125 125 126 127 126 127 125 127 128 130 -193 -209 -193 132 134 133 133 132 131 132 131 130 129 126 129 128 130 130 131 129 132 134 131 132 130 130 131 129 -193 -193 126 128 126 127 130 130 129 129 131 130 129 131 130 127 125 127 128 124 128 128 128 130 132 134 132 133 133 132 133 133 131 130 126 129 126 125 128 129 130 131 -193 -193 -193 -177 -193 129 127 128 128 126 128 128 129 133 132 135 131 131 131 130 130 130 129 129 124 131 129 127 129 132 128 130 130 128 130 129 132 130 132 132 132 133 132 -193 132 130 132 132 133 132 131 133 133 132 133 133 132 132 134 134 133 135 134 133 132 130 130 129 132 131 128 128 128 130 135 130 130 129 130 131 132 134 135 132 138 142 146 143 144 143 141 139 139 139 139 138 138 135 134 135 138 140 142 146 145 147 143 141 145 145 146 143 143 142 142 144 145 143 142 142 143 142 143 145 145 146 146 148 0 0 0 0 0
    0 0 0 0 0 0 0 0 0 0 0 0 0 0 0 0 0 0 0 0 0 0 0 0 0 0 0 0 0 0 0 0 0 0 0 0 0 0 0 0 0 0 0 0 0 0 0 0 0 0 0 0 0 0 0 0 0 0 0 0 0 0 0 0 0 0 0 0 0 -225 -225 -225 -193 -193 118 118 -193 118 118 119 119 123 125 127 127 125 128 128 126 130 132 134 133 134 -209 -193 -209 -193 -209 -193 125 126 126 127 127 128 128 125 126 126 129 126 127 126 128 129 131 -209 -209 -193 -193 -193 132 132 131 131 131 131 129 128 126 129 127 128 130 132 -193 132 134 132 132 130 130 131 129 -193 -193 126 128 -193 126 130 129 128 129 131 130 128 130 129 126 124 126 -193 -193 126 128 128 129 131 -193 132 133 133 133 133 133 132 131 127 131 126 124 127 128 129 131 -209 -193 -177 -177 -193 -193 128 128 128 127 128 127 129 133 132 136 131 132 131 131 131 130 129 129 124 131 129 127 129 132 128 129 129 127 130 128 131 130 131 132 132 133 132 -193 133 130 132 132 133 133 131 133 133 132 133 133 132 133 133 134 133 135 134 132 132 129 129 128 131 130 127 127 127 130 135 129 129 128 129 130 132 134 135 133 138 141 147 143 145 143 142 140 140 141 140 137 137 134 134 135 138 142 143 148 149 151 150 146 149 148 148 145 144 143 143 145 146 145 146 144 149 149 151 150 149 150 150 151 0 0 0 0 0
    0 0 0 0 0 0 0 0 0 0 0 0 0 0 0 0 0 0 0 0 0 0 0 0 0 0 0 0 0 0 0 0 0 0 0 0 0 0 0 0 0 0 0 0 0 0 0 0 0 0 0 0 0 0 0 0 0 0 0 0 0 0 0 0 0 0 0 0 0 -225 -225 -225 -225 -193 -193 -193 -209 118 118 120 120 127 126 129 128 125 126 126 124 -225 -225 135 -225 -225 -225 -209 -209 -193 -209 -209 -193 -193 -193 -193 -193 -193 -193 -209 -209 -209 -209 -209 -209 -193 -193 -209 -193 -209 -209 -209 -193 -193 -193 132 132 131 131 131 129 128 125 128 126 125 127 129 -193 131 134 132 132 131 131 132 -193 -193 -209 -209 -209 -209 124 131 128 126 128 131 130 128 -193 -193 -193 125 -209 -209 -209 125 127 126 128 130 -193 132 133 134 133 134 134 133 133 129 134 130 125 128 -193 129 -209 -193 -177 -177 -177 -177 -193 -193 129 127 127 127 126 129 -193 132 -193 132 132 131 131 131 131 129 129 124 131 130 128 130 132 128 129 129 128 130 128 131 129 130 132 132 133 132 -193 -193 -193 133 133 133 133 132 133 133 133 134 134 132 134 134 135 134 136 135 133 132 128 128 127 131 130 127 126 127 130 135 130 129 128 129 130 132 133 134 132 137 140 144 142 143 141 140 139 139 139 138 136 135 135 136 135 138 139 140 146 149 149 148 147 152 150 150 147 145 144 145 146 147 146 147 146 150 150 151 151 150 150 150 151 0 0 0 0 0
    0 0 0 0 0 0 0 0 0 0 0 0 0 0 0 0 0 0 0 0 0 0 0 0 0 0 0 0 0 0 0 0 0 0 0 0 0 0 0 0 0 0 0 0 0 0 0 0 0 0 0 0 0 0 0 0 0 0 0 0 0 0 0 0 0 0 0 0 0 -225 -225 -225 -209 134 -209 209 208 215 -209 -209 -209 -193 -193 -209 -193 -193 124 123 -193 -225 -225 -225 -225 -225 -225 -177 -209 -209 474 -209 -209 633 -177 -177 -177 -209 -209 -209 -193 -209 -209 -209 -209 -209 -209 -209 -193 -209 -209 -209 -209 -209 -193 -209 -193 -193 133 133 -193 -193 -193 -193 -193 -209 -193 -209 -193 -209 -209 -193 -193 -193 -209 -209 -209 -193 -209 -209 -209 -209 -209 128 123 123 126 131 130 127 130 -193 -209 126 -209 -193 -193 123 125 124 125 127 -193 131 133 134 134 135 135 135 134 133 137 134 129 130 -209 -209 -209 -193 -193 -177 22 25 -177 -193 127 125 126 123 123 127 -193 -193 -193 131 131 130 130 131 131 130 130 124 133 132 130 132 133 128 129 128 127 129 127 129 129 129 132 131 -193 -209 -193 -193 -193 132 133 132 133 132 133 133 133 134 134 132 135 135 137 135 137 -209 134 133 -193 126 125 130 130 126 125 125 130 135 129 128 127 129 129 132 133 134 131 137 138 143 141 141 140 139 138 138 138 138 136 135 136 136 137 139 142 143 149 150 151 151 151 153 153 151 148 146 145 146 147 148 147 147 147 151 151 152 151 151 151 151 152 0 0 0 0 0
    0 0 0 0 0 0 0 0 0 0 0 0 0 0 0 0 0 0 0 0 0 0 0 0 0 0 0 0 0 0 0 0 0 0 0 0 0 0 0 0 0 0 0 0 0 0 0 0 0 0 0 0 0 0 0 0 0 0 0 0 0 0 0 0 0 0 0 0 0 -209 -193 -193 146 149 -177 -209 -209 211 215 -193 -209 203 -209 -193 -177 -177 -177 -177 -193 -177 -177 417 418 -193 -225 -177 -177 485 476 478 -209 622 -177 -193 -193 -209 -209 -209 -209 765 -209 -209 -209 -209 -209 -209 -209 -209 -209 -209 -225 -225 -225 -225 -225 -225 -225 -225 -209 -209 355 361 361 363 366 369 385 -209 -209 -209 -209 -209 -209 -209 -209 -193 -177 12 14 13 14 -209 -193 116 122 129 -209 -209 -209 0 13 -193 -209 -209 -209 -193 -193 -193 -193 127 -193 -193 135 136 -193 137 138 138 137 137 141 -209 -209 -209 -209 -209 -209 -209 -209 -177 21 23 -177 16 -209 120 122 117 119 125 -193 -193 -193 131 131 129 130 131 132 130 130 125 134 134 132 132 133 128 128 127 126 128 -193 128 128 -193 -193 -209 -209 -193 -177 -193 -193 -193 134 132 133 133 134 134 134 135 135 132 136 136 139 -209 -209 -209 -209 -209 -209 -193 120 127 128 121 121 122 129 135 129 127 127 128 128 131 133 133 129 136 137 141 139 139 139 138 137 137 138 138 136 136 136 137 138 141 145 147 150 154 154 154 154 155 154 151 148 147 145 145 146 147 147 147 147 152 151 152 151 151 152 151 153 0 0 0 0 0
    0 0 0 0 0 0 0 0 0 0 0 0 0 0 0 0 0 0 0 0 0 0 0 0 0 0 0 0 0 0 0 0 0 0 0 0 0 0 0 0 0 0 0 0 0 0 0 0 0 0 0 0 0 0 0 0 0 0 0 0 0 0 0 0 0 0 0 0 0 -177 -209 -209 -209 -209 -177 149 150 160 172 -209 -209 200 -193 191 192 -193 -193 -193 -209 -209 416 416 -177 -193 -225 -225 -193 -177 -177 -193 -193 626 -193 -193 -193 148 149 -193 -193 -193 -209 -209 -209 -209 -209 -193 -177 -177 -209 -209 -225 -225 -225 -225 -225 -225 -225 -225 -193 -209 -209 363 365 368 372 -209 -209 -209 -209 -209 -209 -209 -209 -209 0 0 0 10 19 -209 -209 -209 -193 -209 -209 -209 -209 -209 -209 -209 -193 886 -209 -193 0 -209 -209 -193 -209 -209 0 -193 141 -193 -193 140 143 -193 -209 -209 -209 -209 -209 530 -209 -209 -209 -209 -209 -193 20 -209 -209 -193 -193 -209 111 109 114 122 -209 131 -193 -193 132 130 132 135 137 135 135 135 146 153 150 148 -209 -209 299 -209 -209 -177 303 -209 -209 -209 -209 -209 -209 -193 -209 -209 -209 -209 -193 131 134 133 134 136 136 137 137 134 137 140 144 -209 -209 -209 -209 -209 -209 101 112 122 -209 111 115 119 127 134 127 125 126 127 127 129 131 129 127 132 136 140 139 138 137 137 137 137 137 137 135 136 137 138 140 144 149 150 152 154 154 155 156 157 155 153 149 148 146 146 147 147 148 148 147 152 151 153 151 152 153 151 154 0 0 0 0 0
    0 0 0 0 0 0 0 0 0 0 0 0 0 0 0 0 0 0 0 0 0 0 0 0 0 0 0 0 0 0 0 0 0 0 0 0 0 0 0 0 0 0 0 0 0 0 0 0 0 0 0 0 0 0 0 0 0 0 0 0 0 0 0 0 0 0 0 0 0 -177 -193 -209 -209 -209 -209 151 151 155 166 166 158 -209 -209 -209 -193 187 189 -209 163 162 163 161 158 156 154 154 158 156 156 154 152 151 151 -193 -209 149 150 149 150 -193 153 153 153 152 -193 -209 -209 -209 -209 -193 -193 -225 -225 -225 -225 -225 -225 -225 152 -209 -209 -209 -193 -193 -193 -193 -193 -193 -209 -193 -193 -193 -209 -209 -209 -209 -193 -209 -193 -177 -209 -209 -209 -209 -209 -209 -193 -209 -209 -209 -193 886 -193 56 -209 52 53 -209 57 59 -209 -209 151 155 -209 -209 -193 -193 -193 523 525 -193 -209 -193 -209 -209 -209 -209 -209 -209 -193 -193 -209 -209 -209 -209 -209 -209 -209 -209 -209 -193 -209 -209 -193 139 140 148 151 153 156 155 156 156 156 157 157 -193 -193 -209 -209 -193 -193 -193 -193 -209 -193 -209 -193 -209 -209 -209 -193 -193 -193 -209 -209 -209 140 144 146 144 148 147 149 -193 -209 -209 -209 -209 -209 -209 332 -209 109 119 -209 -209 118 -209 -209 -209 -193 123 125 126 126 127 127 126 126 132 137 143 139 138 137 137 136 137 136 136 133 134 136 137 140 145 150 151 152 154 155 156 157 159 156 155 151 150 148 148 148 150 151 151 150 154 153 154 154 155 156 155 157 0 0 0 0 0
    0 0 0 0 0 0 0 0 0 0 0 0 0 0 0 0 0 0 0 0 0 0 0 0 0 0 0 0 0 0 0 0 0 0 0 0 0 0 0 0 0 0 0 0 0 0 0 0 0 0 0 0 0 0 0 0 0 0 0 0 0 0 0 0 0 0 0 0 0 -193 -193 156 155 155 154 152 153 155 159 156 155 156 157 -193 -193 -209 -209 -193 160 160 161 159 157 157 155 155 157 156 155 154 152 151 151 151 151 149 150 150 150 152 154 153 154 152 153 -209 -209 -209 -209 -209 155 153 156 157 153 150 152 151 152 -193 -193 153 154 155 159 160 160 162 -193 -209 353 -193 -209 -209 -193 573 -209 -209 679 -209 -209 -209 -209 -209 -209 -209 163 166 165 162 -209 -193 55 56 56 -209 -209 -209 60 -193 -193 -193 155 157 -209 -209 154 -193 -193 524 -193 516 -193 -193 -209 -193 -209 -209 -209 -209 -209 -209 -209 -209 -193 -193 -193 -209 -209 -209 -193 -209 -209 -209 -209 150 153 155 157 156 157 157 158 158 157 159 158 159 160 157 159 158 159 161 160 160 161 162 -193 162 -209 155 -193 -193 -193 -209 -193 -193 -193 154 157 153 155 155 156 156 -193 -193 -193 -209 -193 -193 -193 -209 -209 -209 -209 155 158 160 160 162 -193 -209 -209 -209 -209 -209 -209 121 127 126 138 146 141 139 139 138 138 137 137 137 133 135 138 138 141 146 150 152 153 155 155 156 157 158 157 157 155 153 152 152 151 153 154 156 154 157 155 156 156 157 159 160 161 0 0 0 0 0
    0 0 0 0 0 0 0 0 0 0 0 0 0 0 0 0 0 0 0 0 0 0 0 0 0 0 0 0 0 0 0 0 0 0 0 0 0 0 0 0 0 0 0 0 0 0 0 0 0 0 0 0 0 0 0 0 0 0 0 0 0 0 0 0 0 0 0 0 0 155 155 156 155 156 154 154 154 154 157 157 156 157 156 164 -193 -193 -193 159 159 0 -256 -1 -28899 157 155 155 158 156 155 154 153 152 151 152 152 149 150 150 150 152 154 154 154 152 152 151 -209 -209 162 156 156 155 158 158 155 153 154 153 153 -193 -193 152 154 154 158 158 158 161 161 162 -193 160 159 -193 -209 -177 -209 -209 -209 -209 -193 -209 -209 -209 -193 159 162 164 161 159 -193 -209 52 54 55 -193 -193 -209 -193 -193 -177 -177 156 156 155 153 154 156 158 -193 -209 -209 -209 -209 -209 -193 558 -193 -209 -209 -209 -209 -193 158 158 158 160 158 -209 -193 -209 163 160 157 156 155 156 158 158 157 157 157 158 159 158 159 158 159 160 158 160 159 160 160 160 160 160 161 160 160 -193 156 161 158 159 156 157 157 156 156 158 156 157 157 158 159 162 -193 -193 -209 -193 -193 -193 -209 161 159 158 159 163 166 164 164 165 -209 -209 -209 78 86 92 -209 -209 -209 132 143 141 139 139 139 139 139 138 138 136 137 141 141 145 149 152 153 154 155 156 156 157 158 157 157 157 156 156 157 156 157 156 159 157 158 155 155 155 157 160 162 162 0 0 0 0 0
    0 0 0 0 0 0 0 0 0 0 0 0 0 0 0 0 0 0 0 0 0 0 0 0 0 0 0 0 0 0 0 0 0 0 0 0 0 0 0 0 0 0 0 0 0 0 0 0 0 0 0 0 0 0 0 0 0 0 0 0 0 0 0 0 0 0 0 0 0 155 155 156 155 156 154 154 154 155 156 157 156 157 157 164 163 165 164 159 159 159 159 158 157 157 155 156 159 157 156 155 154 153 152 153 153 150 151 151 152 153 155 155 155 153 154 153 156 157 163 156 156 154 157 157 155 153 154 154 153 154 154 153 154 155 157 157 157 160 160 161 161 160 160 159 -193 -209 -209 -209 -193 -193 -193 -193 -193 157 157 159 162 162 159 158 156 -193 -193 53 -193 161 162 161 -193 156 157 160 155 155 154 153 153 155 156 156 -209 -209 -209 -209 -209 -209 -209 -209 -209 -209 -209 -193 160 158 158 158 159 157 -193 158 160 163 160 158 156 155 156 157 157 157 157 157 157 159 159 159 158 160 160 158 161 159 160 160 160 161 160 161 160 160 -193 159 162 160 160 158 158 158 157 157 158 156 157 156 157 159 160 -193 -193 -193 162 -193 -193 -193 163 162 161 161 163 165 -193 -193 -193 -209 -209 -209 -209 87 93 -209 -209 -209 -209 -193 140 137 139 138 140 140 139 140 138 142 147 148 149 152 154 155 155 156 157 156 157 159 157 158 158 157 158 159 157 158 156 159 157 156 154 154 155 157 159 161 162 0 0 0 0 0
    0 0 0 0 0 0 0 0 0 0 0 0 0 0 0 0 0 0 0 0 0 0 0 0 0 0 0 0 0 0 0 0 0 0 0 0 0 0 0 0 0 0 0 0 0 0 0 0 0 0 0 0 0 0 0 0 0 0 0 0 0 0 0 0 0 0 0 0 0 155 155 156 155 156 154 154 154 154 156 157 156 157 158 162 162 164 163 159 158 159 159 158 158 157 156 156 159 157 156 155 154 153 152 153 153 151 152 152 153 154 156 156 156 156 156 156 158 158 161 155 155 154 156 156 154 153 153 154 154 155 155 155 156 156 158 157 157 159 160 161 161 159 159 159 160 160 158 -193 156 157 160 160 157 157 157 159 161 161 159 158 157 157 -193 -193 -193 161 161 161 -193 157 158 161 156 155 155 153 154 155 156 156 -193 -193 -209 -209 -209 -193 -209 -209 -209 -209 -209 158 159 158 157 158 158 157 154 157 157 160 159 157 156 155 156 157 157 156 157 157 157 160 160 159 159 160 160 159 161 159 159 159 160 160 159 160 159 158 163 159 162 159 160 158 158 159 158 158 157 156 157 156 157 158 159 161 161 162 161 -193 -193 161 162 161 161 161 161 163 164 162 164 163 -193 -193 -209 -209 -209 -209 -209 -209 -209 -209 -209 -209 -193 143 144 142 141 145 143 147 150 152 151 155 155 156 156 157 157 156 157 159 156 158 158 157 159 161 -193 161 158 161 159 158 154 154 156 159 161 163 163 0 0 0 0 0
    0 0 0 0 0 0 0 0 0 0 0 0 0 0 0 0 0 0 0 0 0 0 0 0 0 0 0 0 0 0 0 0 0 0 0 0 0 0 0 0 0 0 0 0 0 0 0 0 0 0 0 0 0 0 0 0 0 0 0 0 0 0 0 0 0 0 0 0 0 156 155 156 155 156 154 154 154 154 156 156 156 157 157 161 162 163 163 159 158 159 159 158 158 157 156 156 159 156 156 156 155 153 153 153 153 151 153 153 153 154 156 156 156 157 157 158 159 159 160 156 156 155 156 156 154 153 153 155 154 155 156 155 156 156 157 157 156 158 159 159 159 158 159 159 161 160 158 157 157 158 160 160 158 157 157 158 160 160 158 157 157 157 -193 -193 -193 160 160 160 -193 157 159 162 158 156 156 155 155 156 156 156 156 156 -209 -193 -209 -193 -193 -193 -193 -193 -193 158 159 157 156 157 157 156 153 156 156 157 158 156 155 155 155 156 157 156 157 156 157 160 160 159 158 160 160 159 161 159 159 158 159 159 158 158 158 157 161 159 162 159 161 158 158 159 158 158 157 156 157 156 157 158 159 160 160 162 160 161 162 160 161 161 161 161 160 162 162 160 162 161 161 161 162 -193 -209 -209 -209 -209 -209 -209 -209 -209 152 154 152 151 151 153 151 151 153 154 153 157 156 157 158 158 159 157 158 159 156 158 158 158 162 -193 -193 165 163 165 165 163 158 157 158 161 163 164 164 0 0 0 0 0
    0 0 0 0 0 0 0 0 0 0 0 0 0 0 0 0 0 0 0 0 0 0 0 0 0 0 0 0 0 0 0 0 0 0 0 0 0 0 0 0 0 0 0 0 0 0 0 0 0 0 0 0 0 0 0 0 0 0 0 0 0 0 0 0 0 0 0 0 0 156 156 156 156 156 154 154 154 153 155 156 156 157 157 160 161 162 162 159 158 158 158 158 157 158 156 157 159 156 156 156 155 154 153 154 153 152 153 153 153 154 156 157 156 157 158 158 159 158 158 155 155 154 155 154 153 153 153 154 154 154 155 154 155 155 156 155 155 157 157 158 158 158 158 158 160 159 158 157 158 158 161 160 158 158 158 158 159 158 157 156 156 156 156 -193 -193 159 158 158 157 156 159 161 159 157 157 156 156 157 156 156 156 156 155 155 156 -193 157 158 158 158 158 158 158 157 156 156 156 155 153 155 156 157 158 156 156 155 155 156 157 156 157 156 158 160 160 159 159 160 160 159 161 159 158 158 159 158 157 158 158 157 161 159 163 159 161 159 159 159 158 158 157 156 157 156 158 158 159 160 160 161 160 161 161 159 161 160 160 161 160 162 161 159 162 160 161 161 162 162 158 -193 -193 -209 154 153 153 154 154 155 154 154 154 154 153 153 156 156 155 159 157 158 158 158 159 157 159 159 155 160 160 164 168 -193 -193 169 167 168 166 164 162 159 160 163 165 165 165 0 0 0 0 0
    0 0 0 0 0 0 0 0 0 0 0 0 0 0 0 0 0 0 0 0 0 0 0 0 0 0 0 0 0 0 0 0 0 0 0 0 0 0 0 0 0 0 0 0 0 0 0 0 0 0 0 0 0 0 0 0 0 0 0 0 0 0 0 0 0 0 0 0 0 155 155 156 155 156 154 154 154 153 155 156 156 157 157 160 160 162 162 159 158 158 158 158 158 158 156 157 159 156 156 155 155 154 153 154 154 153 154 154 154 154 157 158 157 158 158 158 158 157 157 155 155 154 154 153 153 153 153 154 153 154 154 154 155 154 155 154 154 155 156 156 157 156 157 157 159 158 158 158 159 159 161 160 158 158 158 158 158 157 157 156 156 156 156 157 158 158 158 158 157 156 159 160 159 157 157 156 157 156 157 156 156 155 155 154 155 156 156 157 157 157 157 157 158 157 155 155 155 154 153 154 155 156 157 156 156 155 156 156 157 156 157 156 158 160 160 159 159 160 160 159 161 159 158 158 159 158 157 158 157 156 160 158 162 159 161 159 159 159 158 158 158 156 158 156 158 158 159 160 160 161 159 161 161 159 160 160 160 160 159 161 160 159 161 160 160 161 162 162 158 -193 -193 -193 155 154 154 154 154 156 155 155 155 155 155 156 160 158 157 161 159 159 158 158 158 156 158 159 155 159 162 166 169 -193 167 167 165 164 163 161 162 161 163 165 166 166 166 0 0 0 0 0
    0 0 0 0 0 0 0 0 0 0 0 0 0 0 0 0 0 0 0 0 0 0 0 0 0 0 0 0 0 0 0 0 0 0 0 0 0 0 0 0 0 0 0 0 0 0 0 0 0 0 0 0 0 0 0 0 0 0 0 0 0 0 0 0 0 0 0 0 0 156 155 155 155 156 154 154 154 153 155 156 156 157 157 160 160 161 161 158 158 158 158 158 157 158 156 157 158 156 155 155 155 154 154 154 154 153 155 155 155 155 158 158 158 158 157 157 156 156 156 154 154 154 154 153 153 153 153 154 153 153 154 153 154 154 153 153 153 154 155 155 156 155 155 156 158 158 158 158 159 158 161 160 158 158 158 158 158 156 157 156 157 157 157 157 158 158 158 158 158 156 159 160 160 157 158 157 157 157 157 156 156 155 156 155 155 156 156 158 157 157 158 158 158 157 156 155 155 154 153 154 155 157 157 156 156 156 156 157 157 156 157 156 159 161 160 160 159 160 159 159 161 159 158 158 158 158 156 157 157 156 159 158 163 158 161 159 159 159 158 158 158 156 158 156 159 158 159 159 159 161 158 161 160 158 159 159 159 160 159 161 159 158 161 159 160 160 161 161 157 157 157 156 155 155 154 155 155 158 157 156 156 156 156 157 163 159 158 161 160 160 159 159 159 155 156 157 154 155 157 162 164 163 164 165 163 162 163 162 162 161 163 165 166 166 166 0 0 0 0 0
    0 0 0 0 0 0 0 0 0 0 0 0 0 0 0 0 0 0 0 0 0 0 0 0 0 0 0 0 0 0 0 0 0 0 0 0 0 0 0 0 0 0 0 0 0 0 0 0 0 0 0 0 0 0 0 0 0 0 0 0 0 0 0 0 0 0 0 0 0 156 155 155 155 155 154 155 154 153 155 156 156 157 157 159 159 161 161 158 158 158 157 158 157 157 156 156 158 155 155 155 155 154 154 155 154 154 156 156 157 155 159 159 157 157 156 157 156 156 156 154 154 155 154 154 153 154 154 156 154 154 154 153 154 154 153 153 152 154 154 155 155 155 155 156 158 158 159 158 160 158 161 159 158 158 158 158 157 156 157 156 158 158 158 158 159 158 158 158 158 157 159 160 160 158 158 157 158 157 157 157 157 155 156 156 157 157 157 159 158 158 159 158 158 157 156 155 155 154 152 154 155 157 157 156 156 156 156 156 156 156 157 156 161 161 161 160 159 160 159 159 161 158 158 157 158 158 156 157 156 156 159 158 162 158 161 159 159 159 158 158 158 157 158 156 160 159 160 160 160 161 158 160 160 158 159 159 159 160 159 160 158 158 160 159 159 160 160 160 157 158 158 156 155 155 154 155 156 158 157 157 156 157 157 158 164 160 159 162 160 160 159 159 159 154 155 155 153 153 154 156 156 157 159 162 162 162 163 161 161 160 162 164 164 165 165 0 0 0 0 0
    0 0 0 0 0 0 0 0 0 0 0 0 0 0 0 0 0 0 0 0 0 0 0 0 0 0 0 0 0 0 0 0 0 0 0 0 0 0 0 0 0 0 0 0 0 0 0 0 0 0 0 0 0 0 0 0 0 0 0 0 0 0 0 0 0 0 0 0 0 155 155 155 155 155 155 155 154 153 155 155 156 157 157 158 159 160 161 157 157 158 157 157 156 157 155 156 157 155 155 155 155 154 154 155 155 154 157 157 158 156 160 159 157 158 157 157 156 156 156 154 154 155 154 153 153 154 154 157 154 154 154 154 154 154 152 153 152 153 154 154 155 155 155 157 160 159 160 158 161 159 161 159 158 157 157 157 157 156 156 155 157 156 157 157 158 158 157 157 158 157 160 160 161 158 158 158 158 157 157 156 157 155 156 156 156 156 157 158 158 158 159 158 157 156 155 155 155 154 152 155 156 157 157 156 157 156 156 156 156 156 157 156 162 161 161 160 160 160 159 159 161 158 158 157 158 158 155 156 156 156 159 159 162 158 161 160 160 159 159 158 158 157 159 156 160 159 159 160 159 161 158 160 160 158 158 159 159 159 158 160 158 157 160 158 159 160 160 160 158 159 159 157 156 156 154 156 156 157 157 157 157 158 158 160 165 161 160 162 160 160 160 159 159 154 155 155 152 152 154 154 154 155 157 159 159 160 161 159 161 160 161 163 164 164 163 0 0 0 0 0
    0 0 0 0 0 0 0 0 0 0 0 0 0 0 0 0 0 0 0 0 0 0 0 0 0 0 0 0 0 0 0 0 0 0 0 0 0 0 0 0 0 0 0 0 0 0 0 0 0 0 0 0 0 0 0 0 0 0 0 0 0 0 0 0 0 0 0 0 0 154 155 155 155 155 155 155 154 153 155 155 155 156 157 158 158 159 160 157 158 158 156 157 156 156 155 156 157 155 155 155 155 155 154 155 155 154 157 157 158 156 159 159 157 158 157 158 156 156 155 154 153 154 153 153 152 154 153 157 155 155 155 155 155 155 153 153 153 154 155 155 155 155 155 157 160 160 160 158 161 158 161 159 158 157 157 156 156 155 156 155 157 156 157 157 158 158 157 157 159 158 161 160 162 159 159 160 159 158 157 157 157 155 156 155 155 155 156 157 157 157 158 157 157 157 156 156 156 155 154 156 157 157 157 156 157 156 156 156 155 156 156 156 162 161 160 160 159 160 159 159 161 157 157 157 158 157 155 156 156 156 159 159 162 158 161 160 160 159 159 158 158 157 159 157 159 158 159 159 158 160 157 160 160 158 158 159 158 159 158 160 158 157 159 158 158 159 160 160 159 159 159 157 156 157 156 157 156 157 158 158 158 160 159 161 165 161 160 162 160 160 159 159 159 154 154 154 151 151 152 152 152 153 154 156 157 158 159 158 160 161 161 163 164 164 163 0 0 0 0 0
    0 0 0 0 0 0 0 0 0 0 0 0 0 0 0 0 0 0 0 0 0 0 0 0 0 0 0 0 0 0 0 0 0 0 0 0 0 0 0 0 0 0 0 0 0 0 0 0 0 0 0 0 0 0 0 0 0 0 0 0 0 0 0 0 0 0 0 0 0 154 154 154 154 155 154 155 -193 -193 -193 -193 155 156 157 157 157 158 159 156 158 157 156 157 156 157 155 156 157 155 155 155 155 154 154 155 155 154 156 157 156 155 158 158 156 158 157 157 156 156 155 154 154 155 153 153 153 154 154 158 156 156 155 156 155 155 153 153 153 154 155 155 155 155 155 156 159 160 160 157 161 158 160 158 157 157 156 156 156 155 156 155 157 157 158 158 159 160 158 158 160 159 162 161 162 161 160 161 159 158 157 157 157 155 155 155 154 155 155 157 156 156 157 157 157 157 156 156 156 156 155 157 157 158 158 156 156 156 156 155 155 155 156 156 162 161 160 159 159 160 159 159 160 157 156 157 158 157 155 156 157 156 160 159 161 158 160 160 160 159 159 158 158 157 159 157 159 158 159 159 159 160 157 161 160 158 158 159 158 159 158 159 157 157 159 158 157 160 160 160 159 161 160 159 158 158 157 158 157 158 158 159 158 160 159 161 165 161 160 161 160 160 159 159 158 153 153 153 150 150 151 151 151 152 154 157 159 160 162 161 163 163 163 164 164 164 162 0 0 0 0 0
    0 0 0 0 0 0 0 0 0 0 0 0 0 0 0 0 0 0 0 0 0 0 0 0 0 0 0 0 0 0 0 0 0 0 0 0 0 0 0 0 0 0 0 0 0 0 0 0 0 0 0 0 0 0 0 0 0 0 0 0 0 0 0 0 0 0 0 0 0 153 154 154 154 155 154 155 -193 152 -209 -193 155 156 156 156 156 158 159 156 157 156 156 157 156 157 156 156 157 155 155 155 155 154 154 155 154 153 155 156 155 155 157 156 156 157 157 157 155 156 155 154 154 154 153 153 153 154 155 158 155 155 153 155 154 155 152 153 152 153 154 155 155 155 155 156 158 159 160 157 160 158 160 158 157 156 156 156 156 155 156 154 157 157 157 158 159 159 158 158 160 159 162 161 163 161 160 160 159 158 157 157 157 155 154 153 153 153 154 155 155 156 157 157 157 157 157 157 156 156 155 158 157 158 158 157 157 156 156 156 156 156 157 156 163 162 160 159 160 160 159 159 160 157 156 157 159 157 156 156 157 157 160 158 161 158 160 160 160 159 159 158 159 157 159 157 159 158 159 159 159 160 157 161 160 158 158 159 158 159 158 160 157 157 159 158 157 161 162 162 161 163 162 161 160 160 158 159 158 158 158 158 158 159 159 160 166 161 160 161 160 160 160 159 158 153 152 151 149 149 150 150 150 151 154 157 161 164 166 165 167 166 166 167 166 165 162 0 0 0 0 0
    0 0 0 0 0 0 0 0 0 0 0 0 0 0 0 0 0 0 0 0 0 0 0 0 0 0 0 0 0 0 0 0 0 0 0 0 0 0 0 0 0 0 0 0 0 0 0 0 0 0 0 0 0 0 0 0 0 0 0 0 0 0 0 0 0 0 0 0 0 153 -193 -193 154 155 154 155 -193 153 155 154 155 -193 -193 -193 155 156 158 155 157 156 156 157 156 157 156 156 156 154 154 154 154 154 154 155 154 153 155 155 154 155 -193 -193 156 156 156 156 155 155 154 154 153 153 151 151 152 -193 155 157 155 155 153 155 154 154 152 153 152 153 154 155 155 155 155 156 157 159 159 157 160 157 160 158 156 156 156 156 156 155 156 154 156 156 157 158 158 160 159 159 161 160 162 162 162 161 159 159 158 157 157 156 156 154 153 152 152 152 153 154 155 155 156 156 156 157 157 157 156 156 156 157 157 158 159 157 157 157 157 157 156 157 158 157 163 162 160 159 160 159 158 158 160 157 156 158 159 158 156 157 159 157 161 158 161 159 160 160 160 159 159 158 159 157 159 157 159 158 159 158 159 159 157 161 160 158 159 159 159 159 159 160 157 157 159 159 158 162 164 163 163 165 164 162 162 162 160 160 158 158 158 158 159 158 158 160 165 161 160 160 160 160 159 159 157 153 150 150 149 149 150 149 149 151 154 157 161 164 167 166 168 169 169 -193 -209 -193 -193 0 0 0 0 0
    0 0 0 0 0 0 0 0 0 0 0 0 0 0 0 0 0 0 0 0 0 0 0 0 0 0 0 0 0 0 0 0 0 0 0 0 0 0 0 0 0 0 0 0 0 0 0 0 0 0 0 0 0 0 0 0 0 0 0 0 0 0 0 0 0 0 0 0 0 155 -193 155 155 156 155 156 -193 154 156 154 155 -193 -209 -209 154 155 157 154 157 156 156 156 156 157 156 155 156 154 154 154 154 154 154 154 154 153 154 154 153 -193 -193 -193 -193 156 156 155 155 155 154 154 153 154 151 152 153 -209 -193 158 157 157 155 157 156 156 154 154 153 154 155 155 155 155 155 157 157 161 160 157 160 158 161 158 157 156 156 156 156 155 156 155 156 156 157 157 158 160 159 159 160 160 162 161 162 160 159 158 157 157 156 156 156 154 153 152 152 153 153 154 155 155 156 157 157 157 157 157 156 156 155 157 157 158 158 157 157 157 157 157 156 158 158 157 162 162 159 158 159 159 158 158 159 157 156 157 159 158 157 159 160 158 162 159 161 159 160 160 160 159 159 158 159 157 159 156 158 157 159 158 159 159 157 161 160 158 159 160 159 159 159 160 158 158 159 159 158 162 164 163 163 165 163 162 161 162 159 159 157 158 158 158 158 158 158 160 165 162 160 160 160 160 160 159 157 153 149 149 150 150 151 150 150 151 154 157 161 165 168 165 168 168 169 -209 -209 166 159 0 0 0 0 0
    0 0 0 0 0 0 0 0 0 0 0 0 0 0 0 0 0 0 0 0 0 0 0 0 0 0 0 0 0 0 0 0 0 0 0 0 0 0 0 0 0 0 0 0 0 0 0 0 0 0 0 0 0 0 0 0 0 0 0 0 0 0 0 0 0 0 0 0 0 158 157 156 156 156 157 157 -193 -193 -209 155 156 -193 -193 -193 152 153 155 153 156 155 154 155 156 157 155 155 156 154 154 154 154 154 154 154 154 153 154 154 -193 -193 -193 -193 -193 155 155 155 155 155 154 154 154 154 -193 153 -193 -209 -193 158 158 159 157 159 157 158 155 156 154 155 156 156 156 156 156 158 158 163 161 157 161 158 159 158 156 155 155 156 156 155 156 154 156 155 156 157 157 159 159 158 160 159 161 161 161 160 159 158 157 157 156 156 156 155 154 152 153 154 154 155 156 157 157 158 158 157 158 158 157 157 156 158 157 158 158 157 157 157 157 157 156 158 157 157 162 162 159 158 159 158 157 157 158 157 155 157 159 158 158 159 161 158 162 160 162 159 161 160 160 159 159 158 159 157 159 156 158 157 158 158 159 158 157 160 161 159 159 160 159 159 159 160 157 157 158 159 158 163 164 164 163 165 164 162 162 162 160 160 157 157 157 158 158 158 157 159 165 162 160 159 160 160 160 159 158 153 150 150 151 152 152 150 151 152 154 159 165 167 170 167 169 170 170 171 170 167 160 0 0 0 0 0
    0 0 0 0 0 0 0 0 0 0 0 0 0 0 0 0 0 0 0 0 0 0 0 0 0 0 0 0 0 0 0 0 0 0 0 0 0 0 0 0 0 0 0 0 0 0 0 0 0 0 0 0 0 0 0 0 0 0 0 0 0 0 0 0 0 0 0 0 0 158 157 156 157 157 158 158 159 -193 -193 155 157 156 156 150 151 -209 -193 -209 156 -193 154 155 156 158 156 156 156 154 155 155 155 154 154 155 155 153 156 -209 -209 -209 -209 -209 -209 155 156 156 156 156 -209 -209 -209 -209 -209 -193 -209 -209 156 157 158 160 158 161 157 159 156 158 156 157 157 157 157 158 157 159 158 164 162 157 162 159 158 157 154 153 154 155 156 155 155 153 154 155 155 155 156 159 159 159 160 159 160 161 161 160 160 158 157 157 156 156 156 155 154 152 153 153 153 155 156 157 157 158 158 158 158 159 157 157 156 158 157 158 158 157 157 157 157 157 156 158 157 157 161 162 158 157 158 158 157 156 158 156 155 157 159 157 158 159 161 158 162 161 161 159 161 160 160 159 159 158 159 158 159 156 158 157 158 159 159 158 158 160 161 160 159 160 159 159 159 159 157 157 157 159 157 163 165 164 163 164 164 162 161 161 160 160 158 157 157 157 158 159 157 157 164 162 159 159 159 159 160 159 158 154 151 152 153 154 153 151 152 152 155 161 169 169 171 169 171 172 173 174 172 168 -209 0 0 0 0 0
    0 0 0 0 0 0 0 0 0 0 0 0 0 0 0 0 0 0 0 0 0 0 0 0 0 0 0 0 0 0 0 0 0 0 0 0 0 0 0 0 0 0 0 0 0 0 0 0 0 0 0 0 0 0 0 0 0 0 0 0 0 0 0 0 0 0 0 0 0 157 157 155 156 157 160 161 162 -193 -209 156 163 159 -209 -209 -209 -209 -209 -209 -209 -209 -209 154 -193 159 156 156 157 155 155 155 155 155 154 155 155 153 160 -209 -209 -209 -209 -209 -209 156 157 156 156 157 -209 -209 -177 -209 -209 153 -193 -193 155 156 158 160 159 162 158 160 157 160 157 157 158 157 157 158 158 159 158 164 161 159 163 162 158 157 153 154 155 156 156 155 154 153 153 155 152 153 155 158 158 159 160 160 160 161 162 160 162 158 157 157 157 156 156 155 154 151 152 152 152 153 154 156 156 157 157 157 158 158 157 158 156 158 156 158 158 156 157 157 157 156 156 157 157 156 159 162 157 156 157 157 156 156 157 156 154 157 159 157 159 160 161 158 162 161 161 160 161 160 160 159 159 158 158 158 158 156 157 157 158 159 159 158 159 160 162 160 160 160 159 159 159 159 158 157 157 159 157 162 164 163 162 162 161 160 159 160 159 159 158 158 159 159 160 161 158 157 164 162 159 159 159 159 159 159 158 155 153 157 158 160 158 153 154 156 160 166 170 171 172 170 173 175 177 178 175 -193 -209 0 0 0 0 0
    0 0 0 0 0 0 0 0 0 0 0 0 0 0 0 0 0 0 0 0 0 0 0 0 0 0 0 0 0 0 0 0 0 0 0 0 0 0 0 0 0 0 0 0 0 0 0 0 0 0 0 0 0 0 0 0 0 0 0 0 0 0 0 0 0 0 0 0 0 158 -193 154 156 157 161 161 163 -193 -209 158 167 -209 -209 -209 -209 -209 -209 -193 -193 -193 154 155 -193 160 157 156 157 155 155 155 155 155 154 155 155 153 164 -209 -209 -209 -209 -209 -209 156 157 156 156 157 -209 -209 -177 -209 -209 -193 -193 -193 -193 156 159 160 -193 161 159 160 158 162 157 158 158 157 157 158 158 159 157 164 160 159 162 163 158 157 -193 154 155 156 156 156 154 -193 153 -209 -193 150 154 157 158 161 162 161 160 162 162 161 163 157 157 157 157 156 156 155 154 151 151 150 151 151 154 155 156 157 157 157 158 159 157 158 156 157 156 158 158 156 156 157 156 156 156 158 157 156 159 163 157 156 157 157 156 156 157 157 154 156 159 156 158 159 161 157 162 162 161 160 162 160 159 159 159 158 158 158 158 156 157 157 157 159 159 157 159 159 162 160 160 160 159 159 159 159 159 157 158 158 157 161 163 163 160 158 158 158 158 160 158 159 158 160 161 162 162 163 158 157 163 161 159 158 158 158 159 159 158 155 152 157 158 161 160 155 157 161 165 169 173 173 176 173 175 177 179 180 -193 -209 -193 0 0 0 0 0
    0 0 0 0 0 0 0 0 0 0 0 0 0 0 0 0 0 0 0 0 0 0 0 0 0 0 0 0 0 0 0 0 0 0 0 0 0 0 0 0 0 0 0 0 0 0 0 0 0 0 0 0 0 0 0 0 0 0 0 0 0 0 0 0 0 0 0 0 0 160 158 155 157 158 162 161 163 -193 -209 162 169 169 -209 -209 -209 -209 -209 -209 -209 -209 -193 156 -193 162 157 157 157 155 155 155 155 154 154 155 -193 153 -209 -209 -209 -209 -209 -209 -209 -193 157 156 156 -193 -209 -209 -177 -209 -209 -209 -209 -209 -193 156 158 159 159 161 159 161 158 163 157 158 157 157 157 158 157 159 157 164 161 163 -209 -209 -193 -193 -193 154 155 156 156 -193 -193 -209 -209 -193 -209 -209 154 156 159 162 163 161 160 163 161 160 163 157 157 157 157 156 156 156 155 151 152 151 151 -209 -193 -193 156 157 156 -193 158 158 156 157 156 156 155 157 157 156 156 157 157 156 157 158 158 157 159 163 158 156 158 157 156 156 157 156 154 156 158 156 158 160 162 158 163 163 162 161 163 161 160 159 159 158 158 157 158 156 157 157 157 159 159 157 159 159 162 160 161 161 160 159 160 160 159 158 160 160 159 163 164 164 162 161 158 158 156 157 156 157 157 159 159 161 160 161 158 157 162 160 158 158 158 158 158 158 157 155 153 156 157 158 158 156 159 164 168 170 175 175 179 179 179 180 180 180 -193 -193 125 0 0 0 0 0
    0 0 0 0 0 0 0 0 0 0 0 0 0 0 0 0 0 0 0 0 0 0 0 0 0 0 0 0 0 0 0 0 0 0 0 0 0 0 0 0 0 0 0 0 0 0 0 0 0 0 0 0 0 0 0 0 0 0 0 0 0 0 0 0 0 0 0 0 0 163 162 157 159 159 -193 -193 163 -193 -209 164 171 176 177 180 -193 -209 -209 -209 -209 -209 -209 -193 -193 -193 156 156 156 154 155 155 -193 154 153 155 -209 -209 -209 -209 -209 -209 -209 -209 -209 -193 157 155 157 -193 -209 -209 -193 -209 -209 -209 -209 -209 -193 155 157 159 -193 161 160 162 159 164 158 158 157 157 157 158 157 160 157 166 163 169 173 -209 -193 -193 -193 154 155 -193 156 -209 -209 0 12 0 10 -209 -209 -209 -209 -209 -209 157 158 161 159 158 164 156 157 157 157 156 156 156 155 152 153 -209 -209 -209 -209 -193 155 157 -193 -193 157 157 155 156 154 155 154 156 157 156 156 157 157 157 158 159 158 157 160 163 158 156 158 156 156 156 157 156 154 156 158 156 158 159 161 158 163 163 163 161 163 161 160 159 159 158 158 157 159 156 157 157 156 159 159 157 159 159 162 160 162 161 160 160 161 161 161 159 163 163 163 166 165 165 162 161 158 156 155 155 154 155 156 157 157 159 158 160 158 157 161 160 158 158 158 158 158 158 157 155 153 157 157 158 160 159 161 165 167 170 177 176 180 180 180 180 181 181 180 -209 -209 0 0 0 0 0
    0 0 0 0 0 0 0 0 0 0 0 0 0 0 0 0 0 0 0 0 0 0 0 0 0 0 0 0 0 0 0 0 0 0 0 0 0 0 0 0 0 0 0 0 0 0 0 0 0 0 0 0 0 0 0 0 0 0 0 0 0 0 0 0 0 0 0 0 0 164 164 159 -193 -193 -193 -193 164 -193 -209 166 -225 -225 -225 -225 -225 -225 -225 -209 -209 -209 -209 -193 -193 -193 -193 155 -209 -209 -193 -209 -209 -193 -209 -193 -193 -209 -209 -209 -209 -209 -209 -209 -209 -209 -193 -193 -193 708 -209 -193 -193 -193 -209 -209 -193 239 -193 155 157 160 -193 163 162 163 161 165 160 159 158 158 158 158 158 161 158 167 164 171 183 -209 -193 -193 -193 -193 155 -209 -193 -209 -209 0 9 0 0 -209 -209 -209 -209 -193 -209 -193 155 -177 157 155 165 156 157 157 157 157 156 157 156 153 155 -209 -209 -209 -209 -193 -209 -193 -193 -193 -209 156 -193 -193 -193 -193 -193 -193 -193 155 156 157 156 156 158 159 157 157 159 163 157 156 157 156 155 155 -193 156 154 156 157 155 158 159 161 158 164 164 163 161 163 161 160 159 159 158 158 157 159 156 157 157 157 159 160 157 159 159 162 160 162 161 160 161 162 161 162 160 164 163 163 -209 164 -209 -209 -209 155 155 153 153 153 154 155 157 157 159 157 159 158 157 160 159 157 157 157 158 158 157 157 155 153 160 160 162 165 166 166 167 168 170 175 174 177 175 175 177 178 178 176 172 -193 0 0 0 0 0
    0 0 0 0 0 0 0 0 0 0 0 0 0 0 0 0 0 0 0 0 0 0 0 0 0 0 0 0 0 0 0 0 0 0 0 0 0 0 0 0 0 0 0 0 0 0 0 0 0 0 0 0 0 0 0 0 0 0 0 0 0 0 0 0 0 0 0 0 0 165 165 161 -193 -193 -225 -225 -225 -225 -225 -225 -225 -225 -225 -225 -225 -225 -225 -225 -225 -209 -209 -209 -193 -209 -209 -209 -209 -209 -209 -193 -193 -193 -193 -193 -193 -209 -209 -225 -193 -209 -209 -209 -193 -209 -209 -209 -209 708 -225 -225 -225 -209 -209 -209 237 242 242 -193 -193 -193 -193 -193 163 164 162 165 161 161 159 159 160 160 159 163 161 169 166 174 -209 203 -193 -193 -193 -209 -193 -209 -193 -209 -209 0 0 0 0 -209 -209 -209 -209 -193 -209 -193 -177 -177 156 155 166 157 158 158 158 158 158 158 158 154 158 -209 -209 -209 -209 -193 -209 -193 -193 43 -209 -193 -193 -193 -209 -193 -193 -193 -193 154 155 157 156 156 157 158 157 157 159 163 157 155 157 155 154 155 -193 155 154 155 156 155 157 159 160 158 164 165 163 162 164 162 160 160 159 158 158 158 159 156 157 157 157 160 160 157 159 158 162 160 162 161 160 160 161 161 162 161 164 164 163 -209 -209 -209 -209 -209 -193 153 153 152 152 152 153 156 155 157 155 158 157 154 157 157 156 156 156 156 156 156 157 155 153 161 162 162 165 167 167 169 169 169 173 173 175 174 172 173 173 173 173 170 171 0 0 0 0 0
    0 0 0 0 0 0 0 0 0 0 0 0 0 0 0 0 0 0 0 0 0 0 0 0 0 0 0 0 0 0 0 0 0 0 0 0 0 0 0 0 0 0 0 0 0 0 0 0 0 0 0 0 0 0 0 0 0 0 0 0 0 0 0 0 0 0 0 0 0 -209 166 162 -225 -225 -225 -225 -225 -225 -225 -225 -225 -225 -225 -225 -225 -225 -225 -225 -225 -225 -225 -225 -225 -225 -225 -225 -225 -209 -225 -225 -225 -225 -225 -225 -225 -225 -225 -225 -225 411 417 -209 -209 -209 -225 -209 -193 -225 -225 -225 -225 -225 447 -209 237 242 243 -193 -193 -193 -193 -193 -193 165 164 166 164 164 161 160 162 162 -193 165 -193 -209 -209 -193 -193 -193 -193 -193 -193 -209 338 -193 531 -209 -209 0 -193 0 0 -193 -193 -209 484 -225 494 -209 154 -177 157 158 -209 158 159 159 160 159 159 160 160 154 161 -209 -209 -209 -209 -193 -209 -193 -209 -193 -209 161 -193 -193 -209 -209 -209 260 -209 154 155 157 155 155 156 157 156 157 159 164 157 155 157 155 154 -193 -193 155 154 155 156 155 157 158 159 158 163 165 163 163 164 162 160 161 160 158 159 158 159 157 157 157 157 160 160 157 159 158 162 159 161 161 159 159 160 160 162 160 164 165 165 -209 -209 -209 -209 -209 -209 -209 -193 152 -193 152 153 155 155 156 155 157 157 153 156 156 155 155 155 155 155 154 155 153 152 161 163 162 165 167 168 170 171 171 175 173 176 176 174 175 173 171 171 169 170 0 0 0 0 0
    0 0 0 0 0 0 0 0 0 0 0 0 0 0 0 0 0 0 0 0 0 0 0 0 0 0 0 0 0 0 0 0 0 0 0 0 0 0 0 0 0 0 0 0 0 0 0 0 0 0 0 0 0 0 0 0 0 0 0 0 0 0 0 0 0 0 0 0 0 -225 -225 -225 -225 -225 -225 -225 -225 -225 -225 -225 -225 -225 -225 -225 -225 -225 -225 -225 -225 -225 -225 -225 -225 -225 -225 -225 -225 -225 -225 -225 -225 -225 -225 -225 -225 -225 -225 -225 -225 -225 -225 -225 -225 -225 -225 -225 -225 -225 -225 -225 -225 -225 443 -193 234 240 239 236 236 239 238 245 -209 -193 -209 169 -209 -209 -193 162 -209 -193 -193 -193 -209 -193 -193 -209 -209 -225 -225 -193 -193 -209 -193 -193 -193 -209 -209 0 -225 -225 -225 -225 -225 -225 -225 -225 -225 499 -209 -193 -209 -209 -209 -193 161 160 162 162 160 161 162 155 -209 -209 -193 -209 -209 -209 -209 -209 -209 -193 -209 -209 -193 -209 -209 -209 -193 261 -193 152 154 157 153 155 156 157 -193 157 -193 -193 -209 155 157 155 -209 -193 -193 156 154 156 156 155 157 158 159 157 163 165 163 163 165 163 160 161 159 158 159 158 159 157 157 158 157 161 160 -193 -193 158 162 160 161 162 159 160 161 161 163 161 165 166 166 -209 -209 -209 -209 -209 -209 -209 -193 -193 -193 -209 155 157 155 157 -209 158 -193 153 154 154 153 153 153 154 153 152 153 151 151 159 163 161 164 167 168 171 173 172 175 173 176 175 173 173 171 169 169 165 166 0 0 0 0 0
    0 0 0 0 0 0 0 0 0 0 0 0 0 0 0 0 0 0 0 0 0 0 0 0 0 0 0 0 0 0 0 0 0 0 0 0 0 0 0 0 0 0 0 0 0 0 0 0 0 0 0 0 0 0 0 0 0 0 0 0 0 0 0 0 0 0 0 0 0 -225 -225 -225 -225 -225 -225 -225 -225 -225 -225 -225 -225 -225 -225 -225 -225 -225 -225 -225 -225 -225 -225 -225 -225 -225 -225 -225 -225 -225 -225 -225 -225 -225 -225 -225 -225 -225 -225 -225 -225 -225 -225 -225 -225 -225 -225 -225 -225 -225 -225 -225 -225 -225 -225 -225 -225 -225 -193 231 234 237 -177 246 -225 -225 -225 -209 -225 -225 -225 -225 -225 -225 428 -225 -225 -225 -225 -225 -225 -225 -225 -225 -225 -225 -225 -225 -225 -225 -225 -225 -225 -225 -225 -225 -225 -225 -225 -225 -225 -225 501 496 495 501 -209 -193 410 409 411 412 -209 -209 -209 -209 -209 -209 -193 -209 -209 -209 -209 -209 -209 -209 -209 -193 -209 -209 -209 -209 -209 -193 -193 -209 -209 -193 149 153 154 -193 401 -193 393 397 392 -209 157 -209 -209 -209 -193 -193 155 155 156 -209 157 158 160 158 165 -209 -193 165 165 165 161 161 159 157 159 157 158 157 155 157 -193 161 -193 530 -177 -209 -209 -209 -193 163 161 162 163 164 164 164 166 -193 -209 -209 -209 -209 -209 -209 -209 -209 -209 -209 -209 -209 156 157 -209 -209 -209 -209 -209 148 153 -193 149 150 150 151 148 147 149 146 150 155 159 158 162 165 167 170 173 171 173 171 173 172 170 170 169 168 169 167 167 0 0 0 0 0
    0 0 0 0 0 0 0 0 0 0 0 0 0 0 0 0 0 0 0 0 0 0 0 0 0 0 0 0 0 0 0 0 0 0 0 0 0 0 0 0 0 0 0 0 0 0 0 0 0 0 0 0 0 0 0 0 0 0 0 0 0 0 0 0 0 0 0 0 0 -225 -225 -225 -225 -225 -225 -225 -225 -225 -225 -225 -225 -225 -225 -225 -225 -225 -225 -225 -225 -225 -225 -225 -225 -225 -225 -225 -225 -225 -225 -225 -225 -225 -225 -225 -225 -225 -225 -225 -225 -225 -225 -225 -225 -225 -225 -225 -225 -225 -225 -225 -225 -225 -225 -225 -225 -225 -225 -225 -225 -225 -225 -225 -225 -225 -225 -225 -225 -225 -225 -225 -225 -225 -225 -225 -225 -225 -225 -225 -225 -225 -225 -225 -225 -225 -225 -225 -225 -225 -225 -225 -225 -225 -225 -225 -225 -225 -225 -225 -225 -225 -225 -225 -225 -225 -225 -225 -209 -209 -225 -225 -225 -225 -225 -225 -225 -209 -209 -193 -209 -209 -209 -209 -209 -193 -225 -225 -225 -225 -225 -225 -225 -225 -225 -225 -225 -225 -225 -225 -225 -225 -225 -225 400 402 396 395 394 -193 -209 -209 -209 -209 -209 -209 -209 -209 -209 157 160 160 168 -193 -209 -209 166 167 163 162 160 158 159 157 158 157 -209 -209 -209 -209 -193 528 -177 -209 -209 -209 -209 -209 163 164 166 166 166 166 167 169 -209 -209 -209 -209 -209 -209 -209 -209 -209 -209 -209 -209 -209 -209 -209 -209 -209 -209 -209 -209 -209 -209 -209 -209 -209 -209 -209 -193 -209 142 148 153 155 155 158 162 166 170 172 170 172 170 171 171 168 169 167 166 167 165 167 0 0 0 0 0
    0 0 0 0 0 0 0 0 0 0 0 0 0 0 0 0 0 0 0 0 0 0 0 0 0 0 0 0 0 0 0 0 0 0 0 0 0 0 0 0 0 0 0 0 0 0 0 0 0 0 0 0 0 0 0 0 0 0 0 0 0 0 0 0 0 0 0 0 0 -225 -225 -225 -225 -225 -225 -225 -225 -225 -225 -225 -225 -225 -225 -225 -225 -225 -225 -225 -225 -225 -225 -225 -225 -225 -225 -225 -225 -225 -225 -225 -225 -225 -225 -225 -225 -225 -225 -225 -225 -225 -225 -225 -225 -225 -225 -225 -225 -225 -225 -225 -225 -225 -225 -225 -225 -225 -225 -225 -225 -225 -225 -225 -225 -225 -225 -225 -225 -225 -225 -225 -225 -225 -225 -225 -225 -225 -225 -225 -225 -225 -225 -225 -225 -225 -225 -225 -225 -225 -225 -225 -225 -225 -225 -225 -225 -225 -225 -225 -225 -225 -225 -225 -225 -225 -225 -225 -225 -225 -225 -225 -225 -225 -225 -225 -225 -225 -225 -225 -225 -225 -225 -225 -225 -225 -225 -225 -225 -225 -225 -225 -225 -225 -225 -225 -225 -225 -225 -225 -225 -225 -225 -225 -225 -225 -225 -225 -225 -225 -225 -225 -225 -225 -225 -193 -209 -209 -225 -225 -225 -225 -225 -225 -225 -225 -225 -193 163 164 163 161 -225 -225 -225 -225 -225 323 -193 -209 -209 525 -209 -209 -209 -225 -225 -225 -225 165 167 167 166 167 169 -209 -209 -209 -209 -209 -209 -209 -209 -209 -209 -209 -209 -209 -209 -209 -209 -209 -209 -209 -209 -209 -193 117 118 -209 -209 113 116 -209 -193 -193 145 153 154 154 159 162 165 169 172 170 172 170 170 169 167 168 166 165 166 165 167 0 0 0 0 0
    0 0 0 0 0 0 0 0 0 0 0 0 0 0 0 0 0 0 0 0 0 0 0 0 0 0 0 0 0 0 0 0 0 0 0 0 0 0 0 0 0 0 0 0 0 0 0 0 0 0 0 0 0 0 0 0 0 0 0 0 0 0 0 0 0 0 0 0 0 -225 -225 -225 -225 -225 -225 -225 -225 -225 -225 -225 -225 -225 -225 -225 -225 -225 -225 -225 -225 -225 -225 -225 -225 -225 -225 -225 -225 -225 -225 -225 -225 -225 -225 -225 -225 -225 -225 -225 -225 -225 -225 -225 -225 -225 -225 -225 -225 -225 -225 -225 -225 -225 -225 -225 -225 -225 -225 -225 -225 -225 -225 -225 -225 -225 -225 -225 -225 -225 -225 -225 -225 -225 -225 -225 -225 -225 -225 -225 -225 -225 -225 -225 -225 -225 -225 -225 -225 -225 -225 -225 -225 -225 -225 -225 -225 -225 -225 -225 -225 -225 -225 -225 -225 -225 -225 -225 -225 -225 -225 -225 -225 -225 -225 -225 -225 -225 -225 -225 -225 -225 -225 -225 -225 -225 -225 -225 -225 -225 -225 -225 -225 -225 -225 -225 -225 -225 -225 -225 -225 -225 -225 -225 -225 -225 -225 -225 -225 -225 -225 -225 -225 -225 -225 -225 -225 -225 -225 -225 -225 -225 -225 -225 -225 -225 -225 -225 -225 -225 -225 -225 -225 -225 -225 -225 -225 -225 -225 -225 -225 -225 -225 -225 -225 -225 -225 -225 -225 -225 -225 -193 -209 -209 -209 -209 -209 -209 -209 -209 -209 -209 -209 -209 -209 -209 -209 -209 -209 -209 -209 -209 -209 -209 -209 -209 116 115 116 117 114 115 118 120 122 134 142 154 162 158 163 164 166 169 172 169 170 169 169 168 167 167 166 165 166 165 167 0 0 0 0 0
    0 0 0 0 0 0 0 0 0 0 0 0 0 0 0 0 0 0 0 0 0 0 0 0 0 0 0 0 0 0 0 0 0 0 0 0 0 0 0 0 0 0 0 0 0 0 0 0 0 0 0 0 0 0 0 0 0 0 0 0 0 0 0 0 0 0 0 0 0 -225 -225 -225 -225 -225 -225 -225 -225 -225 -225 -225 -225 -225 -225 -225 -225 -225 -225 -225 -225 -225 -225 -225 -225 -225 -225 -225 -225 -225 -225 -225 -225 -225 -225 -225 -225 -225 -225 -225 -225 -225 -225 -225 -225 -225 -225 -225 -225 -225 -225 -225 -225 -225 -225 -225 -225 -225 -225 -225 -225 -225 -225 -225 -225 -225 -225 -225 -225 -225 -225 -225 -225 -225 -225 -225 -225 -225 -225 -225 -225 -225 -225 -225 -225 -225 -225 -225 -225 -225 -225 -225 -225 -225 -225 -225 -225 -225 -225 -225 -225 -225 -225 -225 -225 -225 -225 -225 -225 -225 -225 -225 -225 -225 -225 -225 -225 -225 -225 -225 -225 -225 -225 -225 -225 -225 -225 -225 -225 -225 -225 -225 -225 -225 -225 -225 -225 -225 -225 -225 -225 -225 -225 -225 -225 -225 -225 -225 -225 -225 -225 -225 -225 -225 -225 -225 -225 -225 -225 -225 -225 -225 -225 -225 -225 -225 -225 -225 -225 -225 -225 -225 -225 -225 -225 -225 -225 -225 -225 -225 -225 -225 -225 -225 -225 -225 -225 -225 -225 -225 -225 -225 -225 -225 -209 -209 -209 -209 -209 -209 -209 -209 -209 -209 -209 -209 -209 -209 -209 -209 -209 -209 -209 -209 -209 -209 -193 117 119 -193 115 116 119 118 118 -177 -209 -193 171 169 167 168 167 170 173 169 169 168 168 167 166 167 166 165 166 165 167 0 0 0 0 0
    0 0 0 0 0 0 0 0 0 0 0 0 0 0 0 0 0 0 0 0 0 0 0 0 0 0 0 0 0 0 0 0 0 0 0 0 0 0 0 0 0 0 0 0 0 0 0 0 0 0 0 0 0 0 0 0 0 0 0 0 0 0 0 0 0 0 0 0 0 -225 -225 -225 -225 -225 -225 -225 -225 -225 -225 -225 -225 -225 -225 -225 -225 -225 -225 -225 -225 -225 -225 -225 -225 -225 -225 -225 -225 -225 -225 -225 -225 -225 -225 -225 -225 -225 -225 -225 -225 -225 -225 -225 -225 -225 -225 -225 -225 -225 -225 -225 -225 -225 -225 -225 -225 -225 -225 -225 -225 -225 -225 -225 -225 -225 -225 -225 -225 -225 -225 -225 -225 -225 -225 -225 -225 -225 -225 -225 -225 -225 -225 -225 -225 -225 -225 -225 -225 -225 -225 -225 -225 -225 -225 -225 -225 -225 -225 -225 -225 -225 -225 -225 -225 -225 -225 -225 -225 -225 -225 -225 -225 -225 -225 -225 -225 -225 -225 -225 -225 -225 -225 -225 -225 -225 -225 -225 -225 -225 -225 -225 -225 -225 -225 -225 -225 -225 -225 -225 -225 -225 -225 -225 -225 -225 -225 -225 -225 -225 -225 -225 -225 -225 -225 -225 -225 -225 -225 -225 -225 -225 -225 -225 -225 -225 -225 -225 -225 -225 -225 -225 -225 -225 -225 -225 -225 -225 -225 -225 -225 -225 -225 -225 -225 -225 -225 -225 -225 -225 -225 -225 -225 -225 -225 -225 -209 -209 -209 -209 -209 -209 -209 -209 -209 -209 -209 -209 -209 -209 -209 -209 -209 -209 -209 -209 -209 117 121 -209 -209 -193 -209 -209 -209 -209 -209 173 178 179 169 175 168 176 181 169 169 167 168 167 166 166 166 164 166 166 167 0 0 0 0 0
    0 0 0 0 0 0 0 0 0 0 0 0 0 0 0 0 0 0 0 0 0 0 0 0 0 0 0 0 0 0 0 0 0 0 0 0 0 0 0 0 0 0 0 0 0 0 0 0 0 0 0 0 0 0 0 0 0 0 0 0 0 0 0 0 0 0 0 0 0 -225 -225 -225 -225 -225 -225 -225 -225 -225 -225 -225 -225 -225 -225 -225 -225 -225 -225 -225 -225 -225 -225 -225 -225 -225 -225 -225 -225 -225 -225 -225 -225 -225 -225 -225 -225 -225 -225 -225 -225 -225 -225 -225 -225 -225 -225 -225 -225 -225 -225 -225 -225 -225 -225 -225 -225 -225 -225 -225 -225 -225 -225 -225 -225 -225 -225 -225 -225 -225 -225 -225 -225 -225 -225 -225 -225 -225 -225 -225 -225 -225 -225 -225 -225 -225 -225 -225 -225 -225 -225 -225 -225 -225 -225 -225 -225 -225 -225 -225 -225 -225 -225 -225 -225 -225 -225 -225 -225 -225 -225 -225 -225 -225 -225 -225 -225 -225 -225 -225 -225 -225 -225 -225 -225 -225 -225 -225 -225 -225 -225 -225 -225 -225 -225 -225 -225 -225 -225 -225 -225 -225 -225 -225 -225 -225 -225 -225 -225 -225 -225 -225 -225 -225 -225 -225 -225 -225 -225 -225 -225 -225 -225 -225 -225 -225 -225 -225 -225 -225 -225 -225 -225 -225 -225 -225 -225 -225 -225 -225 -225 -225 -225 -225 -225 -225 -225 -225 -225 -225 -225 -225 -225 -225 -225 -225 -209 -209 -209 -209 -209 -209 -209 -209 -209 -209 -209 -209 -209 -209 -209 -209 -209 -209 -209 -209 -209 -193 122 -209 -209 -209 -209 -209 -193 50 -209 -209 182 184 184 187 -193 183 189 176 169 167 167 166 166 167 166 165 167 166 167 0 0 0 0 0
    0 0 0 0 0 0 0 0 0 0 0 0 0 0 0 0 0 0 0 0 0 0 0 0 0 0 0 0 0 0 0 0 0 0 0 0 0 0 0 0 0 0 0 0 0 0 0 0 0 0 0 0 0 0 0 0 0 0 0 0 0 0 0 0 0 0 0 0 0 -225 -225 -225 -225 -225 -225 -225 -225 -225 -225 -225 -225 -225 -225 -225 -225 -225 -225 -225 -225 -225 -225 -225 -225 -225 -225 -225 -225 -225 -225 -225 -225 -225 -225 -225 -225 -225 -225 -225 -225 -225 -225 -225 -225 -225 -225 -225 -225 -225 -225 -225 -225 -225 -225 -225 -225 -225 -225 -225 -225 -225 -225 -225 -225 -225 -225 -225 -225 -225 -225 -225 -225 -225 -225 -225 -225 -225 -225 -225 -225 -225 -225 -225 -225 -225 -225 -225 -225 -225 -225 -225 -225 -225 -225 -225 -225 -225 -225 -225 -225 -225 -225 -225 -225 -225 -225 -225 -225 -225 -225 -225 -225 -225 -225 -225 -225 -225 -225 -225 -225 -225 -225 -225 -225 -225 -225 -225 -225 -225 -225 -225 -225 -225 -225 -225 -225 -225 -225 -225 -225 -225 -225 -225 -225 -225 -225 -225 -225 -225 -225 -225 -225 -225 -225 -225 -225 -225 -225 -225 -225 -225 -225 -225 -225 -225 -225 -225 -225 -225 -225 -225 -225 -225 -225 -225 -225 -225 -225 -225 -225 -225 -225 -225 -225 -225 -225 -225 -225 -225 -225 -225 -225 -225 -225 -225 -209 -209 -209 -209 -209 -209 -209 -209 -209 -209 -209 -209 -209 -209 -209 -209 -209 -209 -209 -209 -209 -209 -209 -209 -209 -209 -209 -209 -209 -209 -209 -193 183 185 -193 -209 -193 179 179 167 167 166 166 165 165 166 166 165 167 166 167 0 0 0 0 0
    0 0 0 0 0 0 0 0 0 0 0 0 0 0 0 0 0 0 0 0 0 0 0 0 0 0 0 0 0 0 0 0 0 0 0 0 0 0 0 0 0 0 0 0 0 0 0 0 0 0 0 0 0 0 0 0 0 0 0 0 0 0 0 0 0 0 0 0 0 322 324 324 325 323 318 315 316 -209 -209 -209 -209 -209 -193 74 78 81 86 -177 -193 -193 38 -225 -225 -225 -225 -225 -225 -225 -225 -225 -225 -225 -225 -225 -225 -225 -225 -225 -225 -225 -225 -225 -225 388 -225 -225 -225 -225 -225 -225 -225 -225 -225 -225 -225 -209 -193 -225 -225 -225 -225 -209 -225 -225 -225 -193 878 880 884 886 -209 -209 -209 -209 -209 -225 -225 -225 -225 -225 -225 -225 -225 -225 -225 -225 -225 -225 -225 -225 -225 -225 -225 -225 -225 -225 -225 -225 -225 -225 -225 -225 -225 -225 -225 -225 -225 -225 -225 -225 -225 -225 -225 -225 -225 -225 -225 -225 -225 -225 -225 -225 -225 -225 -225 -225 -225 -225 -225 -225 -225 -225 -225 -225 -225 -225 -225 -225 -225 -225 -225 -225 -225 -225 -225 -225 -225 -225 -225 -225 -225 -225 -225 -225 -225 -225 -225 -225 -225 -225 -225 -225 -225 -225 -225 -225 -225 -225 -225 -225 -225 -225 -225 -225 -225 -225 -225 -225 -225 -225 -225 -225 -225 -225 -225 -225 -225 -225 -225 -225 -225 -225 -225 -225 -209 -209 -209 -209 -209 -209 -209 -209 -209 -209 -209 -209 -209 -209 -209 -209 -209 -209 -209 -209 -209 -209 -209 -209 -209 -209 -209 -209 -209 -209 -209 186 187 187 186 187 -193 171 -193 164 165 165 164 163 164 165 167 166 168 166 168 0 0 0 0 0
    0 0 0 0 0 0 0 0 0 0 0 0 0 0 0 0 0 0 0 0 0 0 0 0 0 0 0 0 0 0 0 0 0 0 0 0 0 0 0 0 0 0 0 0 0 0 0 0 0 0 0 0 0 0 0 0 0 0 0 0 0 0 0 0 0 0 0 0 0 -193 -193 324 326 325 318 315 316 -209 -209 -209 -209 -209 -209 -209 -193 -193 -193 197 -193 -193 41 -193 -193 -177 -193 -193 194 -193 184 191 -193 -225 -225 -225 -225 -225 -193 430 437 437 436 -193 -193 -209 -209 -209 -193 -193 -209 -193 470 -209 -225 -209 -209 -193 -193 -193 -209 -177 -209 198 195 192 194 197 197 194 194 -193 -209 -209 -209 -209 -209 -193 -193 -209 -225 -225 -225 -225 -225 -225 -225 -225 -225 -225 -225 -225 -225 -225 -225 -225 -225 -225 -225 -225 -225 -225 -225 -225 -225 -225 -209 -209 -193 193 201 205 -225 210 213 -225 -225 -193 -193 206 -193 -209 -225 -225 -225 -225 -225 -225 -225 -225 -225 -225 -225 -225 -225 -225 -225 -225 -225 -225 -225 -225 -225 -225 -225 -225 -225 -225 -225 -225 -225 -225 -225 -225 -225 -225 -225 -225 -225 -225 -225 -225 -225 -225 -225 -225 -225 -225 -225 -225 -225 -225 -225 -225 -225 -225 -225 -225 -225 -225 -225 -225 -225 -225 -225 -225 -225 -225 -225 -225 -225 -225 -225 -225 -225 -225 -209 -209 -209 -209 -193 -209 -209 -209 -209 -209 -209 -209 -209 -209 -209 -209 -209 -209 -209 -209 -209 -209 -209 -209 -209 -209 186 187 186 185 187 189 193 191 189 189 188 -209 176 170 169 167 167 165 166 167 168 167 168 166 167 0 0 0 0 0
    0 0 0 0 0 0 0 0 0 0 0 0 0 0 0 0 0 0 0 0 0 0 0 0 0 0 0 0 0 0 0 0 0 0 0 0 0 0 0 0 0 0 0 0 0 0 0 0 0 0 0 0 0 0 0 0 0 0 0 0 0 0 0 0 0 0 0 0 0 -177 192 -193 -209 -209 -209 -209 -209 -209 -209 -209 -209 -209 -209 -193 -209 195 196 196 198 -193 -177 -209 -193 198 198 199 195 195 191 192 198 198 -225 -225 -225 202 -209 -193 -193 -193 -193 433 -209 -209 -209 -209 -177 -193 -209 -193 471 -209 -177 -177 -177 -209 571 -193 -209 -193 198 199 196 195 196 198 198 196 197 -193 -193 -209 -193 -209 -209 -193 -193 278 -193 -209 -209 -225 -225 -225 -225 -225 -225 -225 -225 -225 -225 -225 -225 -225 -225 -225 -225 -225 -225 -225 -225 -225 -209 -209 -209 197 199 199 202 205 208 211 213 209 205 207 208 208 207 -193 -193 -209 -209 -209 -193 170 -193 -209 -209 -193 -209 -193 -209 199 -193 -209 -209 -209 -225 -225 -225 -225 -225 -225 -225 -225 -225 -225 -225 -225 -225 -225 -225 -225 -225 -225 -225 -225 -225 -225 -225 -225 -225 -225 -225 -225 -225 -225 -193 369 -225 -225 -225 -225 -225 -225 -225 -225 -225 -225 -225 -225 -225 -225 -225 -225 -225 -225 -225 -225 -225 -209 -209 -193 -193 -209 -209 -193 0 -193 -209 -209 -209 -209 -209 -209 -209 -209 -209 -209 -209 -209 -209 -209 -193 -209 -209 -209 -193 189 188 188 188 186 189 191 195 194 192 193 191 191 -209 -209 168 169 169 166 167 168 169 169 170 167 168 0 0 0 0 0
    0 0 0 0 0 0 0 0 0 0 0 0 0 0 0 0 0 0 0 0 0 0 0 0 0 0 0 0 0 0 0 0 0 0 0 0 0 0 0 0 0 0 0 0 0 0 0 0 0 0 0 0 0 0 0 0 0 0 0 0 0 0 0 0 0 0 0 0 0 -177 192 193 -193 -193 -209 -209 -209 -209 -209 -209 -209 -193 -193 198 197 195 195 195 198 -193 -193 -193 -193 198 199 200 196 195 192 191 194 195 195 196 198 199 198 200 201 -209 -209 -209 -209 -209 -209 -193 -177 -209 -209 -177 -177 -209 -209 -209 -209 -209 -209 194 -209 198 197 199 197 196 197 198 198 196 198 -193 -193 -209 -209 -209 -209 -209 271 -193 -209 -209 -209 276 -193 -209 -209 -209 -209 -209 -209 -209 -209 -209 -193 476 -225 -225 -225 -225 -225 -225 -225 -209 188 193 196 199 201 201 203 204 206 209 211 207 205 206 207 207 207 -193 -193 -209 -209 -209 -209 -193 -209 -209 -209 -209 198 -193 -209 -193 -193 -209 -209 -193 -209 -209 -193 -209 -193 -209 -209 417 -209 -209 -209 -209 -209 -193 -225 -225 -225 -225 -225 -225 -225 -225 -225 -225 213 211 207 207 208 205 203 -193 -209 -209 -209 451 -209 -193 -225 -225 -225 -225 -225 -225 -225 -193 525 526 -177 -193 46 52 -209 -209 -209 -209 -209 -209 -209 -193 0 0 -209 -209 -209 -209 -209 -209 -209 -209 -209 -209 -209 -209 -193 189 191 190 191 -193 193 191 190 190 190 188 191 194 196 196 196 196 196 196 -209 -209 166 168 169 168 168 169 171 171 172 168 169 0 0 0 0 0
    0 0 0 0 0 0 0 0 0 0 0 0 0 0 0 0 0 0 0 0 0 0 0 0 0 0 0 0 0 0 0 0 0 0 0 0 0 0 0 0 0 0 0 0 0 0 0 0 0 0 0 0 0 0 0 0 0 0 0 0 0 0 0 0 0 0 0 0 0 193 193 193 -193 -177 -193 -209 -209 -209 -209 -209 -209 199 -193 198 198 196 196 196 198 198 -193 200 -193 199 200 202 197 196 193 191 193 194 195 196 197 198 195 198 199 199 -193 200 -193 -193 194 -193 -209 -209 -193 -209 -193 -193 189 192 -193 -193 193 193 198 196 197 199 197 196 197 198 198 197 199 197 192 199 -209 -209 -209 -209 -193 -193 -193 -193 -193 -193 -193 197 197 198 -193 -193 195 196 -209 -209 -209 476 -209 -209 -209 -209 -209 188 195 191 193 197 197 199 199 200 201 201 203 206 206 205 204 205 205 205 205 204 204 202 -193 204 -209 -209 -193 -209 -209 -209 198 198 -209 199 -193 -209 -209 203 -209 -209 -209 239 435 -193 -209 -209 -209 -209 -193 -209 -209 -209 -209 -209 -209 -209 -225 -225 -225 -225 214 214 211 210 206 206 207 204 203 -209 -209 -193 -209 -209 -209 -193 -209 -193 -225 -193 -193 196 -193 -209 -193 -193 -193 -193 -193 -193 -209 -209 -209 -209 -209 -209 -193 -193 0 0 -209 -209 -209 -209 -209 -209 -209 -209 -209 192 193 -177 191 190 192 191 193 193 194 194 192 192 192 189 193 196 197 197 197 196 194 194 -209 -209 169 169 169 169 169 170 174 173 174 170 172 0 0 0 0 0
    0 0 0 0 0 0 0 0 0 0 0 0 0 0 0 0 0 0 0 0 0 0 0 0 0 0 0 0 0 0 0 0 0 0 0 0 0 0 0 0 0 0 0 0 0 0 0 0 0 0 0 0 0 0 0 0 0 0 0 0 0 0 0 0 0 0 0 0 0 193 193 192 -193 -193 -193 -209 -209 -193 -209 -209 -193 199 199 198 198 196 196 196 198 198 197 199 -193 198 200 202 197 197 194 193 193 195 196 196 197 198 196 198 199 199 198 199 199 197 195 197 193 191 190 189 189 190 191 193 194 194 192 192 197 195 196 199 197 196 197 197 198 197 199 198 195 200 202 200 200 -209 198 198 198 -193 198 -193 197 197 197 198 -193 197 195 197 -193 -193 -209 -209 -193 -209 198 -209 195 190 197 195 196 199 198 199 199 200 200 201 202 203 203 203 202 203 203 203 203 203 202 202 202 202 -209 -209 -193 -209 -209 199 198 199 201 200 -193 -209 -209 204 -209 -209 -209 -193 -209 -209 -209 -209 -209 -209 -209 -209 461 -209 -209 -209 -209 -209 -209 -193 -193 -193 212 214 209 207 205 205 205 203 203 -209 -193 -193 -193 -209 198 196 -209 -209 -209 -193 199 196 198 200 -193 -193 199 -209 -209 -209 -209 -193 -209 -209 -209 -209 -193 -193 0 -193 -193 -209 -209 -209 -209 -193 -209 -209 -209 193 193 193 192 191 192 192 194 194 196 195 195 195 195 192 195 197 198 197 198 -193 191 191 -209 -209 176 172 170 171 172 173 176 178 181 176 178 0 0 0 0 0
    0 0 0 0 0 0 0 0 0 0 0 0 0 0 0 0 0 0 0 0 0 0 0 0 0 0 0 0 0 0 0 0 0 0 0 0 0 0 0 0 0 0 0 0 0 0 0 0 0 0 0 0 0 0 0 0 0 0 0 0 0 0 0 0 0 0 0 0 0 194 193 192 -193 -193 -193 -209 -193 -193 -209 -209 199 199 199 198 198 196 196 196 197 197 197 198 198 197 199 199 197 196 194 193 193 195 197 196 198 198 197 199 199 199 199 199 199 198 198 198 195 194 192 191 192 192 192 193 194 194 192 193 197 195 196 199 197 196 196 197 198 197 198 198 195 199 201 200 200 199 199 -193 198 199 198 -193 -193 197 197 198 197 197 196 197 -193 197 198 -209 194 196 197 198 195 192 198 197 198 200 198 199 199 200 201 201 201 202 202 202 202 203 202 202 202 202 201 201 201 201 -209 -209 -209 202 -209 201 200 201 202 -193 -193 -209 204 206 -193 -209 203 -209 -209 -209 -209 -209 -209 -209 -209 -209 -209 -209 -209 -209 -209 -209 -209 -193 -193 -193 210 212 207 205 204 205 205 203 202 -209 -193 -193 -193 -193 198 196 -209 -209 -209 199 200 197 199 201 -193 -193 -209 -209 -209 -209 -209 -193 -209 -209 -209 -209 -193 -193 -193 -193 -193 -193 -193 -209 -209 -209 -209 -209 198 195 194 194 193 192 193 193 195 195 196 197 197 197 197 195 197 -193 -193 198 -193 -193 -193 -209 -209 -209 -209 180 -209 178 -193 183 183 184 185 185 185 0 0 0 0 0
    0 0 0 0 0 0 0 0 0 0 0 0 0 0 0 0 0 0 0 0 0 0 0 0 0 0 0 0 0 0 0 0 0 0 0 0 0 0 0 0 0 0 0 0 0 0 0 0 0 0 0 0 0 0 0 0 0 0 0 0 0 0 0 0 0 0 0 0 0 194 194 191 -193 -209 366 -209 -193 -209 -209 -209 -193 199 198 198 198 195 196 196 197 197 197 198 198 196 198 198 197 196 194 194 194 196 197 197 198 199 198 200 200 200 199 200 200 199 200 199 197 196 193 193 194 194 194 194 195 194 193 194 197 194 196 198 196 196 196 196 197 197 198 198 196 199 200 199 200 199 199 -193 198 199 198 -193 -193 198 198 198 198 198 196 198 -193 197 197 197 195 197 197 198 196 194 199 198 199 200 198 199 199 200 201 200 201 202 202 202 201 202 201 202 201 201 201 201 201 202 202 -193 -209 202 199 201 200 200 -209 -209 -209 -193 203 205 -193 202 202 -193 -193 203 199 199 198 -209 -209 -209 -209 -209 -209 -209 -209 -209 -193 -193 -193 -193 207 210 205 203 203 204 204 203 202 -209 -193 -193 201 201 198 196 196 -193 -193 198 200 196 199 202 -209 -193 -193 -209 -209 -209 -209 -193 -209 -209 -209 -209 -193 -193 -209 -193 -193 196 196 -193 197 196 198 195 197 195 194 194 193 192 194 194 195 195 196 196 197 197 197 194 196 -193 199 198 -193 -193 -193 -209 -209 -209 -209 -209 -193 185 186 188 185 187 188 189 188 0 0 0 0 0
    0 0 0 0 0 0 0 0 0 0 0 0 0 0 0 0 0 0 0 0 0 0 0 0 0 0 0 0 0 0 0 0 0 0 0 0 0 0 0 0 0 0 0 0 0 0 0 0 0 0 0 0 0 0 0 0 0 0 0 0 0 0 0 0 0 0 0 0 0 194 195 192 196 -209 365 -209 -193 -193 202 -193 200 199 198 197 198 195 196 196 196 196 196 198 198 196 199 198 198 197 196 195 195 196 198 198 198 199 199 200 200 200 200 200 200 200 201 200 199 198 194 194 195 195 194 194 194 194 193 194 196 193 195 198 196 197 196 197 198 198 199 199 197 199 200 199 199 198 198 198 198 199 198 -193 198 198 198 198 198 198 197 198 195 196 197 197 196 197 197 198 198 197 200 198 199 199 198 199 199 199 200 200 201 201 201 201 201 201 201 201 201 200 200 201 202 202 202 203 202 203 201 202 200 200 -193 -209 -193 202 203 204 202 203 203 201 202 203 201 199 198 -209 -209 -209 -209 -193 -209 -209 -209 -209 -193 195 198 203 205 206 203 202 202 202 203 202 201 -193 199 198 -193 -209 -193 195 192 -193 192 196 198 196 198 -193 -209 -193 -193 -209 -209 -209 -209 -193 -209 -209 -209 -193 200 198 198 196 195 196 196 -193 197 196 198 194 197 196 194 194 194 193 195 195 196 195 196 197 197 196 196 193 195 196 197 197 -193 -193 -193 -193 -209 -209 -193 -209 -209 185 186 191 188 189 190 192 191 0 0 0 0 0
    0 0 0 0 0 0 0 0 0 0 0 0 0 0 0 0 0 0 0 0 0 0 0 0 0 0 0 0 0 0 0 0 0 0 0 0 0 0 0 0 0 0 0 0 0 0 0 0 0 0 0 0 0 0 0 0 0 0 0 0 0 0 0 0 0 0 0 0 0 195 195 193 196 -193 -193 -193 -209 -209 200 199 199 198 198 197 197 195 195 195 195 196 196 197 197 196 198 198 197 197 196 195 194 196 198 198 199 198 199 199 199 200 200 200 200 200 201 201 201 199 196 196 196 196 195 194 195 194 193 195 195 192 195 198 196 197 197 197 198 198 200 200 198 200 200 199 199 198 198 198 198 199 198 198 198 198 198 198 198 198 197 198 195 196 197 197 197 197 196 198 198 198 200 198 199 199 198 199 198 199 199 199 200 200 201 201 201 201 201 201 200 200 201 201 202 202 202 203 202 203 202 202 200 200 -193 -193 201 202 204 205 203 203 203 202 202 203 203 201 200 201 -209 -209 -209 -209 -209 -209 -193 -193 194 196 199 203 203 203 202 201 201 201 202 201 200 -193 198 -193 -209 -193 197 195 192 189 192 196 197 196 198 -193 -193 -193 -193 -209 -209 -209 -209 -193 -209 -209 200 201 200 198 199 197 196 197 197 196 197 195 198 195 198 197 196 196 196 195 196 196 197 196 196 196 197 196 195 192 194 195 195 196 197 -193 196 198 -209 -209 -209 194 -209 188 190 195 192 193 194 194 194 0 0 0 0 0
    0 0 0 0 0 0 0 0 0 0 0 0 0 0 0 0 0 0 0 0 0 0 0 0 0 0 0 0 0 0 0 0 0 0 0 0 0 0 0 0 0 0 0 0 0 0 0 0 0 0 0 0 0 0 0 0 0 0 0 0 0 0 0 0 0 0 0 0 0 194 195 192 196 -193 -193 198 -209 199 199 198 198 198 198 197 197 195 196 196 195 195 196 196 197 195 198 197 196 196 194 194 193 195 197 197 199 -193 198 199 199 200 199 199 199 199 201 200 201 199 196 196 197 196 195 195 195 194 192 195 194 191 194 197 196 197 197 197 197 198 200 200 198 200 200 199 199 198 198 198 198 198 198 198 198 197 198 198 198 198 197 198 195 197 197 198 197 198 196 198 197 198 199 198 199 199 198 199 198 199 199 199 200 200 200 200 200 200 200 200 199 199 200 200 201 201 201 202 202 203 201 201 200 201 -193 -193 -193 203 204 205 204 204 203 203 202 204 203 201 200 201 199 199 -209 -209 -193 -193 -193 -193 194 196 199 202 201 200 200 200 200 200 201 200 200 199 198 198 -209 -193 198 197 195 193 195 197 197 196 198 201 -193 202 201 -193 -193 -209 202 202 -193 -193 200 200 200 199 199 198 198 198 198 197 198 195 198 196 199 199 198 198 197 197 198 198 198 198 197 198 199 198 197 193 195 195 193 195 196 197 196 197 200 -193 199 198 199 196 197 198 196 195 195 195 196 0 0 0 0 0
    0 0 0 0 0 0 0 0 0 0 0 0 0 0 0 0 0 0 0 0 0 0 0 0 0 0 0 0 0 0 0 0 0 0 0 0 0 0 0 0 0 0 0 0 0 0 0 0 0 0 0 0 0 0 0 0 0 0 0 0 0 0 0 0 0 0 0 0 0 194 195 191 196 193 -193 198 -193 198 198 198 198 197 198 197 197 195 196 196 195 196 196 196 197 195 198 197 196 196 194 194 193 193 196 196 198 -193 -193 198 198 199 199 198 199 198 200 199 199 199 196 196 197 197 196 195 195 194 192 195 194 191 193 196 195 196 196 196 197 198 200 200 199 200 200 199 199 198 198 198 197 198 197 198 198 197 198 198 198 198 197 198 196 197 197 198 197 198 197 198 197 198 199 199 199 200 198 199 198 199 199 199 199 199 199 199 199 199 199 198 198 198 198 199 200 200 199 201 201 202 201 201 200 200 202 202 201 203 204 205 204 203 203 203 202 204 203 201 200 200 199 198 -193 -193 -193 -193 -193 194 194 196 198 200 200 199 199 198 199 199 199 199 199 198 199 199 -193 -193 199 198 197 195 195 195 194 194 196 201 -193 202 202 -209 -193 200 201 201 200 200 200 200 202 201 201 200 199 199 199 198 198 194 196 194 198 199 198 199 198 198 199 199 199 199 199 201 201 201 201 197 197 197 195 195 197 197 196 197 200 200 199 198 198 196 197 198 196 195 195 194 195 0 0 0 0 0
    0 0 0 0 0 0 0 0 0 0 0 0 0 0 0 0 0 0 0 0 0 0 0 0 0 0 0 0 0 0 0 0 0 0 0 0 0 0 0 0 0 0 0 0 0 0 0 0 0 0 0 0 0 0 0 0 0 0 0 0 0 0 0 0 0 0 0 0 0 193 194 190 195 193 -193 198 -193 197 198 197 198 197 198 196 197 195 196 196 195 196 196 196 197 196 198 197 197 198 195 196 194 195 197 197 198 198 198 199 198 199 198 198 199 198 200 199 199 198 196 197 197 197 196 196 195 194 193 195 194 191 192 195 195 196 196 196 197 198 200 200 199 200 200 199 199 198 198 197 197 197 197 197 197 197 198 198 198 198 197 198 196 197 196 197 197 197 196 198 197 199 199 199 199 200 198 198 198 198 198 198 199 199 197 198 198 199 198 197 197 197 197 198 199 199 198 200 200 202 201 201 201 201 202 203 201 203 204 205 204 204 203 203 202 204 204 201 200 200 198 198 -193 -193 -193 -193 -193 194 194 195 196 197 199 198 198 197 197 197 198 198 198 197 198 199 -193 -193 200 199 198 197 196 196 194 194 198 203 203 204 203 201 -193 200 201 201 200 199 -193 200 202 201 -209 200 199 198 198 197 197 192 194 192 197 200 199 200 199 199 200 200 201 201 200 202 201 202 202 198 197 197 195 196 197 196 195 196 199 199 199 198 197 196 197 198 196 195 194 193 194 0 0 0 0 0
    0 0 0 0 0 0 0 0 0 0 0 0 0 0 0 0 0 0 0 0 0 0 0 0 0 0 0 0 0 0 0 0 0 0 0 0 0 0 0 0 0 0 0 0 0 0 0 0 0 0 0 0 0 0 0 0 0 0 0 0 0 0 0 0 0 0 0 0 0 193 194 190 194 192 196 198 -193 197 198 197 198 197 198 196 197 195 196 195 194 196 196 195 197 196 199 197 198 199 196 197 196 197 198 198 199 199 199 199 199 199 199 198 199 199 201 198 199 198 196 197 198 197 197 196 196 195 195 197 195 193 194 195 195 196 196 197 197 199 200 200 199 200 200 199 199 198 198 197 196 197 197 197 197 197 198 198 199 199 197 199 196 197 196 197 196 197 196 197 196 198 199 199 198 199 198 198 198 198 198 198 199 198 197 197 198 198 197 197 196 196 196 197 198 198 197 199 199 202 201 202 201 201 202 203 202 204 204 206 204 204 204 203 203 204 203 201 199 199 197 198 -193 -193 197 196 196 194 193 193 194 195 199 197 197 197 197 197 198 198 198 196 198 198 -193 200 199 198 198 197 196 196 194 193 198 202 202 204 203 202 200 200 201 201 200 199 -193 201 202 201 -209 -193 199 199 198 197 197 192 193 191 197 201 199 200 200 200 201 201 201 202 200 202 201 202 203 199 197 196 195 196 197 196 195 196 198 -193 200 198 197 196 197 197 196 195 194 192 194 0 0 0 0 0</data></disparity>
</opencv_storage>
