<?xml version="1.0"?>
<opencv_storage>
<gps_time_stamp>26004</gps_time_stamp>
<gps_x>-5.4275236129760742e+000</gps_x>
<gps_y>7.8277540206909180e-001</gps_y>
<gps_z>-1.3132476806640625e+000</gps_z>
<image_time_stamp>13964</image_time_stamp>
<disparity type_id="opencv-matrix">
  <rows>79</rows>
  <cols>320</cols>
  <dt>s</dt>
  <data>
    0 0 0 0 0 0 0 0 0 0 0 0 0 0 0 0 0 0 0 0 0 0 0 0 0 0 0 0 0 0 0 0 0 0 0 0 0 0 0 0 0 0 0 0 0 0 0 0 0 0 0 0 0 0 0 0 0 0 0 0 0 0 0 0 0 0 0 0 0 82 -193 90 -209 93 95 95 94 -193 90 91 88 88 87 87 87 86 86 85 84 86 86 86 86 84 85 86 89 88 88 86 85 86 85 85 84 84 84 83 85 83 84 86 87 87 88 89 89 89 90 91 88 88 86 85 85 84 84 84 83 84 80 84 85 84 86 88 88 90 90 90 89 87 88 87 86 86 86 86 86 86 87 85 88 87 87 88 88 87 87 86 86 83 84 86 83 82 83 83 83 84 84 84 81 85 86 85 85 85 84 84 85 85 84 84 85 83 84 86 85 85 85 85 83 81 85 85 83 86 86 86 86 85 86 86 87 86 85 86 85 85 85 84 84 82 83 84 83 81 83 85 86 85 85 87 86 86 87 87 87 88 88 88 88 90 90 90 86 87 86 86 86 87 87 87 87 89 90 90 91 90 89 88 88 89 88 89 89 89 89 97 100 100 101 102 102 -193 -209 -193 -193 -177 -193 -209 -209 -177 -209 -209 -209 -209 -209 -193 -209 -209 -193 -177 -177 -177 -177 -209 -177 -177 -209 -209 -209 -209 -209 -209 136 -193 -193 -193 499 499 500 500 502 502 495 490 486 486 483 484 485 473 477 0 0 0 0 0
    0 0 0 0 0 0 0 0 0 0 0 0 0 0 0 0 0 0 0 0 0 0 0 0 0 0 0 0 0 0 0 0 0 0 0 0 0 0 0 0 0 0 0 0 0 0 0 0 0 0 0 0 0 0 0 0 0 0 0 0 0 0 0 0 0 0 0 0 0 -209 -209 90 -209 -193 96 97 -209 -193 91 93 89 89 88 87 87 86 87 86 85 87 87 87 87 84 86 86 89 88 88 86 85 86 85 85 85 84 83 83 85 83 81 85 87 86 -193 88 -193 89 90 91 89 88 85 84 85 83 83 82 82 82 78 83 84 84 86 90 89 92 92 92 90 88 89 -193 -193 87 86 86 87 87 88 85 88 87 87 88 88 87 87 87 86 84 85 86 83 84 84 84 84 85 85 85 83 86 87 86 86 86 84 85 85 85 84 84 86 83 85 87 87 86 86 87 86 85 87 88 85 88 88 87 88 86 87 87 88 86 86 86 86 85 86 85 85 83 84 85 83 83 84 86 86 86 86 87 86 86 87 87 86 88 88 89 89 90 90 90 88 88 87 87 87 87 87 88 88 90 90 91 91 90 90 90 90 90 89 90 91 90 90 99 101 101 102 -193 -193 -177 -177 -193 -193 -177 -209 -209 -177 -177 -209 -209 -209 -209 -209 -209 -209 -209 -209 -193 -193 -177 -177 -209 -177 -177 -209 -209 -209 -209 -209 -193 139 144 -193 -209 500 500 500 500 501 501 -193 485 479 480 479 479 480 472 477 0 0 0 0 0
    0 0 0 0 0 0 0 0 0 0 0 0 0 0 0 0 0 0 0 0 0 0 0 0 0 0 0 0 0 0 0 0 0 0 0 0 0 0 0 0 0 0 0 0 0 0 0 0 0 0 0 0 0 0 0 0 0 0 0 0 0 0 0 0 0 0 0 0 0 -209 -209 -209 -209 -193 -193 98 -209 -193 -193 97 92 90 90 -193 88 87 88 88 -193 -209 -209 -209 -209 -209 -209 -209 -209 -209 -209 84 85 86 86 85 85 83 82 81 83 80 76 81 -193 -193 -209 -209 -209 -193 90 89 88 88 83 83 84 82 81 80 80 80 77 83 83 84 87 91 90 92 92 94 90 88 -193 -193 -193 -193 87 86 87 87 88 86 88 87 87 88 -193 -193 -193 -193 -193 -193 86 88 84 85 85 85 85 85 86 86 83 87 88 87 -193 -193 86 86 87 87 86 85 87 85 86 88 88 87 88 88 88 88 89 90 88 89 89 89 90 87 88 88 88 87 86 87 86 85 86 86 86 85 86 86 85 85 87 87 87 86 86 87 86 86 87 87 87 88 89 89 89 90 91 91 90 89 89 88 88 88 88 88 89 90 90 90 91 90 90 91 91 92 92 94 -193 93 92 100 102 102 102 102 102 -193 -209 107 -193 -193 120 124 -209 -209 -209 -209 -209 -209 -209 -209 -193 -193 -209 -193 -193 -209 -209 -209 -209 -209 -209 -209 -209 -209 -209 139 145 149 153 155 -209 501 501 501 501 -193 740 -193 476 477 477 478 478 473 477 0 0 0 0 0
    0 0 0 0 0 0 0 0 0 0 0 0 0 0 0 0 0 0 0 0 0 0 0 0 0 0 0 0 0 0 0 0 0 0 0 0 0 0 0 0 0 0 0 0 0 0 0 0 0 0 0 0 0 0 0 0 0 0 0 0 0 0 0 0 0 0 0 0 0 -209 -209 -209 -193 833 -193 -193 -209 -177 -193 101 -193 -193 -193 -209 -193 88 89 -193 -209 -209 -209 -209 -209 -209 -209 -209 -209 -209 -209 -209 -193 -193 -193 84 -193 81 80 79 80 -209 -209 -193 -209 -209 -209 -209 -209 -209 -209 -193 -209 -193 -177 78 80 78 77 77 78 79 76 82 83 -193 87 92 90 92 93 97 91 -209 -209 419 420 -193 -193 -209 -209 -209 -193 87 89 88 -193 -193 -193 -193 -193 -193 -177 -209 -193 -193 -193 86 86 85 85 85 86 86 81 88 -193 -193 -177 -177 -193 -193 88 89 88 87 88 86 87 89 89 89 89 89 89 89 90 91 90 90 91 91 92 90 90 91 90 -193 -193 -193 86 86 87 86 87 86 88 87 86 87 89 88 87 87 86 87 86 87 87 88 88 89 89 90 90 91 92 92 91 89 89 89 89 89 89 89 90 91 91 91 92 91 93 93 94 96 101 -193 -209 -193 95 102 103 103 103 102 102 103 104 107 107 104 -193 125 128 133 -193 -209 -209 -209 -209 -209 -209 -193 257 -209 -209 -209 -209 -209 -209 -209 -209 -177 -193 -209 -209 -209 -193 -193 154 -193 -209 -193 503 504 503 -193 -177 -193 474 476 476 477 476 473 478 0 0 0 0 0
    0 0 0 0 0 0 0 0 0 0 0 0 0 0 0 0 0 0 0 0 0 0 0 0 0 0 0 0 0 0 0 0 0 0 0 0 0 0 0 0 0 0 0 0 0 0 0 0 0 0 0 0 0 0 0 0 0 0 0 0 0 0 0 0 0 0 0 0 0 -193 -193 -193 829 831 -193 -193 -177 -177 -209 -209 -209 -209 -209 122 -209 -209 -209 -209 -193 -209 -209 -209 -209 -209 -209 -193 125 125 124 125 -209 611 612 -209 -209 -209 -209 -209 -209 -209 -209 -209 -193 -193 130 -193 -193 -193 128 -193 -193 -193 -193 -193 -177 -193 74 75 76 -193 -193 -193 -193 -209 87 94 -209 94 96 101 -193 -209 133 -193 -177 -193 -209 -209 -209 -209 -193 87 90 -209 -209 -209 -209 -193 -193 -193 -209 -209 254 261 -193 -193 -209 85 87 86 -209 -209 -209 -209 926 926 927 928 926 -193 89 91 89 89 90 87 89 89 90 90 90 90 90 90 92 93 92 92 94 94 95 92 94 95 93 -193 -177 -177 -193 85 87 86 87 -209 89 88 -193 -193 -193 -209 -209 -209 86 87 86 86 87 87 87 88 89 90 89 91 93 92 93 91 91 90 90 90 90 91 94 92 93 93 93 93 97 98 99 101 106 112 -209 117 101 103 104 104 103 102 102 103 104 106 107 105 121 125 127 132 135 134 136 -209 -209 -209 -209 -177 -177 255 -209 -209 -209 -193 -209 -209 -193 -177 -177 -209 -209 -193 -193 -193 -193 -193 -209 -209 505 505 503 -193 -177 -193 473 475 476 476 475 473 479 0 0 0 0 0
    0 0 0 0 0 0 0 0 0 0 0 0 0 0 0 0 0 0 0 0 0 0 0 0 0 0 0 0 0 0 0 0 0 0 0 0 0 0 0 0 0 0 0 0 0 0 0 0 0 0 0 0 0 0 0 0 0 0 0 0 0 0 0 0 0 0 0 0 0 131 130 131 -193 829 -177 -193 -177 -177 -209 -209 122 125 123 124 126 124 124 124 -209 -209 -209 127 125 126 -193 125 127 127 125 126 -193 -193 -193 -209 -209 -209 -209 -209 -209 -193 134 132 131 131 131 129 128 127 130 125 128 130 131 -209 -177 -209 -209 -209 -209 -209 -209 -209 -209 -209 -209 -209 -209 -209 -209 -209 -193 129 133 131 -193 -209 -193 126 126 -193 -209 87 90 -209 -209 -209 -193 -209 -209 -209 -209 -209 -209 -209 -209 -209 -209 -209 -209 -209 -209 -209 -209 -193 -193 925 927 927 926 -193 -193 93 92 90 92 89 91 91 92 91 92 92 93 92 94 98 97 96 101 101 101 100 101 -193 -209 -193 -177 -177 -177 -193 -209 -209 87 -209 -193 91 -209 -209 -209 -209 -209 -193 86 88 86 85 86 86 86 88 89 90 90 92 95 94 96 93 94 93 -209 -193 -209 -193 -209 92 93 94 94 96 99 102 102 103 109 118 118 121 -193 -193 111 105 104 104 103 104 106 110 114 108 122 125 126 130 133 132 135 135 135 136 -209 -177 -177 -177 -209 -209 -209 -209 -209 -209 -193 616 628 -209 -193 -177 -177 642 -193 -193 -193 -209 -209 -209 501 -209 -209 -193 472 475 476 477 476 474 480 0 0 0 0 0
    0 0 0 0 0 0 0 0 0 0 0 0 0 0 0 0 0 0 0 0 0 0 0 0 0 0 0 0 0 0 0 0 0 0 0 0 0 0 0 0 0 0 0 0 0 0 0 0 0 0 0 0 0 0 0 0 0 0 0 0 0 0 0 0 0 0 0 0 0 130 129 130 -193 827 827 -193 -177 -177 -209 -193 124 128 126 126 128 126 125 126 127 131 126 129 127 128 128 127 128 129 126 128 -193 -193 -193 126 127 -193 -193 -193 -209 131 134 132 131 131 131 129 128 128 130 126 128 130 131 131 -193 -193 -193 -209 -209 -209 -209 123 -193 123 125 -209 123 -193 -193 -193 129 129 133 130 128 128 127 126 127 127 124 -209 -209 124 126 -193 125 125 124 127 127 127 126 125 128 125 124 -209 -209 -193 -193 126 -193 124 125 -193 -193 -193 -193 -209 -193 -193 -193 94 97 -193 96 97 98 95 95 97 98 96 98 101 101 100 104 112 -193 -193 -193 124 127 124 -177 -177 -193 -209 -209 -209 -209 -193 -209 -209 112 -209 -209 -209 -209 -209 -193 88 86 86 87 87 87 88 90 92 91 94 97 97 100 99 -209 -209 -193 -193 133 134 130 -209 96 98 97 100 102 105 105 108 114 121 120 123 123 120 121 109 107 107 107 112 115 118 121 120 123 126 126 128 130 127 132 132 132 134 136 -209 -209 -209 -209 -209 -209 -209 -209 -209 -209 616 -193 -209 -177 -177 -177 -177 -193 -193 -193 -209 -209 -209 -209 -209 -209 -209 471 474 476 478 477 475 482 0 0 0 0 0
    0 0 0 0 0 0 0 0 0 0 0 0 0 0 0 0 0 0 0 0 0 0 0 0 0 0 0 0 0 0 0 0 0 0 0 0 0 0 0 0 0 0 0 0 0 0 0 0 0 0 0 0 0 0 0 0 0 0 0 0 0 0 0 0 0 0 0 0 0 130 129 130 126 -193 -193 -193 -193 -209 127 127 128 130 128 128 129 127 126 128 128 131 126 130 129 129 129 128 130 130 128 129 128 -193 -193 127 128 127 129 -193 132 130 133 132 131 131 131 129 129 128 130 127 128 130 132 131 132 130 132 130 130 129 127 125 126 126 128 -193 127 130 -193 -193 129 129 132 129 127 127 126 125 126 127 125 122 122 125 127 126 127 127 127 129 129 129 128 128 129 126 127 130 126 127 127 127 127 125 127 127 124 127 125 125 125 123 124 -193 -193 -193 -193 107 -193 100 100 101 102 101 101 103 -193 -193 115 122 123 124 124 126 129 125 -193 -193 131 129 127 127 -193 -209 -193 -193 120 122 121 121 -193 -209 -209 96 -193 87 88 87 -209 88 91 94 92 95 99 99 -193 -209 -209 -193 -193 -193 131 132 129 129 -193 -193 102 103 104 110 116 116 117 122 121 123 124 123 124 118 118 119 120 121 121 122 122 122 123 127 127 126 128 125 130 129 129 132 135 135 -193 -193 -209 -209 -209 -209 -209 -209 -209 -209 -209 -209 -209 -177 -209 -193 -209 -209 -209 -209 443 -209 453 -209 -209 -209 471 474 477 482 480 477 484 0 0 0 0 0
    0 0 0 0 0 0 0 0 0 0 0 0 0 0 0 0 0 0 0 0 0 0 0 0 0 0 0 0 0 0 0 0 0 0 0 0 0 0 0 0 0 0 0 0 0 0 0 0 0 0 0 0 0 0 0 0 0 0 0 0 0 0 0 0 0 0 0 0 0 130 128 130 127 -193 132 -193 132 133 128 128 129 130 129 128 129 128 126 128 129 131 127 130 130 130 130 129 130 131 129 130 129 129 128 128 129 128 130 131 132 129 133 132 131 130 131 129 129 128 130 127 129 131 132 130 132 131 132 130 131 130 129 128 129 129 130 131 131 132 133 131 130 129 131 129 127 127 126 125 126 127 126 123 124 128 129 129 130 129 128 129 130 130 128 129 129 126 128 131 127 128 128 128 128 127 128 128 125 128 126 126 126 124 125 123 123 125 123 122 122 -193 -193 -193 109 -193 -193 120 -193 122 122 124 125 125 126 128 130 127 133 129 131 131 129 129 128 125 126 123 122 124 123 123 123 124 -209 -193 122 -209 -209 -209 -209 89 94 -193 -209 98 -193 -193 124 130 125 128 127 127 129 129 128 127 121 123 111 109 109 117 121 120 119 123 122 123 124 124 124 123 122 122 123 123 124 124 124 124 124 128 129 128 130 129 132 131 131 132 134 135 135 135 136 138 -209 -209 -209 -177 -209 -209 819 -177 -209 -209 -209 -209 -209 -209 -209 -209 -177 -209 -177 -209 -209 -209 476 479 484 487 486 483 486 0 0 0 0 0
    0 0 0 0 0 0 0 0 0 0 0 0 0 0 0 0 0 0 0 0 0 0 0 0 0 0 0 0 0 0 0 0 0 0 0 0 0 0 0 0 0 0 0 0 0 0 0 0 0 0 0 0 0 0 0 0 0 0 0 0 0 0 0 0 0 0 0 0 0 129 127 128 126 127 131 131 131 133 128 128 128 130 129 129 129 128 127 130 130 132 128 131 131 130 131 130 131 131 130 131 130 129 129 128 130 129 130 131 131 129 133 132 131 130 131 130 130 129 131 128 129 131 132 130 131 130 131 130 131 130 130 129 130 130 130 131 131 132 133 130 129 129 131 129 127 127 126 126 127 128 127 124 126 130 131 130 131 130 129 130 130 130 129 129 129 127 130 132 129 130 130 129 130 128 129 128 126 128 126 127 127 124 126 125 124 127 125 125 124 125 124 122 122 123 122 123 124 124 124 126 126 127 127 129 131 128 133 130 131 131 129 129 129 126 127 124 124 126 124 125 125 126 128 124 125 125 121 123 123 125 -193 124 129 -193 124 126 129 132 127 130 128 127 129 129 128 127 122 125 122 120 119 120 122 122 121 124 123 123 125 124 125 127 124 125 125 125 126 125 125 125 125 129 130 129 131 132 134 134 134 134 134 135 135 134 135 136 139 -209 -209 -209 -209 -209 -177 -209 -209 -209 -209 -193 -177 -209 -209 -209 -177 -177 -177 -209 -209 -209 486 487 488 489 488 486 487 0 0 0 0 0
    0 0 0 0 0 0 0 0 0 0 0 0 0 0 0 0 0 0 0 0 0 0 0 0 0 0 0 0 0 0 0 0 0 0 0 0 0 0 0 0 0 0 0 0 0 0 0 0 0 0 0 0 0 0 0 0 0 0 0 0 0 0 0 0 0 0 0 0 0 128 127 128 126 126 129 130 130 133 128 128 128 130 129 129 129 129 127 130 131 132 129 132 131 131 131 131 132 131 130 131 130 130 129 128 130 129 130 130 131 129 132 131 130 130 131 130 130 129 131 128 130 131 132 130 131 130 131 130 131 131 131 130 131 131 131 132 131 132 132 130 129 128 131 129 126 128 127 126 127 128 128 125 127 131 131 131 131 130 129 129 130 129 128 129 129 128 130 132 130 131 131 130 131 129 130 129 126 129 127 127 127 124 127 126 126 128 125 126 124 126 126 125 124 125 124 125 126 127 127 128 128 129 129 130 131 129 133 130 131 131 130 130 129 127 128 125 127 129 126 128 127 128 130 128 129 127 124 127 126 129 127 127 131 126 127 129 131 132 128 131 129 128 129 129 128 127 123 127 123 123 123 124 124 124 123 124 123 123 124 124 125 128 127 127 128 127 128 126 127 126 125 129 131 130 133 135 136 136 136 135 135 134 134 134 135 135 137 -209 -209 -209 -209 -209 -177 -177 -209 -209 -209 -193 -193 -209 -209 -209 -177 -177 -177 -209 -209 -209 490 490 490 490 490 489 488 0 0 0 0 0
    0 0 0 0 0 0 0 0 0 0 0 0 0 0 0 0 0 0 0 0 0 0 0 0 0 0 0 0 0 0 0 0 0 0 0 0 0 0 0 0 0 0 0 0 0 0 0 0 0 0 0 0 0 0 0 0 0 0 0 0 0 0 0 0 0 0 0 0 0 128 126 127 125 125 128 129 128 132 127 127 128 130 129 129 129 129 127 130 131 132 130 132 132 131 132 132 133 133 132 132 132 131 131 130 131 129 130 130 131 128 132 131 130 130 131 130 130 129 131 128 129 131 132 129 130 130 131 131 131 131 132 131 132 132 131 132 131 132 132 130 129 128 131 129 127 128 127 126 127 128 128 125 126 130 130 131 131 130 129 130 130 129 128 130 129 128 131 132 130 131 131 130 131 130 130 129 127 130 128 128 128 125 127 126 126 128 126 127 125 127 127 127 126 127 126 128 129 129 129 130 129 130 130 131 131 130 133 131 131 131 130 130 130 128 130 127 130 131 128 130 130 130 131 130 130 129 126 130 129 131 130 130 132 128 130 131 132 132 129 131 129 128 128 129 128 126 124 126 123 123 123 124 124 124 124 124 123 123 125 124 126 131 130 129 130 130 130 128 128 128 126 130 132 132 135 137 138 138 137 137 135 135 134 133 134 134 136 -209 -209 -209 -209 -209 -209 -193 -209 -209 -209 -193 -209 -209 -177 -193 -177 -177 -177 -209 -209 -209 492 492 492 491 490 489 489 0 0 0 0 0
    0 0 0 0 0 0 0 0 0 0 0 0 0 0 0 0 0 0 0 0 0 0 0 0 0 0 0 0 0 0 0 0 0 0 0 0 0 0 0 0 0 0 0 0 0 0 0 0 0 0 0 0 0 0 0 0 0 0 0 0 0 0 0 0 0 0 0 0 0 127 126 126 124 124 126 127 127 132 128 127 128 130 129 129 129 129 127 130 131 132 130 132 132 132 133 132 133 133 133 133 133 -193 -193 133 133 131 131 130 131 128 132 130 129 129 130 130 130 129 130 127 129 130 131 128 129 129 130 131 131 133 133 133 133 133 133 133 132 133 133 130 129 129 131 129 127 128 127 126 127 129 128 125 126 130 130 130 131 130 129 130 130 130 129 130 129 128 131 131 130 131 131 130 131 130 131 129 128 130 128 128 128 125 127 126 126 128 126 127 125 127 127 127 127 128 127 128 129 130 130 130 129 130 130 131 131 130 133 130 131 131 130 130 130 129 131 128 131 132 130 132 132 131 132 131 131 130 127 131 130 131 131 130 132 129 131 131 132 132 129 130 129 128 128 129 128 127 125 128 124 125 125 124 124 124 124 125 123 123 125 124 127 132 131 130 131 130 130 128 129 129 127 131 133 134 136 138 138 138 138 137 136 135 135 133 134 134 136 -209 -209 -177 -193 -209 -209 -177 -177 -209 -209 -193 -209 -209 -177 -193 -177 -177 -177 -209 -193 -209 492 493 492 492 491 491 490 0 0 0 0 0
    0 0 0 0 0 0 0 0 0 0 0 0 0 0 0 0 0 0 0 0 0 0 0 0 0 0 0 0 0 0 0 0 0 0 0 0 0 0 0 0 0 0 0 0 0 0 0 0 0 0 0 0 0 0 0 0 0 0 0 0 0 0 0 0 0 0 0 0 0 127 125 126 124 123 124 126 127 132 128 127 128 130 129 130 129 129 127 129 131 132 130 131 132 132 132 132 134 134 134 134 -193 -209 -193 134 134 131 131 130 132 128 132 130 129 129 130 130 129 128 130 126 127 130 131 127 126 127 128 131 131 133 134 134 134 134 133 134 132 133 132 130 128 128 131 129 127 128 127 126 127 129 128 124 125 130 129 130 131 130 130 130 130 131 129 131 129 128 131 131 130 131 131 130 131 130 131 130 128 130 128 129 128 125 127 125 126 127 126 127 125 126 126 126 126 127 126 128 129 130 130 129 129 130 130 131 130 130 133 130 131 131 130 130 130 130 131 128 132 132 130 132 132 132 133 132 133 131 129 131 131 131 131 130 131 128 130 130 131 131 128 130 129 128 128 128 128 127 125 130 125 127 128 126 125 124 126 126 124 124 125 125 128 132 131 129 131 130 130 129 129 129 128 132 134 134 136 137 137 138 138 137 136 136 135 134 134 135 136 -209 -177 -177 -177 -177 -209 -177 -177 -177 -209 -177 -209 -209 -209 -193 -177 -177 -177 -177 -177 -209 -193 493 493 493 492 492 491 0 0 0 0 0
    0 0 0 0 0 0 0 0 0 0 0 0 0 0 0 0 0 0 0 0 0 0 0 0 0 0 0 0 0 0 0 0 0 0 0 0 0 0 0 0 0 0 0 0 0 0 0 0 0 0 0 0 0 0 0 0 0 0 0 0 0 0 0 0 0 0 0 0 0 127 125 126 124 124 125 126 127 132 128 127 128 130 129 130 130 129 126 129 131 132 130 131 132 131 132 132 134 134 134 134 135 -193 136 134 133 131 131 128 131 128 131 129 128 128 130 129 129 127 129 126 127 130 130 126 124 125 126 128 129 132 133 133 133 134 133 133 132 132 131 129 127 126 131 128 126 128 127 126 127 129 128 125 125 130 129 131 132 131 131 130 130 131 129 130 128 127 131 130 130 131 131 130 131 131 131 130 129 130 129 129 128 125 128 125 127 128 126 127 125 126 126 126 126 126 126 127 129 130 130 130 129 130 130 131 130 130 132 129 130 131 130 130 130 130 130 127 131 131 129 131 131 131 132 132 133 132 130 132 132 131 131 129 131 128 129 129 131 131 128 130 128 127 127 128 128 126 125 129 124 126 128 126 126 125 126 126 124 124 126 125 128 132 131 129 130 131 131 129 130 130 129 133 135 135 136 136 137 138 138 137 137 137 137 136 136 136 139 -193 -177 -177 -177 -177 -193 -177 -177 -177 -209 -177 -193 -193 -209 -177 -177 -177 -177 -193 -177 -209 -193 494 494 493 492 493 493 0 0 0 0 0
    0 0 0 0 0 0 0 0 0 0 0 0 0 0 0 0 0 0 0 0 0 0 0 0 0 0 0 0 0 0 0 0 0 0 0 0 0 0 0 0 0 0 0 0 0 0 0 0 0 0 0 0 0 0 0 0 0 0 0 0 0 0 0 0 0 0 0 0 0 128 126 127 125 124 125 126 127 132 129 127 128 131 130 130 130 130 127 129 132 132 131 131 132 131 133 133 134 134 134 133 135 134 136 134 133 131 131 129 131 128 131 129 128 128 129 129 129 127 129 125 127 130 130 126 123 124 124 126 127 131 132 133 134 134 133 133 132 132 131 129 126 126 131 128 126 128 128 127 128 129 129 125 126 130 129 131 132 131 131 130 130 130 129 130 127 127 130 130 130 130 130 130 131 131 131 129 129 130 128 129 128 125 128 125 127 127 126 127 125 126 126 126 126 126 126 127 129 131 131 130 129 131 130 132 130 130 133 129 131 131 129 130 129 130 130 127 130 130 129 131 130 131 132 131 133 132 130 133 132 132 131 130 132 129 130 130 132 131 128 130 128 127 127 128 128 126 125 129 124 126 127 126 125 125 126 125 124 124 126 125 128 133 131 130 131 131 131 130 130 131 129 134 136 137 137 137 137 138 138 137 137 137 137 137 137 137 140 149 -177 -193 -177 -177 -177 -209 -193 -209 -209 -177 -177 -193 -209 -177 -177 -177 -177 -193 -209 -209 -209 495 495 494 493 493 494 0 0 0 0 0
    0 0 0 0 0 0 0 0 0 0 0 0 0 0 0 0 0 0 0 0 0 0 0 0 0 0 0 0 0 0 0 0 0 0 0 0 0 0 0 0 0 0 0 0 0 0 0 0 0 0 0 0 0 0 0 0 0 0 0 0 0 0 0 0 0 0 0 0 0 128 127 127 125 124 125 125 126 133 129 128 129 131 130 131 130 130 127 130 132 133 133 132 132 132 133 134 -193 -193 135 -193 136 136 -193 -193 133 132 133 131 132 129 132 130 128 128 130 129 129 128 129 125 126 130 130 124 122 -193 -193 -193 126 131 132 133 134 134 134 133 132 132 131 128 126 126 131 128 127 128 128 127 128 129 129 125 126 129 128 130 131 131 131 131 130 130 129 130 127 128 131 129 130 130 130 130 130 130 131 128 129 129 128 128 127 125 128 125 127 127 127 128 126 127 126 127 127 126 127 127 129 131 131 130 130 131 131 132 130 131 133 130 131 131 129 130 129 129 129 127 129 129 128 130 129 130 132 131 132 132 131 133 133 133 132 131 132 130 132 131 133 131 128 130 129 128 128 128 128 126 125 129 124 125 126 125 125 125 125 125 124 123 125 125 128 133 131 130 131 131 132 130 130 131 130 135 137 137 137 137 138 139 138 138 137 138 139 138 138 140 144 150 -193 -177 -209 -193 -177 -209 -209 -209 -209 -209 -177 -209 -209 -177 -177 -177 -177 -209 -209 -209 -209 -193 496 493 493 492 494 0 0 0 0 0
    0 0 0 0 0 0 0 0 0 0 0 0 0 0 0 0 0 0 0 0 0 0 0 0 0 0 0 0 0 0 0 0 0 0 0 0 0 0 0 0 0 0 0 0 0 0 0 0 0 0 0 0 0 0 0 0 0 0 0 0 0 0 0 0 0 0 0 0 0 -193 130 129 127 128 126 126 128 134 130 128 129 131 130 131 131 130 127 130 132 133 134 133 132 132 133 134 -193 -193 -209 -209 -209 -209 -209 -209 134 134 135 133 134 132 133 131 130 130 131 130 130 128 130 125 126 128 128 123 122 -193 -193 -193 126 131 133 134 135 134 134 134 133 132 131 127 126 125 132 128 127 129 129 128 129 130 129 125 127 129 128 129 130 131 131 133 133 131 131 132 128 129 131 129 130 130 130 130 130 130 131 128 129 129 128 129 127 126 128 125 127 127 127 128 126 128 127 127 128 128 129 128 130 131 131 131 130 132 131 132 130 131 133 130 131 131 129 129 129 129 128 126 128 128 127 129 128 129 131 130 132 132 131 133 132 133 132 132 133 130 133 132 133 131 128 130 129 128 128 127 127 125 125 128 125 125 126 125 125 125 125 124 123 123 125 124 128 133 131 130 131 131 132 130 130 131 131 136 137 138 138 138 139 140 139 139 139 140 140 141 141 143 147 150 156 -193 -209 -209 -209 -209 -209 -209 -177 -209 -193 -209 -209 -209 -209 -209 -209 -209 -209 -209 -209 -209 497 494 493 492 493 0 0 0 0 0
    0 0 0 0 0 0 0 0 0 0 0 0 0 0 0 0 0 0 0 0 0 0 0 0 0 0 0 0 0 0 0 0 0 0 0 0 0 0 0 0 0 0 0 0 0 0 0 0 0 0 0 0 0 0 0 0 0 0 0 0 0 0 0 0 0 0 0 0 0 -209 134 133 131 -209 -209 129 132 135 131 130 130 132 131 132 132 131 128 131 133 133 134 134 133 133 133 135 -193 -193 -193 -209 138 138 139 -209 137 137 136 135 135 134 134 133 131 131 132 131 130 129 130 125 126 128 128 -193 -193 -193 -209 -193 126 131 133 134 135 134 135 135 134 133 131 128 126 126 133 130 129 130 130 130 131 131 130 125 127 130 129 130 131 132 134 135 135 133 133 133 129 129 131 129 130 129 130 130 130 131 131 129 130 129 128 128 127 126 128 125 127 127 128 130 129 130 129 129 131 131 132 131 132 132 133 132 132 133 132 132 130 131 133 130 131 130 128 129 129 129 128 126 128 127 127 128 127 127 129 129 131 131 130 132 131 133 132 132 132 130 133 132 133 131 128 130 128 128 128 127 127 125 125 129 125 126 126 126 126 125 124 124 123 122 124 123 127 133 130 129 130 131 132 131 131 132 131 137 137 139 139 138 139 140 140 140 140 141 141 143 144 144 147 149 152 162 -177 -209 -209 -209 -209 -209 -177 -177 -209 -209 -193 -209 -209 -209 -209 -209 -209 -177 -209 -209 -177 494 493 492 494 0 0 0 0 0
    0 0 0 0 0 0 0 0 0 0 0 0 0 0 0 0 0 0 0 0 0 0 0 0 0 0 0 0 0 0 0 0 0 0 0 0 0 0 0 0 0 0 0 0 0 0 0 0 0 0 0 0 0 0 0 0 0 0 0 0 0 0 0 0 0 0 0 0 0 144 141 141 -209 142 -209 -193 140 137 134 132 132 133 132 133 133 132 130 132 135 135 136 135 135 135 136 137 -193 -193 -193 -193 142 144 146 145 142 141 139 138 138 136 136 134 132 132 132 131 130 129 130 126 126 128 128 123 122 -193 120 123 126 132 133 135 136 135 136 136 136 135 132 130 129 129 135 131 131 132 132 132 132 132 132 125 129 131 131 132 132 133 135 136 -193 135 135 134 130 130 132 129 130 129 130 130 130 131 131 128 130 128 128 129 127 127 129 125 128 129 131 132 132 132 132 132 134 134 136 133 135 134 135 134 133 134 133 133 131 132 133 130 132 131 129 130 129 129 128 126 128 127 127 128 126 126 129 128 130 130 130 132 132 133 132 132 132 130 132 132 133 131 128 129 128 128 127 127 127 125 125 129 126 126 127 127 128 127 126 125 124 124 125 125 130 133 130 130 131 132 133 132 132 133 132 137 138 139 138 137 139 140 139 139 140 141 141 144 145 145 148 149 151 155 -209 -209 -209 -209 -209 -209 -209 -209 -209 -209 -193 -193 -209 -209 -209 -209 -209 -209 -209 -209 -193 494 493 492 494 0 0 0 0 0
    0 0 0 0 0 0 0 0 0 0 0 0 0 0 0 0 0 0 0 0 0 0 0 0 0 0 0 0 0 0 0 0 0 0 0 0 0 0 0 0 0 0 0 0 0 0 0 0 0 0 0 0 0 0 0 0 0 0 0 0 0 0 0 0 0 0 0 0 0 149 148 149 -193 149 -193 153 150 148 137 135 135 135 134 135 134 133 132 135 136 136 138 137 136 137 138 140 142 146 150 -193 147 149 149 148 147 144 142 141 140 139 138 136 135 133 134 133 132 131 132 128 128 131 131 123 124 -209 120 123 127 134 135 137 138 139 140 141 140 138 -193 132 132 133 136 133 133 134 134 134 134 134 134 128 133 133 134 134 134 134 136 136 137 135 135 134 131 131 132 129 130 129 130 130 130 131 131 129 131 129 128 130 129 130 132 128 131 132 -193 135 -193 135 137 137 138 138 140 137 139 137 138 136 135 135 134 134 133 133 134 131 132 132 129 131 130 130 129 127 129 127 128 129 127 127 129 129 131 130 131 133 132 134 133 134 134 132 134 133 134 131 128 129 128 128 128 127 127 125 126 130 127 127 129 130 131 131 130 128 126 127 129 128 133 134 130 131 131 132 133 133 133 133 133 137 138 140 139 138 139 140 140 139 141 142 142 145 146 146 148 149 151 153 -193 -209 -209 -209 -209 -209 -209 -209 -193 -193 -177 -177 -193 -209 -209 -209 -177 -209 -209 -209 -209 -209 493 491 494 0 0 0 0 0
    0 0 0 0 0 0 0 0 0 0 0 0 0 0 0 0 0 0 0 0 0 0 0 0 0 0 0 0 0 0 0 0 0 0 0 0 0 0 0 0 0 0 0 0 0 0 0 0 0 0 0 0 0 0 0 0 0 0 0 0 0 0 0 0 0 0 0 0 0 149 149 150 149 150 151 153 151 150 145 139 139 138 136 137 137 135 135 138 139 138 141 141 -193 142 142 146 148 150 152 -193 149 150 150 149 149 147 145 145 144 144 142 140 138 136 135 135 133 134 134 -193 -193 135 135 -209 131 -209 125 -209 -193 -193 139 141 141 143 142 144 141 141 137 -193 136 136 141 135 136 136 136 136 136 136 136 131 135 136 135 136 135 135 137 137 139 136 136 135 132 133 133 131 131 130 131 131 130 131 132 130 131 129 130 132 132 133 134 133 135 137 -193 144 -193 -193 144 143 142 143 142 141 141 141 141 140 139 141 137 137 136 136 135 133 134 133 131 133 132 131 130 129 131 129 130 131 129 129 131 132 134 132 133 135 135 136 136 137 138 136 139 136 136 133 130 131 129 129 128 127 128 125 127 131 128 129 131 132 134 135 134 133 133 135 135 135 137 135 131 131 132 132 133 133 133 133 133 137 138 140 139 138 140 141 140 140 142 144 144 147 148 148 149 150 151 152 155 -193 -209 -209 -209 -209 -209 -209 -177 -193 -177 -177 -177 -209 -193 -209 -177 -193 217 -209 -209 -209 -209 490 494 0 0 0 0 0
    0 0 0 0 0 0 0 0 0 0 0 0 0 0 0 0 0 0 0 0 0 0 0 0 0 0 0 0 0 0 0 0 0 0 0 0 0 0 0 0 0 0 0 0 0 0 0 0 0 0 0 0 0 0 0 0 0 0 0 0 0 0 0 0 0 0 0 0 0 150 149 150 149 151 151 152 151 151 149 147 145 143 140 140 140 138 138 140 141 140 143 -193 -193 147 148 149 150 152 153 153 150 151 151 150 150 149 148 147 147 148 146 145 143 139 138 138 135 -193 -193 -193 -193 138 138 140 -193 145 -209 -193 148 149 146 145 145 147 145 148 144 147 148 144 141 140 145 140 139 139 138 138 139 138 138 134 138 -193 138 138 136 136 139 139 141 136 136 137 134 135 134 132 132 131 132 132 130 132 132 131 132 130 132 134 135 136 138 138 142 149 149 149 149 145 147 146 143 145 144 143 143 143 142 143 142 146 142 142 140 140 138 136 136 135 133 134 134 133 132 131 134 132 133 133 132 132 134 134 136 135 136 137 138 139 140 140 142 141 145 141 141 135 133 133 131 131 129 128 128 125 129 133 131 132 134 135 138 141 139 139 140 141 142 141 142 138 133 133 133 133 134 134 133 134 134 138 139 142 140 140 142 142 142 142 143 147 146 148 149 148 150 150 151 152 154 158 -209 -209 -193 -177 -177 -209 -193 -177 -177 -177 -177 -209 -193 -193 -177 -193 217 -209 -193 -209 -209 -209 493 0 0 0 0 0
    0 0 0 0 0 0 0 0 0 0 0 0 0 0 0 0 0 0 0 0 0 0 0 0 0 0 0 0 0 0 0 0 0 0 0 0 0 0 0 0 0 0 0 0 0 0 0 0 0 0 0 0 0 0 0 0 0 0 0 0 0 0 0 0 0 0 0 0 0 150 150 151 150 151 151 153 152 151 149 149 149 147 145 145 144 143 142 144 145 142 145 146 146 148 149 149 151 152 154 154 151 151 151 151 151 150 149 149 148 149 148 147 147 142 142 142 140 142 141 140 140 141 141 143 140 148 142 153 152 151 149 148 148 149 147 149 147 149 149 148 146 144 147 144 142 142 141 141 141 142 142 137 140 143 142 140 138 138 139 139 143 137 137 138 136 136 136 133 133 132 132 132 130 132 133 132 133 132 133 136 139 139 143 146 147 150 151 150 150 147 149 148 145 146 145 145 144 145 145 146 145 148 146 146 144 146 141 139 139 139 136 138 138 136 136 135 138 136 136 136 135 135 -193 136 139 137 138 140 141 142 143 142 144 145 147 145 145 140 137 136 135 134 132 130 130 127 132 135 135 135 138 138 144 148 147 147 148 149 149 149 148 146 134 134 134 134 135 136 135 135 135 139 141 145 142 142 144 144 144 144 145 148 147 149 150 149 150 151 151 152 153 156 160 -209 -193 -177 -177 -209 -209 -209 -177 -177 -177 -177 -193 -193 -177 208 217 -209 159 -193 -209 -209 -209 0 0 0 0 0
    0 0 0 0 0 0 0 0 0 0 0 0 0 0 0 0 0 0 0 0 0 0 0 0 0 0 0 0 0 0 0 0 0 0 0 0 0 0 0 0 0 0 0 0 0 0 0 0 0 0 0 0 0 0 0 0 0 0 0 0 0 0 0 0 0 0 0 0 0 151 151 151 151 152 -193 153 152 152 150 150 150 149 148 148 147 148 147 148 148 146 147 148 148 149 151 151 151 153 154 154 152 152 151 151 152 151 150 149 149 150 149 149 148 145 147 147 147 147 144 144 142 143 143 144 141 147 140 153 151 151 150 148 148 149 148 149 148 149 149 149 148 147 148 147 145 146 145 146 145 146 147 141 144 146 146 142 139 139 140 139 142 138 138 140 139 140 138 135 135 134 134 134 131 133 134 134 136 134 135 142 147 145 148 149 150 151 151 150 150 148 149 148 145 147 145 145 146 147 146 147 147 149 148 148 147 148 144 142 143 145 141 145 146 143 142 140 146 146 141 143 -209 -209 -193 140 143 141 140 143 143 144 145 144 146 146 148 146 146 144 140 140 140 136 134 133 134 132 136 138 138 137 141 142 147 150 150 150 151 152 151 151 151 151 136 137 136 136 137 138 137 137 137 140 143 147 143 143 146 146 145 146 146 149 148 150 150 149 150 150 150 151 152 155 157 -209 -177 -177 -177 -209 -209 -209 -177 -177 -177 -177 -177 -193 -193 205 216 -209 -209 -209 -209 -209 -209 0 0 0 0 0
    0 0 0 0 0 0 0 0 0 0 0 0 0 0 0 0 0 0 0 0 0 0 0 0 0 0 0 0 0 0 0 0 0 0 0 0 0 0 0 0 0 0 0 0 0 0 0 0 0 0 0 0 0 0 0 0 0 0 0 0 0 0 0 0 0 0 0 0 0 151 151 151 151 152 -193 153 152 151 149 150 150 149 148 148 148 148 148 149 149 148 149 149 149 150 151 151 152 153 154 154 152 152 152 151 152 151 151 150 150 151 150 150 150 148 150 150 150 150 147 148 146 146 145 146 144 148 142 153 151 151 150 149 149 149 148 149 148 149 148 149 148 148 149 148 147 148 147 148 147 149 149 145 148 149 149 147 143 143 144 143 147 141 142 145 146 146 144 141 141 138 139 -193 135 136 137 139 140 139 139 147 150 149 150 150 150 150 151 150 150 148 149 148 146 148 146 146 147 147 148 149 149 150 149 149 149 149 147 146 147 149 147 150 150 150 150 149 150 151 147 148 -193 -193 -193 144 146 144 143 147 146 146 147 146 147 147 148 147 147 146 144 145 146 142 139 136 138 137 139 141 142 141 145 145 148 151 150 151 152 152 152 152 152 153 140 140 138 138 138 139 139 139 138 142 144 148 145 145 148 147 146 147 147 149 149 150 150 149 150 150 150 151 152 154 156 -209 -177 -177 -177 -209 -209 -209 -209 -177 -177 -177 -177 -209 -209 -209 -209 -177 -177 -193 -209 -193 -209 0 0 0 0 0
    0 0 0 0 0 0 0 0 0 0 0 0 0 0 0 0 0 0 0 0 0 0 0 0 0 0 0 0 0 0 0 0 0 0 0 0 0 0 0 0 0 0 0 0 0 0 0 0 0 0 0 0 0 0 0 0 0 0 0 0 0 0 0 0 0 0 0 0 0 150 151 151 150 152 -193 152 151 151 149 150 150 149 149 149 148 149 147 149 148 148 149 149 149 150 151 152 152 153 153 154 152 152 152 151 152 151 151 151 150 151 150 150 150 149 151 151 151 -193 149 149 148 148 147 147 146 148 144 153 152 152 151 149 149 149 148 149 148 148 148 149 149 148 150 149 148 149 149 150 149 150 151 148 150 151 150 149 147 147 147 147 148 145 146 148 150 150 149 148 149 149 150 -193 146 146 -193 148 148 146 146 150 152 150 150 150 150 150 151 150 150 148 149 149 147 148 147 147 147 148 148 149 149 150 150 150 149 150 148 148 149 151 150 151 152 151 151 151 151 151 149 149 -193 148 148 148 148 147 145 148 148 147 148 148 148 148 149 149 149 148 148 148 149 148 147 140 144 143 143 147 148 147 149 148 149 151 151 151 152 152 152 152 153 153 146 145 141 140 140 141 141 142 141 145 146 149 147 147 149 148 147 148 148 150 150 150 151 149 150 150 150 151 151 153 155 -209 -177 -177 -177 -209 -209 -209 -209 -209 -209 -209 -209 -209 -209 -209 -177 -177 -177 -193 -209 -209 -209 0 0 0 0 0
    0 0 0 0 0 0 0 0 0 0 0 0 0 0 0 0 0 0 0 0 0 0 0 0 0 0 0 0 0 0 0 0 0 0 0 0 0 0 0 0 0 0 0 0 0 0 0 0 0 0 0 0 0 0 0 0 0 0 0 0 0 0 0 0 0 0 0 0 0 150 150 150 149 151 150 151 151 151 149 150 151 150 149 150 149 150 148 149 149 148 149 149 149 150 151 152 152 154 153 153 152 153 152 151 152 151 151 151 150 151 150 150 150 148 151 150 151 152 149 149 148 149 148 148 147 148 145 153 152 153 151 150 150 149 148 149 147 148 147 149 149 149 150 149 149 150 150 150 150 151 151 148 151 151 150 149 148 148 149 148 150 148 149 150 151 151 151 150 151 152 153 -193 152 152 -193 152 152 150 150 151 152 150 151 151 150 150 151 150 150 148 149 149 147 149 147 147 148 149 148 149 149 150 149 150 149 150 148 149 149 151 150 151 151 151 151 151 151 152 150 151 150 150 150 150 150 149 147 149 149 149 149 149 149 149 150 149 150 149 149 150 151 150 151 146 149 148 148 149 150 149 151 149 150 151 151 152 152 152 152 152 153 153 149 150 147 146 143 144 145 146 146 147 147 149 148 149 150 150 149 149 149 151 151 151 151 150 150 151 151 151 151 153 155 -193 -177 -177 -177 -209 -209 -209 -177 -193 -177 -209 -209 -209 -209 -209 -209 -193 -177 -193 -209 -209 -209 0 0 0 0 0
    0 0 0 0 0 0 0 0 0 0 0 0 0 0 0 0 0 0 0 0 0 0 0 0 0 0 0 0 0 0 0 0 0 0 0 0 0 0 0 0 0 0 0 0 0 0 0 0 0 0 0 0 0 0 0 0 0 0 0 0 0 0 0 0 0 0 0 0 0 150 150 150 149 151 150 149 151 151 149 150 151 150 150 150 150 151 149 150 150 150 150 150 150 151 152 153 153 154 153 153 152 153 152 151 152 151 151 150 150 150 150 150 150 148 151 150 151 -209 149 150 149 149 149 148 148 149 146 152 152 152 151 150 150 149 149 149 148 148 147 149 149 149 150 149 149 150 149 150 150 151 151 148 151 151 150 150 149 149 150 149 151 150 150 151 152 152 151 151 152 153 153 153 153 153 153 153 153 152 151 151 152 151 151 151 150 150 150 150 149 147 149 148 145 148 146 147 147 148 148 149 149 149 149 150 149 149 148 149 149 151 150 151 151 151 151 151 151 151 150 151 150 150 150 150 150 149 148 150 149 149 149 149 150 149 150 150 150 150 150 150 151 150 151 146 150 149 149 149 150 149 151 149 150 152 152 152 152 152 152 152 153 153 150 150 149 148 146 147 146 148 148 149 149 150 151 152 152 152 151 152 151 152 153 152 152 151 151 151 151 151 151 152 154 158 -209 -209 -209 -209 -209 -209 -177 -193 -177 -209 -209 -209 -209 -209 -209 -209 -193 -209 -209 -209 -209 0 0 0 0 0
    0 0 0 0 0 0 0 0 0 0 0 0 0 0 0 0 0 0 0 0 0 0 0 0 0 0 0 0 0 0 0 0 0 0 0 0 0 0 0 0 0 0 0 0 0 0 0 0 0 0 0 0 0 0 0 0 0 0 0 0 0 0 0 0 0 0 0 0 0 150 150 150 149 151 150 149 151 151 149 150 151 150 150 151 151 152 151 152 151 151 152 152 152 152 152 153 153 154 153 152 152 153 153 152 153 150 151 150 150 150 150 150 150 148 151 151 152 -209 150 150 149 150 150 149 149 149 -193 -193 -193 152 151 150 150 150 149 150 149 148 148 149 149 149 150 149 149 149 149 150 150 150 151 147 151 151 151 150 150 149 151 150 153 152 151 151 152 153 152 152 152 153 153 153 153 153 153 153 152 152 151 151 152 150 151 151 150 150 150 150 149 147 148 148 145 148 146 147 148 149 148 149 149 149 149 150 149 149 148 149 149 151 150 151 151 151 151 151 151 151 150 151 150 150 150 150 150 149 148 149 149 149 149 149 150 149 150 149 150 150 150 150 151 149 151 147 150 149 149 149 151 150 152 149 150 152 152 152 152 152 152 152 153 153 150 150 149 148 147 148 147 148 148 150 150 151 152 153 154 154 154 155 153 153 155 153 153 152 152 152 151 152 152 153 155 158 -209 -209 -193 -209 -209 -209 -209 -209 -177 -209 -209 -177 -193 -177 -209 -209 -209 -209 -209 -177 -177 0 0 0 0 0
    0 0 0 0 0 0 0 0 0 0 0 0 0 0 0 0 0 0 0 0 0 0 0 0 0 0 0 0 0 0 0 0 0 0 0 0 0 0 0 0 0 0 0 0 0 0 0 0 0 0 0 0 0 0 0 0 0 0 0 0 0 0 0 0 0 0 0 0 0 150 150 150 150 152 151 149 152 152 150 150 151 151 151 151 152 153 152 153 153 152 152 152 151 152 151 152 153 154 153 152 152 154 153 152 154 150 150 150 150 150 150 150 150 148 151 150 151 -193 150 150 149 150 150 149 149 -193 -193 -193 -193 153 152 150 150 150 150 150 150 149 148 150 149 149 151 149 149 149 149 150 150 150 151 148 151 151 151 150 150 149 151 150 152 152 151 151 152 152 152 152 152 153 153 153 153 153 153 152 152 151 150 151 152 150 151 151 150 150 150 150 148 147 149 148 145 148 146 147 148 149 149 150 149 149 149 150 149 149 148 150 150 151 150 151 151 151 151 151 151 151 150 151 151 150 150 150 150 149 148 149 148 149 149 149 149 148 150 149 149 149 149 149 150 149 150 147 151 150 150 150 151 151 152 150 151 152 153 153 153 153 153 153 154 154 151 151 150 148 148 148 147 148 147 149 150 151 152 153 154 154 155 155 153 153 154 153 153 152 151 151 151 152 151 153 154 158 164 -193 -209 -193 -177 -177 -209 -209 -177 -209 -209 -177 -177 -177 -209 -209 -209 -209 -209 -177 -177 0 0 0 0 0
    0 0 0 0 0 0 0 0 0 0 0 0 0 0 0 0 0 0 0 0 0 0 0 0 0 0 0 0 0 0 0 0 0 0 0 0 0 0 0 0 0 0 0 0 0 0 0 0 0 0 0 0 0 0 0 0 0 0 0 0 0 0 0 0 0 0 0 0 0 151 151 151 150 152 152 150 153 154 152 152 152 152 152 152 153 154 153 153 153 153 153 153 151 152 151 152 153 154 153 153 152 155 154 153 155 149 150 150 150 150 150 150 149 147 150 149 150 -193 149 150 149 149 149 149 149 -193 146 151 -193 153 152 151 151 151 151 151 151 150 149 150 150 150 151 150 150 150 150 151 150 151 152 148 151 151 150 150 149 149 150 148 151 151 151 151 152 152 152 152 152 153 153 153 153 153 152 152 151 151 151 151 152 150 151 152 151 150 150 150 148 148 149 149 145 149 147 148 149 150 149 150 150 150 150 150 149 150 148 150 149 151 150 151 152 151 151 151 152 151 151 151 151 150 150 150 150 148 148 149 148 149 149 148 149 148 150 148 149 149 148 149 149 148 150 147 150 150 150 150 151 151 152 150 151 152 152 153 153 153 153 153 154 155 151 151 150 148 148 148 147 147 146 148 149 151 151 152 153 153 153 154 153 153 153 152 152 152 151 151 151 151 151 152 154 158 163 -193 -193 -209 -209 -177 -177 -177 -209 -209 -177 -193 -193 -177 -209 -193 -209 -177 -177 -177 -177 0 0 0 0 0
    0 0 0 0 0 0 0 0 0 0 0 0 0 0 0 0 0 0 0 0 0 0 0 0 0 0 0 0 0 0 0 0 0 0 0 0 0 0 0 0 0 0 0 0 0 0 0 0 0 0 0 0 0 0 0 0 0 0 0 0 0 0 0 0 0 0 0 0 0 151 150 151 150 152 152 150 153 154 153 153 154 153 152 153 153 154 153 153 153 153 -193 154 152 153 153 153 155 155 155 154 154 156 155 153 156 149 150 150 150 150 149 150 149 147 150 149 150 -193 149 149 149 149 149 149 149 -193 146 151 152 153 152 151 151 151 152 151 151 150 150 151 151 151 152 150 150 150 150 151 150 150 151 147 151 150 149 149 148 148 149 147 150 150 151 151 151 152 151 151 151 152 152 152 153 152 152 152 152 152 151 152 152 151 151 152 151 151 151 150 149 148 149 149 146 149 148 149 149 151 149 151 151 150 150 151 150 150 149 150 150 151 150 151 152 152 152 152 152 152 151 152 151 150 150 150 150 147 148 148 148 149 149 148 149 148 150 148 149 149 148 149 149 148 149 148 150 150 150 150 151 150 151 150 150 152 152 152 152 152 152 152 153 154 151 150 149 148 148 147 146 146 145 146 148 150 149 151 152 153 153 154 153 153 152 152 152 151 151 151 150 151 150 152 153 157 163 161 162 166 -209 -193 -209 -177 -209 -177 -177 -177 -209 -177 -209 -209 -209 -177 -177 -177 -177 0 0 0 0 0
    0 0 0 0 0 0 0 0 0 0 0 0 0 0 0 0 0 0 0 0 0 0 0 0 0 0 0 0 0 0 0 0 0 0 0 0 0 0 0 0 0 0 0 0 0 0 0 0 0 0 0 0 0 0 0 0 0 0 0 0 0 0 0 0 0 0 0 0 0 151 150 150 150 152 151 149 153 154 153 153 154 154 153 154 154 155 153 153 153 -193 -193 154 -193 153 153 154 155 156 156 154 155 157 157 156 157 150 150 150 150 150 150 150 149 147 150 149 150 -193 149 150 150 150 150 150 150 149 148 152 153 153 153 152 152 152 153 152 152 151 151 152 152 151 153 150 150 151 151 151 150 150 151 146 150 150 148 148 148 147 149 146 149 149 150 150 150 151 151 150 151 152 152 152 153 152 152 152 152 152 151 152 152 151 151 152 151 151 151 150 149 149 150 149 146 150 148 149 150 151 150 151 151 151 151 151 150 150 149 150 150 150 150 150 152 152 152 152 152 152 151 152 151 150 150 149 150 147 148 148 147 149 149 148 149 148 150 149 150 149 149 149 150 148 150 149 150 150 150 150 151 150 151 150 150 151 151 151 151 151 151 151 153 153 150 149 149 148 147 146 145 145 144 144 147 150 150 152 152 153 154 156 154 154 152 152 152 151 151 151 150 151 149 151 152 157 162 160 162 166 169 -209 -209 -193 -209 -177 -177 -177 -209 -177 -209 -209 -209 -209 -177 -177 -177 0 0 0 0 0
    0 0 0 0 0 0 0 0 0 0 0 0 0 0 0 0 0 0 0 0 0 0 0 0 0 0 0 0 0 0 0 0 0 0 0 0 0 0 0 0 0 0 0 0 0 0 0 0 0 0 0 0 0 0 0 0 0 0 0 0 0 0 0 0 0 0 0 0 0 150 150 150 150 151 151 149 152 153 153 154 154 154 153 154 154 155 154 153 153 -193 -193 154 -193 153 153 154 156 156 157 155 156 159 158 158 159 151 151 151 151 151 150 150 150 148 151 151 151 -209 150 150 150 150 150 150 150 149 148 152 153 153 152 152 153 152 153 153 153 152 152 153 153 152 154 151 151 151 151 151 150 150 151 146 150 149 147 148 148 147 149 146 149 148 150 149 150 150 151 150 150 151 151 151 152 152 151 151 152 152 151 152 151 150 151 152 151 151 151 150 149 149 150 149 147 149 148 148 149 150 149 151 150 150 150 150 150 150 148 150 149 150 150 150 151 151 151 152 152 151 151 152 151 150 150 149 149 147 148 147 147 148 148 148 149 148 150 149 150 150 149 150 150 149 151 150 151 150 149 150 151 150 151 150 150 151 151 151 151 151 151 151 152 152 150 148 149 148 147 146 146 146 145 146 149 150 150 152 152 152 153 155 154 154 151 151 151 151 151 151 150 150 148 152 152 157 161 159 162 166 169 171 -209 -209 -209 -193 -177 -193 -209 -209 -209 -209 -209 -209 -209 -177 -209 0 0 0 0 0
    0 0 0 0 0 0 0 0 0 0 0 0 0 0 0 0 0 0 0 0 0 0 0 0 0 0 0 0 0 0 0 0 0 0 0 0 0 0 0 0 0 0 0 0 0 0 0 0 0 0 0 0 0 0 0 0 0 0 0 0 0 0 0 0 0 0 0 0 0 151 150 150 150 152 151 149 153 154 154 154 155 154 153 155 155 155 154 154 154 154 -193 154 -209 153 -209 154 156 157 159 -193 -193 160 158 159 160 152 151 151 152 151 151 151 150 148 151 152 -209 -177 150 150 150 150 150 149 149 148 147 151 153 153 152 153 153 153 154 154 154 153 152 153 154 152 154 151 151 151 151 151 150 150 150 145 150 149 147 148 148 148 149 148 150 149 150 150 150 151 151 150 150 151 151 150 152 152 151 151 152 151 151 152 152 151 151 152 151 151 151 150 149 149 150 149 147 149 148 148 149 150 149 151 150 150 149 150 150 150 148 150 149 150 149 150 151 151 151 151 152 151 151 151 151 150 150 149 149 147 149 147 147 148 148 148 149 148 150 149 150 150 149 150 150 149 151 150 150 150 149 150 151 150 151 150 150 151 151 152 152 151 152 152 152 152 151 148 149 149 148 148 148 148 148 149 151 152 152 153 152 152 153 154 153 154 150 151 151 150 151 150 150 150 146 152 152 157 160 158 162 167 171 173 -209 -209 -209 -209 -209 -209 -177 -209 -209 -209 -209 -209 -209 -209 -209 0 0 0 0 0
    0 0 0 0 0 0 0 0 0 0 0 0 0 0 0 0 0 0 0 0 0 0 0 0 0 0 0 0 0 0 0 0 0 0 0 0 0 0 0 0 0 0 0 0 0 0 0 0 0 0 0 0 0 0 0 0 0 0 0 0 0 0 0 0 0 0 0 0 0 151 150 151 151 152 152 150 153 155 155 155 154 153 -193 -193 154 155 155 -193 -193 -193 -193 -193 -209 -209 -209 -209 156 158 160 -193 -193 158 158 159 159 153 152 151 152 152 151 151 150 148 -193 -209 -193 -177 -193 150 150 149 149 149 149 147 146 151 153 153 153 153 154 153 154 154 154 153 152 153 154 152 154 151 151 151 151 151 150 149 150 145 149 149 146 148 148 148 149 149 150 149 150 150 149 151 151 150 150 151 150 150 152 152 151 151 152 151 152 152 152 151 152 152 151 151 -193 -193 150 149 149 149 148 150 149 148 150 150 150 151 150 150 150 149 149 149 147 149 149 150 150 150 151 151 151 151 151 151 151 151 150 150 150 149 149 147 149 147 147 148 148 148 149 148 150 149 150 150 150 150 150 149 151 151 150 150 149 150 150 150 150 150 150 151 151 151 151 151 152 152 153 153 152 149 151 150 150 150 149 149 149 151 153 157 154 154 155 154 154 154 153 154 150 150 150 150 151 150 150 150 146 152 153 157 158 157 161 166 169 -209 -209 -209 -209 -209 -209 -209 -209 -209 -209 -209 -209 -209 -209 -209 -209 0 0 0 0 0
    0 0 0 0 0 0 0 0 0 0 0 0 0 0 0 0 0 0 0 0 0 0 0 0 0 0 0 0 0 0 0 0 0 0 0 0 0 0 0 0 0 0 0 0 0 0 0 0 0 0 0 0 0 0 0 0 0 0 0 0 0 0 0 0 0 0 0 0 0 151 150 151 151 152 152 151 154 155 156 156 155 153 153 155 154 154 -193 -209 -209 -193 -193 -193 -209 -209 -209 154 157 159 163 -193 -193 159 159 159 159 154 152 151 153 152 152 151 151 147 -209 -209 -177 -177 -193 149 149 149 149 149 148 146 146 151 153 153 153 154 154 154 155 154 154 153 152 153 153 152 154 151 151 151 151 151 150 149 150 145 149 149 145 147 147 148 149 148 149 149 150 149 149 150 151 150 150 151 150 150 152 152 150 150 151 151 151 152 152 152 152 153 152 151 -193 -193 150 150 149 149 148 150 149 149 150 150 150 151 151 150 150 149 149 149 147 149 148 150 150 150 151 150 151 152 151 151 151 151 151 150 151 150 149 148 149 147 148 148 148 148 149 148 150 149 150 151 150 150 150 150 152 152 151 151 149 150 151 151 150 150 150 150 151 151 151 151 151 152 153 153 153 150 152 151 151 151 151 149 150 152 156 160 157 156 156 155 155 154 153 154 149 149 149 150 151 150 150 150 147 153 154 157 156 156 160 166 168 -209 -209 -209 -209 -209 -209 820 828 -209 -209 -209 -177 -209 -209 -193 0 0 0 0 0 0
    0 0 0 0 0 0 0 0 0 0 0 0 0 0 0 0 0 0 0 0 0 0 0 0 0 0 0 0 0 0 0 0 0 0 0 0 0 0 0 0 0 0 0 0 0 0 0 0 0 0 0 0 0 0 0 0 0 0 0 0 0 0 0 0 0 0 0 0 0 151 150 150 150 152 152 151 154 156 157 157 156 153 -193 -193 -193 154 -209 -209 -209 -193 -193 -209 -193 -209 -209 154 159 162 165 167 -193 161 161 161 160 156 153 153 154 154 153 152 152 149 -193 -177 -209 -177 -193 -193 -193 148 148 148 147 144 146 150 153 153 -209 154 154 153 154 153 154 153 152 152 153 152 154 151 151 151 151 152 150 149 150 145 150 149 -193 147 146 147 148 148 148 147 149 149 148 150 151 150 150 151 150 150 152 152 150 150 152 151 151 152 152 152 153 153 152 151 -209 -193 150 150 149 149 148 150 150 148 150 150 150 151 151 150 150 149 149 149 147 149 148 150 150 151 152 151 151 152 152 151 151 151 151 150 151 149 149 148 149 147 148 148 149 149 149 149 150 149 150 151 150 151 150 151 152 152 152 152 150 150 151 151 150 150 150 150 151 151 151 150 151 152 -193 153 153 151 152 152 152 152 152 150 151 153 157 160 158 157 156 155 155 154 153 153 149 149 149 150 151 151 150 150 148 153 154 156 155 155 161 166 168 167 167 -209 -209 -209 -209 822 -177 -209 -209 -209 824 -209 -209 -209 -209 0 0 0 0 0
    0 0 0 0 0 0 0 0 0 0 0 0 0 0 0 0 0 0 0 0 0 0 0 0 0 0 0 0 0 0 0 0 0 0 0 0 0 0 0 0 0 0 0 0 0 0 0 0 0 0 0 0 0 0 0 0 0 0 0 0 0 0 0 0 0 0 0 0 0 152 150 150 150 152 151 152 154 156 -193 -193 -193 500 505 -193 -209 -193 -209 576 -209 -209 684 -209 -209 -209 -209 -209 163 165 -193 -209 -209 -209 163 -177 -177 158 155 153 155 155 154 153 -193 -209 467 474 384 385 381 -193 -193 -193 148 148 146 144 -193 -193 -209 -209 -209 154 -193 -193 -193 153 153 152 151 151 152 152 153 151 151 151 151 152 151 149 149 144 149 148 -193 146 146 146 148 147 147 146 148 148 148 150 150 149 150 150 150 150 152 152 150 150 152 151 151 152 152 152 152 152 152 -193 -209 -193 150 150 149 148 149 150 150 148 150 150 150 151 150 150 150 149 149 148 145 148 147 -193 150 -193 151 150 -193 -193 151 151 151 151 150 150 150 149 149 148 149 147 148 149 149 149 150 149 150 150 150 151 150 151 150 151 153 153 152 151 149 150 150 150 149 149 150 149 150 150 150 150 150 151 -193 153 153 151 152 152 152 152 151 149 149 152 156 159 157 157 155 154 154 154 152 153 148 148 149 150 151 151 150 150 148 153 154 156 155 155 162 166 168 167 168 171 -209 -209 -209 820 -209 -209 -209 -209 -209 -209 -209 -209 -209 0 0 0 0 0
    0 0 0 0 0 0 0 0 0 0 0 0 0 0 0 0 0 0 0 0 0 0 0 0 0 0 0 0 0 0 0 0 0 0 0 0 0 0 0 0 0 0 0 0 0 0 0 0 0 0 0 0 0 0 0 0 0 0 0 0 0 0 0 0 0 0 0 0 0 157 151 151 149 151 151 152 155 -209 -209 -209 488 493 496 -209 -209 -193 -209 577 585 -209 -209 -209 -193 682 -209 -209 -209 -209 -209 -209 -193 -193 -209 -209 -209 -193 -209 -209 156 156 157 -193 -209 -209 -193 -209 -209 383 382 383 -193 -209 150 -193 -193 -193 -209 -209 -209 -209 -209 -209 -193 400 404 -193 152 151 150 150 152 152 154 151 152 152 151 153 152 150 149 144 149 148 -209 -193 145 146 148 148 147 146 148 148 148 150 150 149 149 150 150 150 152 152 150 150 151 151 151 152 152 152 152 152 152 -209 -209 -209 -209 -193 150 149 150 151 150 149 149 150 150 151 150 149 149 148 148 147 144 147 -193 149 149 148 149 -193 -193 -209 150 150 151 150 150 150 150 149 148 148 149 147 148 149 149 149 150 149 150 150 150 151 151 151 150 152 152 153 152 151 149 149 150 150 149 149 150 149 150 150 150 -193 -193 -193 -193 -209 153 151 152 152 151 152 151 150 150 153 157 160 159 158 156 155 156 155 -193 154 149 148 149 150 151 151 150 150 146 152 153 155 154 154 161 166 168 167 167 172 -209 -209 -209 -209 -209 -209 -209 -209 -209 -209 -209 -209 -209 0 0 0 0 0
    0 0 0 0 0 0 0 0 0 0 0 0 0 0 0 0 0 0 0 0 0 0 0 0 0 0 0 0 0 0 0 0 0 0 0 0 0 0 0 0 0 0 0 0 0 0 0 0 0 0 0 0 0 0 0 0 0 0 0 0 0 0 0 0 0 0 0 0 0 -209 -209 -209 -209 150 -209 -209 -209 -209 -209 -209 -209 -193 491 493 -209 -209 -209 579 -193 -209 -193 -209 -193 -209 -209 -209 189 -193 185 -193 -193 -193 -193 -193 -209 -209 -209 -209 163 162 165 -193 -209 -209 -209 -193 -209 -209 -193 385 -193 -209 -209 -209 -209 -209 629 627 626 629 627 625 -209 -209 -209 -209 152 151 150 150 -209 -209 -209 156 158 160 155 157 -209 -209 149 147 -209 -209 -209 -177 -193 143 149 149 147 144 146 147 147 150 150 148 148 150 150 150 153 154 -193 153 153 153 153 153 153 153 154 -193 -193 -209 -193 -193 -193 -209 -193 -193 -193 151 150 147 147 149 149 150 146 144 147 147 -193 143 141 145 -193 148 149 146 -193 -193 149 -193 149 149 150 149 150 150 150 149 148 149 149 148 149 149 149 150 150 151 151 152 152 152 152 153 151 152 152 153 152 151 147 148 149 151 151 151 151 151 153 -193 -193 -177 -177 -193 -177 -209 154 151 152 153 152 153 153 152 153 155 161 163 162 161 158 158 -209 -209 -193 154 150 149 150 152 152 152 151 151 149 153 154 155 153 153 161 166 168 167 167 173 -209 -209 -209 -209 -209 -209 -209 -209 -209 -209 -209 -209 -209 0 0 0 0 0
    0 0 0 0 0 0 0 0 0 0 0 0 0 0 0 0 0 0 0 0 0 0 0 0 0 0 0 0 0 0 0 0 0 0 0 0 0 0 0 0 0 0 0 0 0 0 0 0 0 0 0 0 0 0 0 0 0 0 0 0 0 0 0 0 0 0 0 0 0 -209 -209 -209 186 186 188 191 186 185 185 183 183 -193 -209 488 -209 173 -209 -209 -209 -193 -193 -209 -209 -209 -209 -209 190 185 184 -177 -177 -193 -193 -193 -193 -193 -209 -209 174 172 173 175 176 180 -209 -209 -193 -209 -209 -209 -209 -209 -209 -209 -209 -177 628 627 627 629 -193 625 -209 -209 -209 156 155 154 -209 -209 -209 -209 -193 171 173 175 172 172 173 176 173 -209 -193 -209 -209 -209 -209 -209 154 -209 -209 -193 -193 147 147 151 151 -193 146 -193 -193 151 -193 157 -193 156 157 156 157 156 157 156 160 -193 -193 -193 -193 -193 -209 -209 734 736 732 -209 -209 -209 142 -209 -209 -193 -193 141 145 -193 -209 140 140 -193 -193 -209 -209 -209 -193 -193 149 151 148 148 149 148 149 149 150 149 148 150 149 149 151 151 -193 -209 -193 157 -193 156 156 156 156 155 152 153 152 153 153 153 149 148 149 153 154 153 156 154 158 -193 -209 -193 -193 -193 -193 -193 156 -193 153 154 153 154 -193 152 154 157 165 166 -193 -209 164 -193 -209 -209 -209 157 152 151 152 154 154 154 153 154 153 154 156 157 153 154 163 167 169 168 168 -209 -193 70 76 -209 -209 -209 -209 -209 -209 -209 -209 -209 -209 0 0 0 0 0
    0 0 0 0 0 0 0 0 0 0 0 0 0 0 0 0 0 0 0 0 0 0 0 0 0 0 0 0 0 0 0 0 0 0 0 0 0 0 0 0 0 0 0 0 0 0 0 0 0 0 0 0 0 0 0 0 0 0 0 0 0 0 0 0 0 0 0 0 0 179 181 183 184 184 186 187 184 184 185 184 183 182 -193 -193 -193 178 179 178 179 -193 -193 -209 -209 -193 -193 -193 190 185 184 184 184 185 -193 -193 -193 180 183 -193 181 180 181 181 182 182 -209 -209 180 182 -193 -209 -193 -193 179 180 -193 -193 626 -193 -193 -193 184 -209 -209 -209 -209 -209 -209 -193 -209 -209 -209 174 -193 175 177 179 178 177 178 181 180 176 180 -209 -193 -209 -193 -193 170 174 -193 -193 -193 -209 -193 -209 -209 -209 -209 -209 -209 151 -209 -193 -209 -209 -193 -193 164 162 165 165 -209 -193 -193 -193 -193 -193 176 178 -193 -193 -193 174 179 178 -209 -193 -209 -193 188 -193 -209 -193 -209 -209 -209 -209 -209 -209 -193 -209 -193 -193 -177 -193 -193 148 149 147 149 150 150 150 148 150 150 150 153 -209 -193 -209 -193 170 170 168 168 169 167 167 157 159 -209 155 160 160 153 150 151 155 159 157 166 158 162 -209 -193 -209 -193 157 160 157 160 -193 156 157 -193 158 156 152 157 160 168 168 182 -209 173 -209 -209 -209 -209 164 157 153 154 156 155 156 155 156 156 156 160 162 154 158 166 169 171 170 172 -209 -209 68 73 -209 -209 -209 -209 -209 130 -209 -209 -209 -209 0 0 0 0 0
    0 0 0 0 0 0 0 0 0 0 0 0 0 0 0 0 0 0 0 0 0 0 0 0 0 0 0 0 0 0 0 0 0 0 0 0 0 0 0 0 0 0 0 0 0 0 0 0 0 0 0 0 0 0 0 0 0 0 0 0 0 0 0 0 0 0 0 0 0 178 180 182 182 183 185 185 184 184 184 184 184 183 183 -193 180 180 180 179 181 -193 -209 182 183 183 184 184 186 184 183 183 183 184 184 183 183 181 183 183 183 182 182 182 182 183 183 181 181 182 183 183 182 182 182 183 184 182 182 181 -193 181 182 182 180 -193 -193 -193 -209 175 180 177 178 178 182 178 179 180 180 180 180 182 181 178 182 -193 -193 180 180 178 173 177 178 -193 -193 183 183 184 186 186 -193 -193 187 188 -193 172 -193 -193 -193 -193 170 -193 171 175 177 182 181 179 178 180 179 179 177 177 177 176 179 180 178 -193 183 185 186 187 -193 -209 -193 191 -209 -209 -209 -209 -209 -209 -209 37 41 -193 -209 -209 150 147 149 151 151 151 149 152 151 150 158 -209 -209 179 177 173 174 172 172 172 171 173 170 168 -209 162 169 -209 -209 -209 150 161 -193 -209 173 -209 -209 -209 -209 -209 -209 -209 -193 163 166 -209 163 -193 -193 165 165 157 167 166 175 175 184 183 182 181 181 182 179 171 173 -209 158 160 157 159 158 159 160 159 164 165 -209 167 170 171 171 172 178 -209 -209 -209 70 -209 -209 -209 -209 -209 -209 123 -209 -209 -209 0 0 0 0 0
    0 0 0 0 0 0 0 0 0 0 0 0 0 0 0 0 0 0 0 0 0 0 0 0 0 0 0 0 0 0 0 0 0 0 0 0 0 0 0 0 0 0 0 0 0 0 0 0 0 0 0 0 0 0 0 0 0 0 0 0 0 0 0 0 0 0 0 0 0 178 180 181 182 183 184 185 184 184 184 184 184 183 184 182 181 181 181 180 182 181 -193 182 183 183 183 183 185 183 183 182 183 183 183 183 182 181 182 183 183 182 182 182 183 183 184 183 182 182 183 183 183 183 182 183 184 182 182 181 181 181 182 181 180 178 182 -193 -209 179 181 179 180 180 183 179 179 181 181 181 181 182 181 179 183 182 180 181 179 178 175 178 178 181 182 183 183 184 185 185 186 188 187 187 186 182 178 175 -193 -193 174 173 176 178 179 181 181 180 179 180 180 179 178 178 178 177 180 181 180 182 184 185 185 185 -193 182 184 185 185 -209 -209 -209 -209 182 -193 -193 -193 180 180 180 173 176 -209 168 -209 162 152 161 -209 -209 -193 182 180 182 180 175 177 175 175 175 174 176 175 172 179 -209 184 187 183 -193 -193 -193 -193 -193 180 181 178 180 -193 180 178 175 173 171 171 170 169 170 170 171 172 172 173 179 183 180 184 182 181 181 181 181 179 174 -193 -193 -193 166 159 161 160 163 164 162 165 -209 -209 172 179 172 171 174 180 -209 -177 -177 -209 -209 -209 -209 -209 -209 -209 -209 -209 -209 -209 0 0 0 0 0
    0 0 0 0 0 0 0 0 0 0 0 0 0 0 0 0 0 0 0 0 0 0 0 0 0 0 0 0 0 0 0 0 0 0 0 0 0 0 0 0 0 0 0 0 0 0 0 0 0 0 0 0 0 0 0 0 0 0 0 0 0 0 0 0 0 0 0 0 0 179 180 181 182 183 184 184 184 184 184 184 183 183 183 182 181 181 182 181 182 182 183 182 183 183 183 183 184 183 182 182 183 183 183 183 182 181 182 182 182 182 181 182 183 184 184 183 182 183 183 184 183 183 182 183 183 182 182 181 181 181 181 181 180 177 181 181 -193 179 181 179 181 180 183 179 179 181 181 181 181 182 181 178 182 182 180 181 180 179 176 179 179 181 182 183 183 185 185 185 186 187 187 187 186 184 180 178 -193 176 176 174 178 179 180 181 181 180 179 180 180 179 178 178 178 177 180 181 181 182 184 185 185 185 185 182 183 184 184 -209 182 184 181 182 182 181 180 179 180 180 174 181 181 182 182 180 182 174 182 184 179 183 181 183 181 177 179 177 177 178 177 179 178 177 183 -193 185 187 185 184 182 182 183 183 182 182 181 181 181 182 180 179 178 178 176 174 173 175 175 179 181 182 180 184 184 182 184 182 181 181 181 181 179 175 -193 -193 -209 -209 165 165 166 167 169 169 -193 -209 -193 174 177 170 170 174 179 -193 -177 -177 -177 -209 -209 -209 -209 106 -209 -209 -209 -209 -209 0 0 0 0 0
    0 0 0 0 0 0 0 0 0 0 0 0 0 0 0 0 0 0 0 0 0 0 0 0 0 0 0 0 0 0 0 0 0 0 0 0 0 0 0 0 0 0 0 0 0 0 0 0 0 0 0 0 0 0 0 0 0 0 0 0 0 0 0 0 0 0 0 0 0 180 181 181 182 182 183 183 183 183 183 183 183 182 182 182 181 181 182 182 183 183 -193 183 184 183 184 183 184 183 182 182 183 183 183 183 182 181 182 182 182 182 181 182 183 184 184 183 182 183 183 183 183 183 181 182 183 181 181 181 180 180 181 180 180 177 181 181 180 180 181 179 181 180 182 179 179 180 180 180 180 181 180 178 182 182 180 181 179 179 177 180 179 182 182 183 183 185 185 185 185 187 186 186 185 183 181 179 178 179 178 176 179 179 181 181 181 180 179 180 180 178 178 177 177 177 179 180 180 181 183 185 185 185 183 182 183 183 183 183 181 184 180 181 181 181 180 179 180 180 173 181 181 183 182 181 181 178 181 181 180 182 181 183 181 178 179 178 178 179 178 179 178 178 183 182 185 187 185 183 182 182 183 182 182 181 181 180 181 181 180 179 179 179 177 176 176 178 180 182 182 183 181 184 184 182 184 182 181 181 181 181 180 177 178 173 173 173 170 169 170 171 174 174 -193 -193 177 178 179 173 174 178 182 -193 -177 -177 -177 -209 -209 -209 -209 -209 -209 -209 -209 -209 -209 0 0 0 0 0
    0 0 0 0 0 0 0 0 0 0 0 0 0 0 0 0 0 0 0 0 0 0 0 0 0 0 0 0 0 0 0 0 0 0 0 0 0 0 0 0 0 0 0 0 0 0 0 0 0 0 0 0 0 0 0 0 0 0 0 0 0 0 0 0 0 0 0 0 0 179 180 181 181 182 183 183 182 182 182 182 182 181 182 181 181 181 182 182 183 183 184 183 183 183 183 183 184 183 182 181 183 183 183 182 182 181 181 182 182 182 181 182 182 183 183 183 182 183 183 184 183 183 181 182 183 181 181 180 180 180 181 180 180 178 182 182 181 181 182 180 182 181 183 179 179 180 180 180 180 181 180 177 182 182 179 181 179 179 178 180 179 182 182 183 183 184 184 184 185 186 185 185 184 183 181 180 180 180 178 177 179 179 181 181 181 180 179 180 180 178 178 177 177 176 179 180 180 181 183 185 184 184 182 182 183 183 182 182 181 183 181 181 181 180 180 179 180 180 174 181 180 181 181 180 180 178 180 181 180 182 180 182 182 178 180 179 178 179 178 179 178 177 182 181 185 186 185 183 182 182 183 182 182 181 181 180 181 181 180 179 179 179 178 176 176 178 179 180 181 182 180 183 184 182 184 182 181 181 181 181 180 177 178 174 173 174 171 170 171 173 176 176 180 180 181 181 181 176 176 179 182 186 -177 -177 -177 -193 -209 -177 -209 -209 -209 -209 -209 -177 -177 0 0 0 0 0
    0 0 0 0 0 0 0 0 0 0 0 0 0 0 0 0 0 0 0 0 0 0 0 0 0 0 0 0 0 0 0 0 0 0 0 0 0 0 0 0 0 0 0 0 0 0 0 0 0 0 0 0 0 0 0 0 0 0 0 0 0 0 0 0 0 0 0 0 0 178 180 181 181 182 182 183 182 182 182 182 182 182 182 181 181 181 181 182 182 182 183 183 183 183 183 183 184 183 182 181 182 182 182 182 181 181 181 182 182 182 181 182 182 183 182 183 182 183 183 183 183 183 182 182 182 180 180 180 179 179 180 180 180 178 182 182 181 181 182 180 182 181 183 178 179 180 180 180 180 181 180 177 182 182 179 181 179 180 179 181 180 182 182 183 182 183 183 183 184 185 184 184 184 183 182 181 180 181 179 178 180 179 181 181 181 180 179 179 179 178 178 177 177 176 179 179 180 181 183 184 183 182 182 182 183 183 182 183 182 183 181 182 181 180 180 179 179 179 173 179 178 179 180 180 180 177 180 181 181 182 180 182 182 179 181 179 178 179 179 179 179 177 182 180 184 185 184 182 182 182 183 182 182 181 181 180 180 180 179 179 179 179 178 176 176 178 179 180 180 181 179 183 184 183 184 182 181 181 181 181 180 178 179 174 174 175 172 171 172 174 178 179 180 181 182 -193 -193 179 179 180 183 -209 -209 -209 -177 -209 -209 -209 -209 -209 -177 -193 -193 -193 -177 0 0 0 0 0
    0 0 0 0 0 0 0 0 0 0 0 0 0 0 0 0 0 0 0 0 0 0 0 0 0 0 0 0 0 0 0 0 0 0 0 0 0 0 0 0 0 0 0 0 0 0 0 0 0 0 0 0 0 0 0 0 0 0 0 0 0 0 0 0 0 0 0 0 0 179 180 180 181 181 182 182 182 183 183 182 182 182 182 182 182 182 182 182 183 183 184 183 183 183 184 184 184 183 182 181 182 182 182 182 182 182 181 182 182 182 182 182 182 182 182 183 182 183 183 183 183 183 182 181 182 180 179 179 179 178 180 180 180 178 182 181 181 181 181 179 181 180 182 178 178 180 180 180 180 180 179 177 181 181 179 181 179 179 179 181 180 182 181 182 182 183 183 183 183 184 183 183 184 183 182 182 181 182 181 180 181 180 181 181 181 179 178 179 179 177 177 176 176 175 178 178 178 180 182 182 182 181 181 181 182 182 182 182 182 183 181 182 181 180 179 178 178 178 173 177 177 178 180 180 179 177 180 181 180 181 179 181 181 179 181 179 179 179 179 180 179 176 181 180 184 184 184 182 181 181 182 182 182 181 181 180 180 180 180 180 180 180 179 177 178 179 179 180 179 180 178 182 183 182 183 182 180 181 180 180 179 178 178 175 175 177 174 174 176 178 179 180 181 181 182 181 181 178 179 180 183 -193 -209 -209 -209 -209 -209 -209 -193 -177 -177 -177 -177 -177 -177 0 0 0 0 0
    0 0 0 0 0 0 0 0 0 0 0 0 0 0 0 0 0 0 0 0 0 0 0 0 0 0 0 0 0 0 0 0 0 0 0 0 0 0 0 0 0 0 0 0 0 0 0 0 0 0 0 0 0 0 0 0 0 0 0 0 0 0 0 0 0 0 0 0 0 179 180 180 181 181 182 182 182 182 182 182 182 182 183 183 182 183 183 183 184 184 184 183 183 184 184 184 184 184 183 182 183 182 182 182 182 183 182 183 183 182 182 182 182 182 182 183 182 183 183 183 183 183 182 181 182 180 180 180 179 179 180 180 181 179 181 180 180 180 181 178 180 179 181 178 178 180 179 179 180 180 179 177 181 182 179 182 180 180 179 181 180 181 181 181 181 182 182 183 183 184 183 183 184 183 182 182 182 182 181 180 181 180 181 181 181 180 178 178 179 177 177 176 176 175 177 178 179 179 183 183 183 181 181 181 182 182 181 181 181 182 181 181 181 180 179 178 178 178 174 176 178 179 180 180 180 178 179 180 179 180 178 180 181 179 181 180 179 180 180 180 180 178 181 179 182 182 182 181 181 181 182 182 183 182 182 180 181 182 181 181 182 181 181 181 181 181 181 181 180 181 178 180 181 181 182 181 179 180 179 179 178 177 177 174 174 177 176 175 179 181 181 182 182 182 183 181 181 179 180 180 182 -209 -177 -209 -209 -177 -177 -209 -193 -177 -177 -177 -193 -177 -177 0 0 0 0 0
    0 0 0 0 0 0 0 0 0 0 0 0 0 0 0 0 0 0 0 0 0 0 0 0 0 0 0 0 0 0 0 0 0 0 0 0 0 0 0 0 0 0 0 0 0 0 0 0 0 0 0 0 0 0 0 0 0 0 0 0 0 0 0 0 0 0 0 0 0 180 180 181 181 182 182 183 182 182 182 182 182 182 183 184 183 184 184 184 185 184 184 184 184 184 184 184 183 184 184 183 184 183 183 182 183 184 -193 183 183 183 182 183 183 182 182 183 182 183 183 183 183 183 182 181 182 181 180 180 179 179 180 180 181 179 181 180 180 180 180 178 181 179 181 178 178 180 179 179 180 179 179 176 181 182 180 182 179 179 179 180 180 181 180 181 180 182 182 182 183 184 183 183 183 183 182 182 182 182 181 180 181 180 181 180 181 179 178 178 179 177 178 176 177 176 177 179 180 180 184 183 183 182 181 181 182 181 181 181 180 181 180 180 180 179 179 177 177 178 175 176 179 179 180 180 180 179 179 180 178 179 179 181 181 179 181 181 180 181 181 180 180 179 181 179 181 182 183 181 182 182 183 183 186 184 183 181 182 182 181 181 182 182 182 181 182 182 182 183 182 182 180 180 182 181 182 181 179 179 179 179 179 178 179 177 177 179 179 180 182 183 182 183 182 182 182 182 181 180 180 181 182 184 -177 -193 -209 -193 -177 -193 -209 -209 -209 -209 -193 -177 -177 0 0 0 0 0
    0 0 0 0 0 0 0 0 0 0 0 0 0 0 0 0 0 0 0 0 0 0 0 0 0 0 0 0 0 0 0 0 0 0 0 0 0 0 0 0 0 0 0 0 0 0 0 0 0 0 0 0 0 0 0 0 0 0 0 0 0 0 0 0 0 0 0 0 0 181 180 181 181 182 182 183 182 182 182 182 181 181 182 184 183 184 184 184 185 184 185 184 184 184 185 184 184 184 184 184 184 184 183 183 183 184 -193 -193 183 183 182 183 183 182 182 183 182 182 182 183 183 182 181 181 181 180 180 180 179 179 180 180 181 179 181 180 180 180 180 177 181 179 181 177 178 180 178 179 180 179 179 176 181 182 180 183 180 180 178 180 180 181 179 180 180 181 181 182 182 184 183 183 184 183 183 183 182 182 181 180 181 179 181 180 180 179 177 177 179 177 178 177 177 177 178 180 181 180 185 184 183 182 182 182 182 181 181 180 179 180 180 179 180 179 179 178 177 179 176 176 180 180 179 179 181 179 179 180 178 179 179 181 181 180 182 181 180 181 181 181 180 180 181 179 181 182 183 181 182 183 184 184 186 184 182 180 181 181 179 179 181 180 182 179 181 182 182 183 183 182 181 181 182 182 182 181 179 180 179 179 180 180 180 179 180 182 180 182 183 184 182 183 182 182 182 181 181 180 179 180 181 184 -193 -209 -177 250 -209 -193 -177 -209 -209 -209 315 -209 -177 0 0 0 0 0
    0 0 0 0 0 0 0 0 0 0 0 0 0 0 0 0 0 0 0 0 0 0 0 0 0 0 0 0 0 0 0 0 0 0 0 0 0 0 0 0 0 0 0 0 0 0 0 0 0 0 0 0 0 0 0 0 0 0 0 0 0 0 0 0 0 0 0 0 0 181 181 181 181 182 182 182 182 182 181 181 180 180 182 184 183 184 184 184 185 184 185 184 184 185 186 185 185 185 185 185 185 184 184 183 184 185 -193 -193 183 183 182 183 182 182 182 182 182 182 182 183 182 182 181 180 180 180 180 179 179 179 180 180 181 179 181 180 179 180 180 177 180 178 180 177 178 180 178 179 179 179 179 176 180 181 180 183 180 180 179 181 180 181 180 180 180 181 181 182 182 183 183 182 183 183 183 183 182 182 182 181 182 179 181 180 180 179 177 178 179 177 178 177 177 177 178 180 181 180 186 184 184 182 182 182 182 182 181 180 179 180 180 179 179 179 178 177 177 178 177 176 180 180 179 179 180 180 180 180 179 180 179 181 181 180 182 181 180 181 181 181 180 180 181 179 180 182 182 181 182 182 183 183 186 183 181 179 181 181 178 178 181 180 181 179 181 182 182 183 183 182 181 181 182 182 181 181 179 180 179 180 181 181 181 181 181 183 181 183 184 184 182 183 182 181 182 181 181 180 179 180 181 184 193 -209 -177 -177 -209 -193 -209 -209 -209 -209 313 -209 -209 0 0 0 0 0
    0 0 0 0 0 0 0 0 0 0 0 0 0 0 0 0 0 0 0 0 0 0 0 0 0 0 0 0 0 0 0 0 0 0 0 0 0 0 0 0 0 0 0 0 0 0 0 0 0 0 0 0 0 0 0 0 0 0 0 0 0 0 0 0 0 0 0 0 0 181 180 181 181 182 182 183 182 182 182 181 180 180 182 184 183 184 184 184 185 185 185 185 184 185 186 186 185 186 186 186 185 185 184 183 184 186 -209 -193 183 183 182 183 183 181 181 182 182 182 182 183 182 182 181 180 180 180 180 179 179 179 181 181 181 180 181 180 179 180 180 177 180 178 180 177 178 180 178 179 179 179 179 176 180 181 180 183 180 180 179 181 181 181 179 180 179 181 180 181 181 183 182 182 183 182 183 183 182 182 181 181 181 179 181 180 180 179 177 178 179 177 179 178 178 178 178 179 181 179 186 184 183 181 181 182 182 182 181 180 179 179 180 179 179 179 178 178 177 178 177 176 180 180 179 179 181 180 180 180 179 180 180 181 181 180 182 181 180 181 181 180 180 180 180 178 180 181 182 180 182 182 183 183 186 184 181 179 182 182 180 179 181 180 182 179 180 182 181 182 182 181 181 180 182 182 181 181 179 180 180 180 181 182 181 181 181 183 182 183 184 184 182 183 182 181 181 182 181 181 180 182 182 185 194 200 -193 -177 -209 -209 -209 -209 -209 -209 -209 -209 -209 0 0 0 0 0
    0 0 0 0 0 0 0 0 0 0 0 0 0 0 0 0 0 0 0 0 0 0 0 0 0 0 0 0 0 0 0 0 0 0 0 0 0 0 0 0 0 0 0 0 0 0 0 0 0 0 0 0 0 0 0 0 0 0 0 0 0 0 0 0 0 0 0 0 0 180 179 181 181 182 182 183 -209 -209 -193 -193 -193 182 183 186 184 185 184 -193 -193 184 184 185 184 185 186 186 185 186 187 186 186 186 184 183 186 188 -193 -193 -193 -193 182 183 183 181 181 182 182 182 182 183 183 182 182 181 181 181 180 179 180 180 181 181 182 181 181 180 179 179 179 176 179 177 179 177 179 180 178 179 180 179 179 176 180 -193 181 184 181 179 179 180 180 181 178 178 178 180 180 181 181 183 182 182 183 182 183 183 182 182 181 180 180 177 180 179 179 178 177 178 180 178 179 178 179 179 179 181 182 181 187 185 184 182 182 182 183 182 181 180 180 179 181 179 179 178 178 177 176 178 178 176 180 180 180 180 181 181 181 181 179 180 180 181 181 180 182 181 180 181 181 180 180 180 180 178 180 181 182 181 182 182 183 184 186 187 183 180 184 185 181 180 182 181 181 179 180 182 181 182 182 181 181 180 182 182 181 181 179 180 180 181 182 182 181 181 182 183 181 183 183 183 181 182 181 180 180 180 180 179 179 181 180 184 192 200 -209 -177 -209 -209 -209 -209 -209 -193 62 -209 -209 0 0 0 0 0
    0 0 0 0 0 0 0 0 0 0 0 0 0 0 0 0 0 0 0 0 0 0 0 0 0 0 0 0 0 0 0 0 0 0 0 0 0 0 0 0 0 0 0 0 0 0 0 0 0 0 0 0 0 0 0 0 0 0 0 0 0 0 0 0 0 0 0 0 0 180 180 182 183 183 184 -193 -177 -177 673 674 676 183 185 188 185 186 185 186 186 185 -193 185 184 186 188 186 -193 185 187 187 186 186 185 183 188 194 -193 -177 -209 -209 183 184 183 180 181 182 181 181 182 183 182 181 182 181 180 181 181 179 180 181 182 182 182 181 180 178 178 178 177 173 178 176 177 176 179 179 177 179 180 179 180 177 180 -209 -209 -209 -209 -193 -193 -193 180 179 177 176 177 179 179 181 181 183 182 182 183 182 182 183 182 182 181 180 179 176 179 179 179 178 176 177 180 178 179 179 179 179 180 182 182 181 187 186 185 182 182 182 183 182 181 180 180 178 181 178 179 178 178 177 176 178 179 176 181 180 180 180 182 181 181 181 179 180 181 181 181 180 181 181 180 181 181 180 180 180 180 179 180 181 182 181 182 182 183 184 187 189 184 181 186 188 183 181 183 182 182 179 181 182 181 182 183 181 181 180 182 182 -193 181 179 180 179 181 182 182 182 182 182 183 181 182 182 182 180 181 179 178 177 178 177 177 175 177 175 180 188 197 -209 -209 -209 -209 -209 -209 54 -193 62 -209 -209 0 0 0 0 0
    0 0 0 0 0 0 0 0 0 0 0 0 0 0 0 0 0 0 0 0 0 0 0 0 0 0 0 0 0 0 0 0 0 0 0 0 0 0 0 0 0 0 0 0 0 0 0 0 0 0 0 0 0 0 0 0 0 0 0 0 0 0 0 0 0 0 0 0 0 182 181 183 184 184 185 -193 -177 -225 -225 -225 -225 -209 185 191 186 188 188 188 189 187 187 187 -193 187 189 -193 -193 184 187 -177 186 186 186 184 190 197 -193 -177 -209 -209 -209 -193 -193 180 181 -193 -193 -193 182 183 182 181 182 180 180 183 182 -193 181 -193 684 687 182 181 177 175 175 175 173 170 175 174 174 175 178 -193 -193 -193 -193 -193 -177 -209 -209 -193 -193 -209 -193 69 -193 -225 -193 -193 -193 -193 174 178 178 181 180 183 182 182 182 182 181 182 181 181 180 179 179 177 179 179 179 179 175 176 180 178 179 179 180 179 180 183 183 181 188 188 186 183 183 182 -193 -193 -193 179 177 177 180 178 178 178 178 177 176 179 180 177 182 181 180 180 182 182 181 181 178 179 180 181 181 180 181 180 180 181 181 180 180 181 180 179 180 181 182 181 182 182 183 184 187 190 185 -225 -225 192 -193 183 185 185 183 179 181 183 182 183 183 182 181 180 182 -193 -193 -193 -193 178 178 180 182 183 182 182 183 183 180 182 182 181 180 180 179 178 177 178 178 179 176 178 175 175 -193 -209 -209 -209 -209 -209 68 59 55 55 60 72 -209 0 0 0 0 0
    0 0 0 0 0 0 0 0 0 0 0 0 0 0 0 0 0 0 0 0 0 0 0 0 0 0 0 0 0 0 0 0 0 0 0 0 0 0 0 0 0 0 0 0 0 0 0 0 0 0 0 0 0 0 0 0 0 0 0 0 0 0 0 0 0 0 0 0 0 183 182 183 185 184 -209 -225 -225 -225 -225 -225 -225 -225 -225 -193 -193 -193 -193 189 189 188 -193 -193 -193 188 190 -209 -209 -193 -177 -177 -177 187 187 185 190 -193 -209 -209 -193 -209 206 -193 -209 -193 182 -209 -177 -177 -193 183 181 182 182 181 181 186 -209 860 684 686 686 688 690 -193 175 172 173 172 170 167 173 172 172 174 -193 -177 -177 -193 -193 -177 404 404 -209 -225 -225 -177 -209 70 -225 -225 -225 -225 -225 -225 -225 -225 -225 -225 -225 -225 -225 -225 -225 -225 -225 -225 -225 -225 -225 180 -225 -225 -225 180 181 180 176 178 181 179 180 181 181 181 -193 184 185 183 188 192 188 -193 -193 -193 -209 -193 174 176 174 174 -193 177 178 179 179 178 177 181 182 178 183 182 179 179 182 182 181 180 178 180 181 182 181 181 182 182 180 181 182 180 179 181 180 178 179 181 182 181 182 183 183 184 188 193 -225 -225 -225 -225 196 -193 188 -193 184 179 181 183 182 183 -193 182 182 180 -193 34 37 -193 -193 -209 176 179 183 184 -209 -209 185 184 181 183 183 182 180 181 180 179 179 180 180 181 180 181 179 177 183 179 -193 62 68 73 71 66 59 57 59 70 -209 0 0 0 0 0
    0 0 0 0 0 0 0 0 0 0 0 0 0 0 0 0 0 0 0 0 0 0 0 0 0 0 0 0 0 0 0 0 0 0 0 0 0 0 0 0 0 0 0 0 0 0 0 0 0 0 0 0 0 0 0 0 0 0 0 0 0 0 0 0 0 0 0 0 0 -225 -225 -225 -225 -225 -225 -225 -225 -225 -225 -225 -225 -225 -225 -225 -225 -225 -225 -225 -225 -225 -225 -225 -225 -225 -225 -225 -225 -177 -177 -177 -177 188 -225 -225 -225 -225 -225 -225 -225 -225 -225 -225 -225 -209 -209 -209 -177 -177 -225 -225 -225 -225 -225 -225 -225 -225 -225 -225 686 688 686 686 687 -225 -225 -225 -225 -225 -225 160 -209 -209 172 -193 -193 -177 -177 -193 -225 -225 -225 -225 -225 -225 -225 -225 -225 -225 -225 -225 -225 -225 -225 -225 -225 -225 -225 -225 -225 -225 -225 -225 -225 -225 -225 -225 -225 -225 -225 -225 -225 -225 -225 -225 -225 -225 -225 176 180 178 180 181 182 182 -193 185 187 184 189 -225 -225 -225 -225 -193 138 151 -193 -209 -209 -209 -177 177 178 179 180 180 178 181 183 179 184 182 179 179 182 183 182 181 179 180 181 183 182 182 183 -193 181 182 182 181 179 181 181 177 179 182 182 181 182 183 183 184 -225 -225 -225 -225 -225 -225 -225 155 155 165 178 172 178 -193 181 -193 -193 -193 182 -193 -193 35 37 38 -193 -209 -209 -209 -209 186 -209 -209 -177 186 183 185 184 182 179 180 179 178 178 178 178 180 180 182 181 178 184 -209 -209 70 72 76 73 -193 -209 61 63 70 -209 0 0 0 0 0
    0 0 0 0 0 0 0 0 0 0 0 0 0 0 0 0 0 0 0 0 0 0 0 0 0 0 0 0 0 0 0 0 0 0 0 0 0 0 0 0 0 0 0 0 0 0 0 0 0 0 0 0 0 0 0 0 0 0 0 0 0 0 0 0 0 0 0 0 0 -225 -225 -225 -225 -225 -225 -225 -225 -225 -225 -225 -225 -225 -225 -225 -225 -225 -225 -225 -225 -225 -225 -225 -225 -225 -225 -225 -225 -225 -225 -225 -225 -225 -225 -225 -225 -225 -225 -225 -225 -225 -225 -225 -225 -225 -225 -225 -225 -225 -225 -225 -225 -225 -225 -225 -225 -225 -225 -225 -225 -225 -225 -225 -225 -225 -225 -225 -225 -225 -225 -225 -225 -225 -225 -225 -225 -225 -225 -225 -225 -225 -225 -225 -225 -225 -225 -225 -225 -225 -225 -225 -225 -225 -225 -225 -225 -225 -225 -225 -225 -225 -225 -225 -225 -225 -225 -225 -225 -225 -225 -225 -225 -225 -225 -225 -225 -225 -225 -225 -225 -225 -225 -209 -209 -225 -225 -225 -225 -225 -225 -225 -225 -225 -225 -225 -225 -225 -225 -177 -177 -193 0 -193 179 181 181 181 180 182 183 180 183 -225 -225 178 183 -225 -225 -225 178 180 180 182 181 181 182 -193 -193 181 182 181 179 -225 -225 -225 -225 -225 -225 -225 -225 -225 -225 -225 -225 -225 -225 -225 -225 -225 -225 -225 -225 164 170 169 173 180 179 -193 -193 -193 -193 -193 33 36 37 38 43 -209 -209 -193 -209 -209 -209 -209 -209 188 183 185 184 180 175 178 178 176 174 173 173 179 182 182 -209 -209 -209 -209 70 71 73 78 74 -209 -209 -209 -209 72 -209 0 0 0 0 0
    0 0 0 0 0 0 0 0 0 0 0 0 0 0 0 0 0 0 0 0 0 0 0 0 0 0 0 0 0 0 0 0 0 0 0 0 0 0 0 0 0 0 0 0 0 0 0 0 0 0 0 0 0 0 0 0 0 0 0 0 0 0 0 0 0 0 0 0 0 -225 -225 -225 -225 -225 -225 -225 -225 -225 -225 -225 -225 -225 -225 -225 -225 -225 -225 -225 -225 -225 -225 -225 -225 -225 -225 -225 -225 -225 -225 -225 -225 -225 -225 -225 -225 -225 -225 -225 -225 -225 -225 -225 -225 -225 -225 -225 -225 -225 -225 -225 -225 -225 -225 -225 -225 -225 -225 -225 -225 -225 -225 -225 -225 -225 -225 -225 -225 -225 -225 -225 -225 -225 -225 -225 -225 -225 -225 -225 -225 -225 -225 -225 -225 -225 -225 -225 -225 -225 -225 -225 -225 -225 -225 -225 -225 -225 -225 -225 -225 -225 -225 -225 -225 -225 -225 -225 -225 -225 -225 -225 -225 -225 -225 -225 -225 -225 -225 -225 -225 -225 -225 -225 -225 -225 -225 -225 -225 -225 -225 -225 -225 -225 -225 -225 -225 -225 -225 -225 -225 -225 -225 -225 -225 -225 -225 -225 -225 -225 -225 -225 -225 -225 -225 -225 -225 -225 -225 -225 -225 -225 -225 -225 -225 -225 -225 -225 -225 -225 -225 -225 -225 -225 -225 -225 -225 -225 -225 -225 -225 -225 -225 -225 -225 -225 -225 -225 -225 -225 -225 -225 -225 -225 -225 -225 -225 -193 -193 -193 -193 -209 -209 28 35 -193 -209 -209 -209 -209 66 -193 -209 -209 -209 -209 -209 -209 -209 -209 -209 -209 -193 171 173 172 172 170 172 180 184 -209 -209 -209 -209 67 68 71 72 76 72 -193 -209 -193 71 72 -209 0 0 0 0 0
    0 0 0 0 0 0 0 0 0 0 0 0 0 0 0 0 0 0 0 0 0 0 0 0 0 0 0 0 0 0 0 0 0 0 0 0 0 0 0 0 0 0 0 0 0 0 0 0 0 0 0 0 0 0 0 0 0 0 0 0 0 0 0 0 0 0 0 0 0 -225 -225 -225 -225 -225 -225 -225 -225 -225 -225 -225 -225 -225 -225 -225 -225 -225 -225 -225 -225 -225 -225 -225 -225 -225 -225 -225 -225 -225 -225 -225 -225 -225 -225 -225 -225 -225 -225 -225 -225 -225 -225 -225 -225 -225 -225 -225 -225 -225 -225 -225 -225 -225 -225 -225 -225 -225 -225 -225 -225 -225 -225 -225 -225 -225 -225 -225 -225 -225 -225 -225 -225 -225 -225 -225 -225 -225 -225 -225 -225 -225 -225 -225 -225 -225 -225 -225 -225 -225 -225 -225 -225 -225 -225 -225 -225 -225 -225 -225 -225 -225 -225 -225 -225 -225 -225 -225 -225 -225 -225 -225 -225 -225 -225 -225 -225 -225 -225 -225 -225 -225 -225 -225 -225 -225 -225 -225 -225 -225 -225 -225 -225 -225 -225 -225 -225 -225 -225 -225 -225 -225 -225 -225 -225 -225 -225 -225 -225 -225 -225 -225 -225 -225 -225 -225 -225 -225 -225 -225 -225 -225 -225 -225 -225 -225 -225 -225 -225 -225 -225 -225 -225 -225 -225 -225 -225 -225 -225 -225 -225 -225 -225 -225 -225 -225 -225 -225 -225 -225 -225 -225 -225 -225 -225 -225 -225 -193 -225 -209 -209 -209 21 -193 -209 -209 65 68 67 70 68 -193 -209 -209 -209 -209 -209 -209 -209 -209 -209 -209 -209 170 170 170 172 169 174 181 184 -209 -209 -209 -209 61 63 68 71 73 70 -193 -193 -209 -209 -209 -209 0 0 0 0 0
    0 0 0 0 0 0 0 0 0 0 0 0 0 0 0 0 0 0 0 0 0 0 0 0 0 0 0 0 0 0 0 0 0 0 0 0 0 0 0 0 0 0 0 0 0 0 0 0 0 0 0 0 0 0 0 0 0 0 0 0 0 0 0 0 0 0 0 0 0 -225 -225 -225 -225 -225 -225 -225 -225 -225 -225 -225 -225 -225 -225 -225 -225 -225 -225 -225 -225 -225 -225 -225 -225 -225 -225 -225 -225 -225 -225 -225 -225 -225 -225 -225 -225 -225 -225 -225 -225 -225 -225 -225 -225 -225 -225 -225 -225 -225 -225 -225 -225 -225 -225 -225 -225 -225 -225 -225 -225 -225 -225 -225 -225 -225 -225 -225 -225 -225 -225 -225 -225 -225 -225 -225 -225 -225 -225 -225 -225 -225 -225 -225 -225 -225 -225 -225 -225 -225 -225 -225 -225 -225 -225 -225 -225 -225 -225 -225 -225 -225 -225 -225 -225 -225 -225 -225 -225 -225 -225 -225 -225 -225 -225 -225 -225 -225 -225 -225 -225 -225 -225 -225 -225 -225 -225 -225 -225 -225 -225 -225 -225 -225 -225 -225 -225 -225 -225 -225 -225 -225 -225 -225 -225 -225 -225 -225 -225 -225 -225 -225 -225 -225 -225 -225 -225 -225 -225 -225 -225 -225 -225 -225 -225 -225 -225 -225 -225 -225 -225 -225 -225 -225 -225 -225 -225 -225 -225 -225 -225 -225 -225 -225 -225 -225 -225 -225 -225 -225 239 238 238 238 238 238 239 240 238 240 242 -209 -209 -209 -209 -209 65 65 64 67 67 71 -193 -209 -209 -209 -209 -209 -209 -209 -209 -209 169 170 170 170 173 170 174 181 -209 -209 -209 -209 -209 -209 -209 66 70 72 68 -209 -193 -209 -209 -209 -209 0 0 0 0 0
    0 0 0 0 0 0 0 0 0 0 0 0 0 0 0 0 0 0 0 0 0 0 0 0 0 0 0 0 0 0 0 0 0 0 0 0 0 0 0 0 0 0 0 0 0 0 0 0 0 0 0 0 0 0 0 0 0 0 0 0 0 0 0 0 0 0 0 0 0 -225 -225 -225 -225 -225 -225 -225 -225 -225 -225 -225 -225 -225 -225 -225 -225 -225 -225 -225 -225 -225 -225 -225 -225 -225 -225 -225 -225 -225 -225 -225 -225 -225 -225 -225 -225 -225 -225 -225 -225 -225 -225 -225 -225 -225 -225 -225 -225 -225 -225 -225 -225 -225 -225 -225 -225 -225 -225 -225 -225 -225 -225 -225 -225 -225 -225 -225 -225 -225 -225 -225 -225 -225 -225 -225 -225 -225 -225 -225 -225 -225 -225 -225 -225 -225 -225 -225 -225 -225 -225 -225 -225 -225 -225 -225 -225 -225 -225 -225 -225 -225 -225 -225 -225 -225 -225 -225 -225 -225 -225 -225 -225 -225 -225 -225 -225 -225 -225 -225 -225 -225 -225 -225 -225 -225 -225 -225 -225 -225 -225 -225 -225 -225 -225 -225 -225 -225 -225 -225 -225 -225 -225 -225 -225 -225 -225 -225 -225 -225 -225 -225 -225 -225 -225 -225 -225 -225 -225 -225 -225 -225 -225 -225 -225 -225 -225 -225 -225 -225 -225 -225 -225 -225 -225 -225 -225 -225 -225 -225 -225 -225 -225 -225 -225 -225 -225 -225 -225 241 238 237 237 237 236 237 238 239 237 238 241 -209 -209 -209 -209 -209 -209 -209 64 66 66 70 -193 -209 -177 -209 -193 -209 -209 -209 -209 -209 -209 -209 172 173 178 172 176 -193 -209 -209 -209 -209 -209 -209 -209 -209 -209 -209 -209 -209 -209 -209 -177 -209 -209 0 0 0 0 0
    0 0 0 0 0 0 0 0 0 0 0 0 0 0 0 0 0 0 0 0 0 0 0 0 0 0 0 0 0 0 0 0 0 0 0 0 0 0 0 0 0 0 0 0 0 0 0 0 0 0 0 0 0 0 0 0 0 0 0 0 0 0 0 0 0 0 0 0 0 -225 -225 -225 -225 -225 -225 -225 -225 -225 -225 -225 -225 -225 -225 -225 -225 -225 -225 -225 -225 -225 -225 -225 -225 -225 -225 -225 -225 -225 -225 -225 -225 -225 -225 -225 -225 -225 -225 -225 -225 -225 -225 -225 -225 -225 -225 -225 -225 -225 -225 -225 -225 -225 -225 -225 -225 -225 -225 -225 -225 -225 -225 -225 -225 -225 -225 -225 -225 -225 -225 -225 -225 -225 -225 -225 -225 -225 -225 -225 -225 -225 -225 -225 -225 -225 -225 -225 -225 -225 -225 -225 -225 -225 -225 -225 -225 -225 -225 -225 -225 -225 -225 -225 -225 -225 -225 -225 -225 -225 -225 -225 -225 -225 -225 -225 -225 -225 -225 -225 -225 -225 -225 -225 -225 -225 -225 -225 -225 -225 -225 -225 -225 -225 -225 -225 -225 -225 -225 -225 -225 -225 -225 -225 -225 -225 -225 -225 -225 -225 -225 -225 -225 -225 -225 -225 -225 -225 -225 -225 -225 -225 -225 -225 -225 -225 -225 -225 -225 -225 -225 -225 -225 -225 -225 -225 -225 -225 -225 -225 -225 -225 -225 -225 -225 -225 -225 -225 232 240 238 237 238 237 237 238 239 242 239 -193 -209 -209 -209 -209 -209 -209 -209 -209 67 70 68 71 -209 -209 -209 -177 -209 -209 -209 -209 -209 -177 228 -209 -209 -209 -209 -209 -209 -209 -209 -209 -209 -209 -209 -209 -209 -209 -209 -209 -209 -209 -209 453 459 -193 -193 0 0 0 0 0
    0 0 0 0 0 0 0 0 0 0 0 0 0 0 0 0 0 0 0 0 0 0 0 0 0 0 0 0 0 0 0 0 0 0 0 0 0 0 0 0 0 0 0 0 0 0 0 0 0 0 0 0 0 0 0 0 0 0 0 0 0 0 0 0 0 0 0 0 0 -225 -225 -225 -225 -225 -225 -225 -225 -225 -225 -225 -225 -225 -225 -225 -225 -225 -225 -225 -225 -225 -225 -225 -225 -225 -225 -225 -225 -225 -225 -225 -225 -225 -225 -225 -225 -225 -225 -225 -225 -225 -225 -225 -225 -225 -225 -225 -225 -225 -225 -225 -225 -225 -225 -225 -225 -225 -225 -225 -225 -225 -225 -225 -225 -225 -225 -225 -225 -225 -225 -225 -225 -225 -225 -225 -225 -225 -225 -225 -225 -225 -225 -225 -225 -225 -225 -225 -225 -225 -225 -225 -225 -225 -225 -225 -225 -225 -225 -225 -225 -225 -225 -225 -225 -225 -225 -225 -225 -225 -225 -225 -225 -225 -225 -225 -225 -225 -225 -225 -225 -225 -225 -225 -225 -225 -225 -225 -225 -225 -225 -225 -225 -225 -225 -225 -225 -225 -225 -225 -225 -225 -225 -225 -225 -225 -225 -225 -225 -225 -225 -225 -225 -225 -225 -225 -225 -225 -225 -225 -225 -225 -225 -225 -225 -225 -225 -225 -225 -225 -225 -225 -225 -225 -225 -225 -225 -225 -225 -225 -225 -225 -225 -225 -225 -225 -225 -225 231 240 239 237 238 237 237 238 239 242 -193 -193 -209 -209 -209 -209 -209 -209 -209 60 64 70 69 -193 -209 -209 -209 -209 -209 -209 -177 -177 -177 232 233 -209 -209 -193 -209 -209 -209 -209 -209 -209 -209 -209 -209 -209 -177 -209 -209 -193 -193 -209 456 455 461 380 -193 0 0 0 0 0
    0 0 0 0 0 0 0 0 0 0 0 0 0 0 0 0 0 0 0 0 0 0 0 0 0 0 0 0 0 0 0 0 0 0 0 0 0 0 0 0 0 0 0 0 0 0 0 0 0 0 0 0 0 0 0 0 0 0 0 0 0 0 0 0 0 0 0 0 0 -225 -225 -225 -225 -225 -225 -225 -225 -225 -225 -225 -225 -225 -225 -225 -225 -225 -225 -225 -225 -225 -225 -225 -225 -225 -225 -225 -225 -225 -225 -225 -225 -225 -225 -225 -225 -225 -225 -225 -225 -225 -225 -225 -225 -225 -225 -225 -225 -225 -225 -225 -225 -225 -225 -225 -225 -225 -225 -225 -225 -225 -225 -225 -225 -225 -225 -225 -225 -225 -225 -225 -225 -225 -225 -225 -225 -225 -225 -225 -225 -225 -225 -225 -225 -225 -225 -225 -225 -225 -225 -225 -225 -225 -225 -225 -225 -225 -225 -225 -225 -225 -225 -225 -225 -225 -225 -225 -225 -225 -225 -225 -225 -225 -225 -225 -225 -225 -225 -225 -225 -225 -225 -225 -225 -225 -225 -225 -225 -225 -225 -225 -225 -225 -225 -225 -225 -225 -225 -225 -225 -225 -225 -225 -225 -225 -225 -225 -225 -225 -225 -225 -225 -225 -225 -225 -225 -225 -225 -225 -225 -225 -225 -225 -225 -225 -225 -225 -225 -225 -225 -225 -225 -225 -225 -225 -225 -225 -225 -225 -225 -225 -225 -225 -225 -225 -225 -225 231 240 239 237 238 237 237 238 239 242 -193 -193 -209 -209 -209 -209 -209 -209 -209 62 66 70 -193 -209 -209 -209 -209 -209 -209 -209 -177 -177 235 240 -209 -209 -209 -209 -209 -209 -209 -209 -209 -209 -209 -209 -209 -209 -209 -209 -209 -193 -193 454 454 456 -193 377 472 0 0 0 0 0
    0 0 0 0 0 0 0 0 0 0 0 0 0 0 0 0 0 0 0 0 0 0 0 0 0 0 0 0 0 0 0 0 0 0 0 0 0 0 0 0 0 0 0 0 0 0 0 0 0 0 0 0 0 0 0 0 0 0 0 0 0 0 0 0 0 0 0 0 0 -225 -225 -225 -225 -225 -225 -225 -225 -225 -225 -225 -225 -225 -225 -225 -225 -225 -225 -225 -225 -225 -225 -225 -225 -225 -225 -225 -225 -225 -225 -225 -225 -225 -225 -225 -225 -225 -225 -225 -225 -225 -225 -225 -225 -225 -225 -225 -225 -225 -225 -225 -225 -225 -225 -225 -225 -225 -225 -225 -225 -225 -225 -225 -225 -225 -225 -225 -225 -225 -225 -225 -225 -225 -225 -225 -225 -225 -225 -225 -225 -225 -225 -225 -225 -225 -225 -225 -225 -225 -225 -225 -225 -225 -225 -225 -225 -225 -225 -225 -225 -225 -225 -225 -225 -225 -225 -225 -225 -225 -225 -225 -225 -225 -225 -225 -225 -225 -225 -225 -225 -225 -225 -225 -225 -225 -225 -225 -225 -225 -225 -225 -225 -225 -225 -225 -225 -225 -225 -225 -225 -225 -225 -225 -225 -225 -225 -225 -225 -225 -225 -225 -225 -225 -225 -225 -225 -225 -225 -225 -225 -225 -225 -225 -225 -225 -225 -225 -225 -225 -225 -225 -225 -225 -225 -225 -225 -225 -225 -225 -225 -225 -225 -225 -225 -225 -225 -225 231 240 239 237 238 237 237 238 239 242 -193 -209 -209 -209 -209 -209 -209 -209 -209 59 66 -193 -209 -209 -177 -177 -209 -209 -209 -209 -177 234 243 250 -209 -209 -209 -209 -209 -209 -209 -209 -209 -209 -209 -209 -209 -209 -209 -193 -209 -193 -193 451 453 -209 -193 378 -193 0 0 0 0 0
    0 0 0 0 0 0 0 0 0 0 0 0 0 0 0 0 0 0 0 0 0 0 0 0 0 0 0 0 0 0 0 0 0 0 0 0 0 0 0 0 0 0 0 0 0 0 0 0 0 0 0 0 0 0 0 0 0 0 0 0 0 0 0 0 0 0 0 0 0 -225 -225 -225 -225 -225 -225 -225 -225 -225 -225 -225 -225 -225 -225 -225 -225 -225 -225 -225 -225 -225 -225 -225 -225 -225 -225 -225 -225 -225 -225 -225 -225 -225 -225 -225 -225 -225 -225 -225 -225 -225 -225 -225 -225 -225 -225 -225 -225 -225 -225 -225 -225 -225 -225 -225 -225 -225 -225 -225 -225 -225 -225 -225 -225 -225 -225 -225 -225 -225 -225 -225 -225 -225 -225 -225 -225 -225 -225 -225 -225 -225 -225 -225 -225 -225 -225 -225 -225 -225 -225 -225 -225 -225 -225 -225 -225 -225 -225 -225 -225 -225 -225 -225 -225 -225 -225 -225 -225 -225 -225 -225 -225 -225 -225 -225 -225 -225 -225 -225 -225 -225 -225 -225 -225 -225 -225 -225 -225 -225 -225 -225 -225 -225 -225 -225 -225 -225 -225 -225 -225 -225 -225 -225 -225 -225 -225 -225 -225 -225 -225 -225 -225 -225 -225 -225 -225 -225 -225 -225 -225 -225 -225 -225 -225 -225 -225 -225 -225 -225 -225 -225 -225 -225 -225 -225 -225 -225 -225 -225 -225 -225 -225 -225 -225 -225 -225 -225 231 240 239 237 238 237 237 238 239 242 -193 -209 -209 -209 -209 -209 -209 -209 -209 -209 67 -209 -209 -209 140 -209 -209 -209 -209 -209 -209 -209 250 260 -209 -209 -209 -209 -209 -209 -209 -209 -209 -209 -209 -209 435 436 -193 436 440 442 444 447 -193 -193 -193 378 472 0 0 0 0 0
    0 0 0 0 0 0 0 0 0 0 0 0 0 0 0 0 0 0 0 0 0 0 0 0 0 0 0 0 0 0 0 0 0 0 0 0 0 0 0 0 0 0 0 0 0 0 0 0 0 0 0 0 0 0 0 0 0 0 0 0 0 0 0 0 0 0 0 0 0 -225 -225 -225 -225 -225 -225 -225 -225 -225 -225 -225 -225 -225 -225 -225 -225 -225 -225 -225 -225 -225 -225 -225 -225 -225 -225 -225 -225 -225 -225 -225 -225 -225 -225 -225 -225 -225 -225 -225 -225 -225 -225 -225 -225 -225 -225 -225 -225 -225 -225 -225 -225 -225 -225 -225 -225 -225 -225 -225 -225 -225 -225 -225 -225 -225 -225 -225 -225 -225 -225 -225 -225 -225 -225 -225 -225 -225 -225 -225 -225 -225 -225 -225 -225 -225 -225 -225 -225 -225 -225 -225 -225 -225 -225 -225 -225 -225 -225 -225 -225 -225 -225 -225 -225 -225 -225 -225 -225 -225 -225 -225 -225 -225 -225 -225 -225 -225 -225 -225 -225 -225 -225 -225 -225 -225 -225 -225 -225 -225 -225 -225 -225 -225 -225 -225 -225 -225 -225 -225 -225 -225 -225 -225 -225 -225 -225 -225 -225 -225 -225 -225 -225 -225 -225 -225 -225 -225 -225 -225 -225 -225 -225 -225 -225 -225 -225 -225 -225 -225 -225 -225 -225 -225 -225 -225 -225 -225 -225 -225 -225 -225 -225 -225 -225 -225 -225 -225 231 240 238 237 238 237 237 238 239 242 -193 -209 -209 -209 -209 -209 -209 -209 -209 -209 -209 -209 140 -209 -209 156 -209 -209 -209 -209 -209 -209 252 -209 -209 -209 -209 -209 -209 -209 -209 -209 -209 417 -209 426 430 433 429 435 439 441 443 446 -193 -193 -193 378 472 0 0 0 0 0
    0 0 0 0 0 0 0 0 0 0 0 0 0 0 0 0 0 0 0 0 0 0 0 0 0 0 0 0 0 0 0 0 0 0 0 0 0 0 0 0 0 0 0 0 0 0 0 0 0 0 0 0 0 0 0 0 0 0 0 0 0 0 0 0 0 0 0 0 0 -225 -225 -225 -225 -225 -225 -225 -225 -225 -225 -225 -225 -225 -225 -225 -225 -225 -225 -225 -225 -225 -225 -225 -225 -225 -225 -225 -225 -225 -225 -225 -225 -225 -225 -225 -225 -225 -225 -225 -225 -225 -225 -225 -225 -225 -225 -225 -225 -225 -225 -225 -225 -225 -225 -225 -225 -225 -225 -225 -225 -225 -225 -225 -225 -225 -225 -225 -225 -225 -225 -225 -225 -225 -225 -225 -225 -225 -225 -225 -225 -225 -225 -225 -225 -225 -225 -225 -225 -225 -225 -225 -225 -225 -225 -225 -225 -225 -225 -225 -225 -225 -225 -225 -225 -225 -225 -225 -225 -225 -225 -225 -225 -225 -225 -225 -225 -225 -225 -225 -225 -225 -225 -225 -225 -225 -225 -225 -225 -225 -225 -225 -225 -225 -225 -225 -225 -225 -225 -225 -225 -225 -225 -225 -225 -225 -225 -225 -225 -225 -225 -225 -225 -225 -225 -225 -225 -225 -225 -225 -225 -225 -225 -225 -225 -225 -225 -225 -225 -225 -225 -225 -225 -225 -225 -225 -225 -225 -225 -225 -225 -225 -225 -225 -225 -225 -225 -225 230 237 237 236 237 236 236 237 239 242 -209 -209 -209 -209 -209 -209 -209 -209 -209 -209 -209 -209 142 -209 158 -209 -209 -209 -209 -209 -209 -209 -209 -209 -209 -209 -209 -209 -209 -209 -209 -209 410 416 423 425 428 431 429 435 439 441 443 446 451 -209 -193 378 472 0 0 0 0 0
    0 0 0 0 0 0 0 0 0 0 0 0 0 0 0 0 0 0 0 0 0 0 0 0 0 0 0 0 0 0 0 0 0 0 0 0 0 0 0 0 0 0 0 0 0 0 0 0 0 0 0 0 0 0 0 0 0 0 0 0 0 0 0 0 0 0 0 0 0 -225 -225 -225 -225 -225 -225 -225 -225 -225 -225 -225 -225 -225 -225 -225 -225 -225 -225 -225 -225 -225 -225 -225 -225 -225 -225 -225 -225 -225 -225 -225 -225 -225 -225 -225 -225 -225 -225 -225 -225 -225 -225 -225 -225 -225 -225 -225 -225 -225 -225 -225 -225 -225 -225 -225 -225 -225 -225 -225 -225 -225 -225 -225 -225 -225 -225 -225 -225 -225 -225 -225 -225 -225 -225 -225 -225 -225 -225 -225 -225 -225 -225 -225 -225 -225 -225 -225 -225 -225 -225 -225 -225 -225 -225 -225 -225 -225 -225 -225 -225 -225 -225 -225 -225 -225 -225 -225 -225 -225 -225 -225 -225 -225 -225 -225 -225 -225 -225 -225 -225 -225 -225 -225 -225 -225 -225 -225 -225 -225 -225 -225 -225 -225 -225 -225 -225 -225 -225 -225 -225 -225 -225 -225 -225 -225 -225 -225 -225 -225 -225 -225 -225 -225 -225 -225 -225 -225 -225 -225 -225 -225 -225 -225 -225 -225 -225 -225 -225 -225 -225 -225 -225 -225 -225 -225 -225 -225 -225 -225 -225 -225 -225 -225 -225 -225 -225 -225 -225 235 238 237 238 236 236 236 242 -209 -209 -209 -209 -209 -209 -209 -209 -209 -209 -209 -209 -209 -209 -209 -209 -209 -209 -209 -209 -209 43 -209 -209 -209 -209 -209 -209 -209 -209 -209 -209 407 409 415 422 425 427 430 429 434 438 440 442 445 449 -193 -193 377 471 0 0 0 0 0
    0 0 0 0 0 0 0 0 0 0 0 0 0 0 0 0 0 0 0 0 0 0 0 0 0 0 0 0 0 0 0 0 0 0 0 0 0 0 0 0 0 0 0 0 0 0 0 0 0 0 0 0 0 0 0 0 0 0 0 0 0 0 0 0 0 0 0 0 0 -225 -225 -225 -225 -225 -225 -225 -225 -225 -225 -225 -225 -225 -225 -225 -225 -225 -225 -225 -225 -225 -225 -225 -225 -225 -225 -225 -225 -225 -225 -225 -225 -225 -225 -225 -225 -225 -225 -225 -225 -225 -225 -225 -225 -225 -225 -225 -225 -225 -225 -225 -225 -225 -225 -225 -225 -225 -225 -225 -225 -225 -225 -225 -225 -225 -225 -225 -225 -225 -225 -225 -225 -225 -225 -225 -225 -225 -225 -225 -225 -225 -225 -225 -225 -225 -225 -225 -225 -225 -225 -225 -225 -225 -225 -225 -225 -225 -225 -225 -225 -225 -225 -225 -225 -225 -225 -225 -225 -225 -225 -225 -225 -225 -225 -225 -225 -225 -225 -225 -225 -225 -225 -225 -225 -225 -225 -225 -225 -225 -225 -225 -225 -225 -225 -225 -225 -225 -225 -225 -225 -225 -225 -225 -225 -225 -225 -225 -225 -225 -225 -225 -225 -225 -225 -225 -225 -225 -225 -225 -225 -225 -225 -225 -225 -225 -225 -225 -225 -225 -225 -225 -225 -225 -225 -225 -225 -225 -225 -225 -225 -225 -225 -225 -225 -225 -225 -225 -225 -225 -225 242 246 -209 -209 -209 -209 -209 -209 -209 -209 -209 -209 -209 -209 -209 -209 -209 -209 -209 141 -209 -209 -209 -209 -209 -209 -209 -209 -209 -209 -209 -209 111 -209 -209 -177 -209 -209 -209 409 415 422 425 427 429 428 432 435 439 441 442 444 452 375 375 472 0 0 0 0 0
    0 0 0 0 0 0 0 0 0 0 0 0 0 0 0 0 0 0 0 0 0 0 0 0 0 0 0 0 0 0 0 0 0 0 0 0 0 0 0 0 0 0 0 0 0 0 0 0 0 0 0 0 0 0 0 0 0 0 0 0 0 0 0 0 0 0 0 0 0 -225 -225 -225 -225 -225 -225 -225 -225 -225 -225 -225 -225 -225 -225 -225 -225 -225 -225 -225 -225 -225 -225 -225 -225 -225 -225 -225 -225 -225 -225 -225 -225 -225 -225 -225 -225 -225 -225 -225 -225 -225 -225 -225 -225 -225 -225 -225 -225 -225 -225 -225 -225 -225 -225 -225 -225 -225 -225 -225 -225 -225 -225 -225 -225 -225 -225 -225 -225 -225 -225 -225 -225 -225 -225 -225 -225 -225 -225 -225 -225 -225 -225 -225 -225 -225 -225 -225 -225 -225 -225 -225 -225 -225 -225 -225 -225 -225 -225 -225 -225 -225 -225 -225 -225 -225 -225 -225 -225 -225 -225 -225 -225 -225 -225 -225 -225 -225 -225 -225 -225 -225 -225 -225 -225 -225 -225 -225 -225 -225 -225 -225 -225 -225 -225 -225 -225 -225 -225 -225 -225 -225 -225 -225 -225 -225 -225 -225 -225 -225 -225 -225 -225 -225 -225 -225 -225 -225 -225 -225 -225 -225 -225 -225 -225 -225 -225 -225 -225 -225 -225 -225 -225 -225 -225 -225 -225 -225 -225 -225 -225 -225 -225 -225 -225 -225 -225 -225 -225 -225 -225 -225 -225 -209 -209 -209 -209 -209 -209 -209 -209 -209 -209 -209 -209 -209 -209 -209 -209 -209 -209 -209 -209 -209 -209 -209 -209 -209 -209 -209 -209 -209 99 108 -209 -209 -209 -209 -209 -209 -209 413 421 425 426 428 427 429 430 434 436 438 441 450 373 374 473 0 0 0 0 0
    0 0 0 0 0 0 0 0 0 0 0 0 0 0 0 0 0 0 0 0 0 0 0 0 0 0 0 0 0 0 0 0 0 0 0 0 0 0 0 0 0 0 0 0 0 0 0 0 0 0 0 0 0 0 0 0 0 0 0 0 0 0 0 0 0 0 0 0 0 -225 -225 -225 -225 -225 -225 -225 -225 -225 -225 -225 -225 -225 -225 -225 -225 -225 -225 -225 -225 0 -256 -1 -3301 -225 -225 -225 -225 -225 -225 -225 -225 -225 -225 -225 -225 -225 -225 -225 -225 -225 -225 -225 -225 -225 -225 -225 -225 -225 -225 -225 -225 -225 -225 -225 -225 -225 -225 -225 -225 -225 -225 -225 -225 -225 -225 -225 -225 -225 -225 -225 -225 -225 -225 -225 -225 -225 -225 -225 -225 -225 -225 -225 -225 -225 -225 -225 -225 -225 -225 -225 -225 -225 -225 -225 -225 -225 -225 -225 -225 -225 -225 -225 -225 -225 -225 -225 -225 -225 -225 -225 -225 -225 -225 -225 -225 -225 -225 -225 -225 -225 -225 -225 -225 -225 -225 -225 -225 -225 -225 -225 -225 -225 -225 -225 -225 -225 -225 -225 -225 -225 -225 -225 -225 -225 -225 -225 -225 -225 -225 -225 -225 -225 -225 -225 -225 -225 -225 -225 -225 -225 -225 -225 -225 -225 -225 -225 -225 -225 -225 -225 -225 -225 -225 -225 -225 -225 -225 -225 -225 -225 -225 -225 -225 -225 -225 -225 -225 -225 -225 -225 -225 -225 -225 -225 -225 -209 -209 -209 -209 -209 -209 -209 -209 -209 -209 -209 -209 -209 -209 -209 -209 -209 -209 -209 -209 -209 -209 -209 -209 -209 -209 109 -209 -209 -209 -209 -209 -209 411 413 419 423 425 426 426 427 428 428 429 431 436 442 371 -193 474 0 0 0 0 0
    0 0 0 0 0 0 0 0 0 0 0 0 0 0 0 0 0 0 0 0 0 0 0 0 0 0 0 0 0 0 0 0 0 0 0 0 0 0 0 0 0 0 0 0 0 0 0 0 0 0 0 0 0 0 0 0 0 0 0 0 0 0 0 0 0 0 0 0 0 -225 -225 -225 -225 -225 -225 -225 -225 -225 -225 -225 -225 -225 -225 -225 -225 -225 -225 -225 -225 -225 -225 -225 -225 -225 -225 -225 -225 -225 -225 -225 -225 -225 -225 -225 -225 -225 -225 -225 -225 -225 -225 -225 -225 -225 -225 -225 -225 -225 -225 -225 -225 -225 -225 -225 -225 -225 -225 -225 -225 -225 -225 -225 -225 -225 -225 -225 -225 -225 -225 -225 -225 -225 -225 -225 -225 -225 -225 -225 -225 -225 -225 -225 -225 -225 -225 -225 -225 -225 -225 -225 -225 -225 -225 -225 -225 -225 -225 -225 -225 -225 -225 -225 -225 -225 -225 -225 -225 -225 -225 -225 -225 -225 -225 -225 -225 -225 -225 -225 -225 -225 -225 -225 -225 -225 -225 -225 -225 -225 -225 -225 -225 -225 -225 -225 -225 -225 -225 -225 -225 -225 -225 -225 -225 -225 -225 -225 -225 -225 -225 -225 -225 -225 -225 -225 -225 -225 -225 -225 -225 -225 -225 -225 -225 -225 -225 -225 -225 -225 -225 -225 -225 -225 -225 -225 -225 -225 -225 -225 -225 -225 -225 -225 -225 -225 -225 -225 -225 -225 -225 -225 -225 -225 -225 -225 -225 -209 -209 -209 -209 -209 -209 -209 -209 -209 -209 -209 -209 -209 -209 -209 -209 -209 -209 -209 -209 -209 -209 -209 -209 -209 -209 109 -209 -209 -209 -209 -209 -209 418 419 422 424 426 426 425 427 428 429 429 432 436 441 456 464 472 0 0 0 0 0
    0 0 0 0 0 0 0 0 0 0 0 0 0 0 0 0 0 0 0 0 0 0 0 0 0 0 0 0 0 0 0 0 0 0 0 0 0 0 0 0 0 0 0 0 0 0 0 0 0 0 0 0 0 0 0 0 0 0 0 0 0 0 0 0 0 0 0 0 0 -225 -225 -225 -225 -225 -225 -225 -225 -225 -225 -225 -225 -225 -225 -225 -225 -225 -225 -225 -225 -225 -225 -225 -225 -225 -225 -225 -225 -225 -225 -225 -225 -225 -225 -225 -225 -225 -225 -225 -225 -225 -225 -225 -225 -225 -225 -225 -225 -225 -225 -225 -225 -225 -225 -225 -225 -225 -225 -225 -225 -225 -225 -225 -225 -225 -225 -225 -225 -225 -225 -225 -225 -225 -225 -225 -225 -225 -225 -225 -225 -225 -225 -225 -225 -225 -225 -225 -225 -225 -225 -225 -225 -225 -225 -225 -225 -225 -225 -225 -225 -225 -225 -225 -225 -225 -225 -225 -225 -225 -225 -225 -225 -225 -225 -225 -225 -225 -225 -225 -225 -225 -225 -225 -225 -225 -225 -225 -225 -225 -225 -225 -225 -225 -225 -225 -225 -225 -225 -225 -225 -225 -225 -225 -225 -225 -225 -225 -225 -225 -225 -225 -225 -225 -225 -225 -225 -225 -225 -225 -225 -225 -225 -225 -225 -225 -225 -225 -225 -225 -225 -225 -225 -225 -225 -225 -225 -225 -225 -225 -225 -225 -225 -225 -225 -225 -225 -225 -225 -225 -225 -225 -225 -225 -225 -225 -225 -225 -209 -209 -209 -209 -209 -209 -209 -209 -177 -193 -193 -209 -209 -209 -209 -209 -209 239 -209 256 -209 -209 -209 -209 -209 -209 -209 -209 -209 -209 -209 -209 417 420 422 424 425 425 426 428 429 431 430 433 437 448 460 -209 -209 0 0 0 0 0</data></disparity>
</opencv_storage>
