<?xml version="1.0"?>
<opencv_storage>
<gps_time_stamp>19305</gps_time_stamp>
<gps_x>-6.0677886009216309e-001</gps_x>
<gps_y>4.5991498976945877e-002</gps_y>
<gps_z>1.6338976820406970e-006</gps_z>
<image_time_stamp>7265</image_time_stamp>
<disparity type_id="opencv-matrix">
  <rows>89</rows>
  <cols>320</cols>
  <dt>s</dt>
  <data>
    0 0 0 0 0 0 0 0 0 0 0 0 0 0 0 0 0 0 0 0 0 0 0 0 0 0 0 0 0 0 0 0 0 0 0 0 0 0 0 0 0 0 0 0 0 0 0 0 0 0 0 0 0 0 0 0 0 0 0 0 0 0 0 0 0 0 0 0 0 42 44 42 42 42 41 41 41 41 40 38 39 38 37 38 39 38 37 38 38 39 40 40 40 40 41 42 42 43 42 43 45 44 46 44 44 43 42 42 41 40 40 40 42 42 42 42 42 41 42 42 42 42 42 42 42 41 41 41 40 40 39 39 40 40 40 40 40 40 41 40 40 -193 41 42 41 41 41 40 41 40 38 42 41 42 44 43 43 44 44 44 43 44 44 42 44 50 48 47 49 47 46 47 48 47 45 44 44 43 45 43 42 40 40 40 39 39 39 39 39 39 42 42 42 48 44 45 46 46 47 47 47 50 45 48 51 48 49 49 50 -193 -193 -193 -193 -193 -193 59 60 61 57 59 59 62 66 68 69 70 70 70 71 72 71 64 59 53 63 78 78 79 87 81 82 -193 83 83 -193 -193 -193 329 -193 39 39 39 40 41 42 41 41 49 59 -193 -209 -209 103 105 -193 106 108 107 108 108 108 -193 -193 -193 -193 -193 -193 -209 -193 132 128 128 -209 -193 63 61 59 60 59 61 60 57 56 55 56 59 58 57 57 58 58 58 59 59 59 59 68 63 67 66 65 65 64 64 65 0 0 0 0 0
    0 0 0 0 0 0 0 0 0 0 0 0 0 0 0 0 0 0 0 0 0 0 0 0 0 0 0 0 0 0 0 0 0 0 0 0 0 0 0 0 0 0 0 0 0 0 0 0 0 0 0 0 0 0 0 0 0 0 0 0 0 0 0 0 0 0 0 0 0 42 44 43 42 42 42 41 41 41 40 38 39 38 38 38 39 39 38 40 39 41 41 41 41 41 42 43 43 44 43 44 46 45 47 45 44 44 43 43 42 40 41 41 42 42 42 42 42 42 42 42 43 43 42 42 42 42 42 42 41 40 40 40 41 41 41 41 40 41 41 40 40 -193 41 42 41 41 41 41 41 41 39 42 42 42 45 43 44 44 44 44 43 44 44 42 43 50 48 48 49 47 47 47 48 47 45 44 44 43 45 44 42 40 40 40 39 39 40 39 39 39 41 42 42 47 44 45 46 46 47 47 46 50 45 47 50 47 49 49 50 -193 -193 -193 -177 -193 58 59 60 61 57 58 59 62 67 69 70 71 71 72 72 73 73 69 66 55 65 81 81 83 87 81 82 83 83 83 -193 336 -193 329 -209 41 41 40 41 43 43 43 42 50 59 -193 -209 -209 -209 -209 -193 107 109 107 108 108 -193 -193 -193 -193 175 174 -209 119 122 121 122 123 121 -193 -209 -209 -209 -193 63 68 69 63 58 55 57 60 58 57 57 58 58 58 60 59 58 59 68 63 67 65 64 64 64 64 65 0 0 0 0 0
    0 0 0 0 0 0 0 0 0 0 0 0 0 0 0 0 0 0 0 0 0 0 0 0 0 0 0 0 0 0 0 0 0 0 0 0 0 0 0 0 0 0 0 0 0 0 0 0 0 0 0 0 0 0 0 0 0 0 0 0 0 0 0 0 0 0 0 0 0 43 45 43 43 43 42 41 41 41 40 39 39 39 38 39 39 39 40 41 41 42 42 42 43 42 43 44 44 45 44 45 46 46 48 46 46 45 45 44 44 42 43 42 43 42 42 43 42 42 42 42 43 43 43 43 43 42 43 43 42 41 41 41 42 42 42 42 41 42 42 41 41 42 41 42 41 41 41 41 41 41 39 43 43 43 45 44 44 44 44 44 43 44 44 42 44 49 49 49 49 47 47 47 47 47 45 44 44 43 45 44 42 41 40 40 40 40 40 39 39 38 40 41 41 47 44 44 46 45 46 47 46 50 45 47 50 47 49 48 50 -193 -193 -193 -177 -193 58 58 59 60 56 57 57 63 69 71 71 72 72 73 73 74 74 67 65 54 63 79 80 84 88 81 82 83 82 -193 -193 -193 -193 329 -209 43 42 42 42 44 44 44 44 51 60 -193 -209 -193 -209 -209 -209 108 109 108 108 109 -193 -193 -193 -193 176 -193 -193 -193 -209 120 121 120 118 116 112 107 109 106 109 -209 92 -209 -209 -209 62 63 59 57 58 58 58 58 60 59 57 58 68 62 66 64 64 64 64 64 65 0 0 0 0 0
    0 0 0 0 0 0 0 0 0 0 0 0 0 0 0 0 0 0 0 0 0 0 0 0 0 0 0 0 0 0 0 0 0 0 0 0 0 0 0 0 0 0 0 0 0 0 0 0 0 0 0 0 0 0 0 0 0 0 0 0 0 0 0 0 0 0 0 0 0 43 45 43 43 43 42 41 41 41 41 39 40 39 40 40 40 40 41 42 41 44 43 43 43 43 44 44 44 45 44 46 46 46 47 46 46 46 46 45 45 43 44 42 44 43 43 43 43 42 42 43 44 44 44 44 44 43 43 44 43 42 42 42 43 43 43 43 42 42 42 41 41 42 42 42 42 42 41 41 42 42 40 43 43 43 46 44 45 45 44 45 43 44 45 42 45 48 50 49 49 47 47 47 48 47 45 44 44 43 45 44 43 42 41 41 41 41 41 40 39 39 40 41 41 46 44 44 46 45 46 47 46 50 45 47 49 47 50 48 49 53 51 55 -193 -193 58 58 59 60 55 57 57 62 71 73 73 73 73 73 74 75 75 63 61 53 59 -209 -209 83 88 81 82 82 81 -193 80 80 -193 -209 -193 45 43 43 44 44 45 45 44 50 59 -193 -209 94 -209 -193 -193 110 110 108 108 109 -193 -193 -193 -193 -193 -209 116 118 118 119 118 118 114 114 112 109 110 108 111 108 105 109 114 115 119 -193 -193 -209 58 58 58 59 61 60 57 59 68 61 66 63 64 63 63 63 64 0 0 0 0 0
    0 0 0 0 0 0 0 0 0 0 0 0 0 0 0 0 0 0 0 0 0 0 0 0 0 0 0 0 0 0 0 0 0 0 0 0 0 0 0 0 0 0 0 0 0 0 0 0 0 0 0 0 0 0 0 0 0 0 0 0 0 0 0 0 0 0 0 0 0 44 46 44 44 43 42 41 41 41 41 39 41 41 41 42 42 41 43 43 43 45 44 44 44 44 45 44 45 46 45 46 47 46 47 47 46 46 46 45 46 44 45 43 45 43 43 43 43 42 42 43 44 44 44 44 44 43 44 44 43 42 43 43 43 43 44 43 43 43 43 42 42 43 43 43 43 43 43 43 43 43 41 44 44 43 46 44 45 45 45 45 44 44 45 43 45 46 49 48 48 47 47 47 47 46 45 44 44 43 45 44 43 43 42 42 42 42 41 41 40 40 40 41 42 45 44 45 46 45 46 48 46 50 45 47 49 47 50 48 49 53 51 55 -193 -193 58 57 59 60 56 58 58 62 73 74 74 74 74 74 74 76 76 61 59 52 58 -209 -209 -209 -193 -193 82 82 80 81 79 80 80 73 -193 45 44 44 45 45 46 45 44 50 58 -193 -209 -193 -209 106 106 110 109 108 108 108 -193 -193 -193 111 109 112 116 117 117 117 116 116 111 112 109 107 108 107 110 110 107 110 114 113 118 120 124 131 132 133 -209 59 63 62 57 59 68 61 66 63 63 63 62 63 64 0 0 0 0 0
    0 0 0 0 0 0 0 0 0 0 0 0 0 0 0 0 0 0 0 0 0 0 0 0 0 0 0 0 0 0 0 0 0 0 0 0 0 0 0 0 0 0 0 0 0 0 0 0 0 0 0 0 0 0 0 0 0 0 0 0 0 0 0 0 0 0 0 0 0 45 47 44 44 43 43 42 42 42 42 40 42 42 43 43 43 42 44 45 44 46 45 45 44 45 45 45 45 46 45 47 47 47 48 48 47 47 47 47 48 45 46 45 45 44 44 43 43 42 42 43 44 44 44 44 44 43 44 44 44 43 44 44 44 44 44 43 43 43 43 42 42 44 44 44 44 44 44 44 44 44 42 44 44 44 46 44 46 45 45 45 45 45 46 44 46 46 48 48 48 47 47 47 47 46 45 44 44 43 45 44 43 43 43 42 42 42 42 41 41 41 40 42 43 46 45 45 46 46 47 49 46 50 46 46 48 47 49 48 50 54 52 56 -193 -193 58 58 60 61 56 59 58 63 75 75 75 75 75 75 75 77 77 61 60 53 58 -209 -209 -209 -193 -193 82 -193 81 81 79 80 79 73 -193 46 44 45 46 47 48 45 45 51 57 -209 -209 -209 -209 -209 -193 111 109 108 108 108 107 -193 109 111 109 114 116 117 117 117 117 116 111 111 107 107 108 107 111 111 109 112 114 113 117 118 122 126 129 131 138 -209 -193 -193 -209 59 69 62 66 62 63 63 62 63 63 0 0 0 0 0
    0 0 0 0 0 0 0 0 0 0 0 0 0 0 0 0 0 0 0 0 0 0 0 0 0 0 0 0 0 0 0 0 0 0 0 0 0 0 0 0 0 0 0 0 0 0 0 0 0 0 0 0 0 0 0 0 0 0 0 0 0 0 0 0 0 0 0 0 0 46 47 45 45 44 44 42 43 42 43 41 43 44 45 45 44 44 45 46 45 46 45 45 45 46 46 46 46 48 47 49 48 48 48 49 48 48 48 47 48 46 47 46 46 45 45 44 45 43 43 44 44 44 44 44 44 43 45 45 45 44 45 44 44 44 44 43 43 43 43 42 43 45 45 45 45 45 45 45 45 46 44 45 44 44 46 45 46 46 46 46 45 46 47 45 47 47 48 48 48 47 47 47 47 46 46 45 44 44 45 45 44 44 44 44 43 43 43 42 42 42 41 43 44 47 47 47 48 48 48 50 47 51 46 47 48 47 50 49 50 54 53 57 -193 59 60 59 60 61 56 60 59 63 75 75 75 75 75 75 75 77 77 61 60 53 58 -209 -209 -209 -193 -193 83 -193 -193 -193 80 80 79 73 -193 47 45 45 47 47 48 46 46 51 56 -209 -209 -209 -209 -209 -193 -193 -193 107 106 107 106 106 107 110 108 114 114 117 117 117 116 115 109 108 104 105 106 105 109 109 107 110 111 112 115 117 121 122 124 127 133 131 132 131 128 -193 -209 -193 65 62 63 63 62 63 63 0 0 0 0 0
    0 0 0 0 0 0 0 0 0 0 0 0 0 0 0 0 0 0 0 0 0 0 0 0 0 0 0 0 0 0 0 0 0 0 0 0 0 0 0 0 0 0 0 0 0 0 0 0 0 0 0 0 0 0 0 0 0 0 0 0 0 0 0 0 0 0 0 0 0 47 48 45 46 45 45 43 44 42 42 42 45 45 48 48 47 47 48 48 46 47 46 46 46 48 47 48 49 51 50 51 50 50 49 50 49 49 48 47 47 46 48 46 46 46 46 46 47 45 45 45 45 45 45 45 45 44 46 46 46 45 46 45 44 45 45 44 44 43 44 43 44 46 46 46 46 47 46 46 47 48 46 47 46 46 48 47 48 47 47 46 46 47 48 46 47 47 48 48 48 47 48 47 47 46 47 45 45 45 46 46 45 46 46 45 46 46 45 44 44 44 43 45 46 48 48 48 50 50 49 51 47 51 47 48 48 48 50 49 51 55 55 58 60 60 60 60 61 61 57 60 59 64 75 75 75 75 75 75 75 77 77 61 60 54 58 -193 -209 -193 -177 -193 -193 -193 -193 -193 -193 -193 -193 73 -193 48 46 46 48 48 48 47 48 53 59 -209 -209 -209 -209 -193 -177 -193 -209 -193 104 105 104 105 106 108 108 115 114 116 117 116 116 115 109 108 104 104 105 105 108 109 106 109 111 112 116 116 119 121 122 124 127 128 129 131 132 136 136 132 138 -193 -193 63 62 63 64 0 0 0 0 0
    0 0 0 0 0 0 0 0 0 0 0 0 0 0 0 0 0 0 0 0 0 0 0 0 0 0 0 0 0 0 0 0 0 0 0 0 0 0 0 0 0 0 0 0 0 0 0 0 0 0 0 0 0 0 0 0 0 0 0 0 0 0 0 0 0 0 0 0 0 48 48 46 47 46 46 43 45 42 42 43 45 46 49 51 50 50 51 50 49 49 48 47 47 49 49 50 51 53 53 53 52 52 51 51 51 50 48 48 48 48 50 49 49 50 50 49 51 48 48 48 47 47 46 46 46 45 48 48 49 48 51 47 46 47 46 45 45 44 45 44 45 48 47 48 47 48 48 48 50 50 50 50 49 50 51 49 50 49 48 48 48 48 50 47 48 47 48 48 49 48 49 48 48 47 47 46 46 46 47 47 47 49 50 49 50 50 49 48 47 47 44 47 49 49 50 50 51 52 51 52 48 51 47 48 48 48 50 50 52 56 56 58 61 60 60 60 61 61 57 61 59 64 75 75 75 -177 74 74 74 76 77 60 60 55 59 -193 -209 -177 -177 335 -193 335 334 -193 -193 80 80 73 -193 50 47 47 49 49 49 49 50 53 59 -193 -209 -209 -209 -209 -193 -193 -193 -209 102 103 103 105 105 108 108 116 115 116 117 116 115 115 109 108 105 104 105 104 108 108 107 110 110 111 116 116 119 120 122 124 125 126 128 130 131 135 135 136 139 135 137 141 62 63 64 0 0 0 0 0
    0 0 0 0 0 0 0 0 0 0 0 0 0 0 0 0 0 0 0 0 0 0 0 0 0 0 0 0 0 0 0 0 0 0 0 0 0 0 0 0 0 0 0 0 0 0 0 0 0 0 0 0 0 0 0 0 0 0 0 0 0 0 0 0 0 0 0 0 0 50 50 49 50 48 48 45 47 43 43 44 47 47 51 52 52 51 52 52 51 50 50 48 48 50 51 51 52 55 54 54 53 53 52 53 52 51 49 49 50 50 51 52 51 52 53 52 54 52 51 51 49 48 47 48 48 46 51 51 52 51 54 50 50 50 49 46 46 46 46 45 48 50 49 50 49 50 50 51 52 52 52 53 52 52 53 52 51 50 49 49 49 50 51 49 49 48 49 49 50 48 49 48 49 48 49 47 49 48 49 49 51 52 53 52 53 53 52 51 50 50 46 49 51 49 51 53 53 54 53 54 51 53 50 50 49 49 51 51 53 56 56 59 60 60 60 59 61 61 57 61 60 66 76 -177 -177 -177 -177 74 74 76 77 60 60 55 60 -209 -209 -177 -177 334 335 335 335 335 -193 80 80 73 -193 51 47 48 49 49 49 50 51 54 59 69 -209 -209 -209 100 -209 -193 -193 -193 102 -193 -193 105 106 109 110 -193 -193 117 117 116 115 115 108 108 105 103 104 102 109 109 108 112 114 113 116 117 119 120 122 124 125 125 127 130 130 133 134 135 138 135 138 141 141 -193 -193 0 0 0 0 0
    0 0 0 0 0 0 0 0 0 0 0 0 0 0 0 0 0 0 0 0 0 0 0 0 0 0 0 0 0 0 0 0 0 0 0 0 0 0 0 0 0 0 0 0 0 0 0 0 0 0 0 0 0 0 0 0 0 0 0 0 0 0 0 0 0 0 0 0 0 51 51 50 51 50 49 47 50 45 45 47 51 50 53 53 53 53 53 53 52 51 51 49 49 51 52 53 54 56 55 55 55 54 54 54 53 53 50 50 50 50 52 53 52 53 54 53 55 54 53 53 51 50 50 50 51 49 53 53 54 54 56 53 53 52 51 48 48 47 48 47 51 52 52 52 51 52 52 53 53 53 54 54 54 55 55 54 53 52 51 50 52 51 52 51 50 49 51 49 50 49 50 49 49 49 50 49 52 51 51 51 54 55 55 54 55 55 54 53 53 52 48 50 52 50 52 54 54 55 55 55 53 54 52 52 50 51 52 52 53 56 56 58 60 60 60 59 61 61 57 62 60 67 75 -177 -177 -177 74 74 74 76 77 61 61 56 61 -193 -209 -177 -177 334 334 335 334 -193 -193 80 80 73 75 53 50 50 50 51 50 52 53 55 60 68 -209 -209 98 101 -209 498 500 -193 -193 -193 -193 -193 107 -193 112 -193 -209 116 117 116 115 115 108 108 105 103 101 90 -193 -193 106 113 115 114 117 119 120 121 123 125 126 127 129 131 131 133 134 135 138 135 138 141 141 141 141 0 0 0 0 0
    0 0 0 0 0 0 0 0 0 0 0 0 0 0 0 0 0 0 0 0 0 0 0 0 0 0 0 0 0 0 0 0 0 0 0 0 0 0 0 0 0 0 0 0 0 0 0 0 0 0 0 0 0 0 0 0 0 0 0 0 0 0 0 0 0 0 0 0 0 53 53 52 53 52 51 50 52 48 52 54 55 54 55 54 54 54 54 53 53 52 52 51 52 54 54 56 56 58 58 57 57 56 55 56 55 54 52 52 51 52 53 54 53 54 55 55 56 55 55 54 53 52 53 52 53 52 55 55 56 56 57 55 55 54 53 50 50 49 49 50 54 54 53 54 53 53 54 54 55 55 55 55 55 57 56 55 55 53 53 52 53 53 53 52 51 50 51 49 51 50 51 50 51 51 52 52 54 54 53 54 56 56 56 56 56 56 55 55 54 53 50 52 53 51 53 55 55 56 55 56 55 55 54 54 52 53 53 53 54 57 57 58 60 60 60 59 61 61 58 64 61 67 75 74 75 -177 -177 74 74 76 76 62 63 57 64 -193 -209 -209 -177 334 -193 335 335 335 -193 81 80 73 77 54 54 53 52 52 52 53 54 56 61 68 -209 -209 97 101 -193 497 499 -193 -193 -193 498 -193 107 -193 112 -209 -209 115 115 113 112 113 107 107 105 99 -193 -193 -209 83 100 112 115 114 119 121 122 123 125 125 125 127 129 131 131 134 134 134 137 136 138 141 141 141 142 0 0 0 0 0
    0 0 0 0 0 0 0 0 0 0 0 0 0 0 0 0 0 0 0 0 0 0 0 0 0 0 0 0 0 0 0 0 0 0 0 0 0 0 0 0 0 0 0 0 0 0 0 0 0 0 0 0 0 0 0 0 0 0 0 0 0 0 0 0 0 0 0 0 0 54 55 54 54 53 53 53 54 51 56 58 58 56 57 56 55 56 56 55 54 54 54 53 55 57 56 57 57 59 59 58 58 57 57 57 56 55 53 54 53 53 55 56 55 56 56 56 57 57 56 55 54 54 55 55 56 55 58 57 58 58 59 57 57 56 55 52 52 51 52 53 56 56 55 56 55 56 56 56 57 56 57 57 57 58 58 57 57 56 54 54 55 55 54 53 52 52 52 50 52 51 53 52 53 54 55 56 57 57 57 56 58 57 57 57 57 57 56 56 55 54 53 53 55 52 54 56 56 57 57 57 56 56 57 57 54 54 54 54 55 57 57 59 60 60 60 60 61 61 58 66 62 68 75 74 75 -177 -177 73 73 75 76 64 64 59 67 75 -209 -209 -193 -193 -193 336 335 336 -193 81 81 73 -209 57 57 56 55 54 54 54 55 56 62 69 -209 -209 96 101 -193 496 498 -193 -193 -193 498 -193 108 110 112 -193 -209 114 114 112 112 113 105 105 -209 -193 69 71 72 75 77 -209 -193 110 117 121 123 124 127 126 126 130 130 131 131 134 134 135 137 136 138 141 141 141 142 0 0 0 0 0
    0 0 0 0 0 0 0 0 0 0 0 0 0 0 0 0 0 0 0 0 0 0 0 0 0 0 0 0 0 0 0 0 0 0 0 0 0 0 0 0 0 0 0 0 0 0 0 0 0 0 0 0 0 0 0 0 0 0 0 0 0 0 0 0 0 0 0 0 0 55 56 55 55 55 54 54 55 54 59 61 61 58 58 58 57 58 58 57 -193 -193 56 55 57 59 58 58 58 59 59 59 59 58 57 58 57 57 55 55 54 55 56 58 57 57 58 57 58 58 57 56 56 55 57 57 57 57 60 59 60 60 61 59 59 58 58 56 56 54 55 56 59 58 58 58 57 57 58 58 58 57 58 58 58 59 59 59 58 57 56 56 57 57 57 57 55 56 55 55 56 55 57 57 58 58 58 59 59 60 60 59 61 59 59 59 59 59 58 58 57 56 56 55 56 53 54 56 57 58 58 59 58 58 59 59 57 57 56 56 56 58 58 59 60 60 60 60 61 61 59 67 63 69 75 74 75 -177 -177 73 73 75 75 66 66 61 69 77 79 79 -193 -193 -193 336 335 336 -193 82 81 72 -209 58 59 59 58 57 57 55 56 58 63 69 -209 -193 95 102 501 496 498 -193 -193 -193 497 107 108 109 111 114 -209 112 113 112 112 113 106 106 67 68 66 70 71 72 72 72 75 -209 -209 -209 124 126 128 128 128 133 132 132 133 133 133 135 138 137 139 142 142 142 143 0 0 0 0 0
    0 0 0 0 0 0 0 0 0 0 0 0 0 0 0 0 0 0 0 0 0 0 0 0 0 0 0 0 0 0 0 0 0 0 0 0 0 0 0 0 0 0 0 0 0 0 0 0 0 0 0 0 0 0 0 0 0 0 0 0 0 0 0 0 0 0 0 0 0 56 57 56 56 56 55 55 57 56 60 62 62 59 59 59 59 59 59 58 -193 -193 58 58 58 60 59 59 59 60 60 59 59 58 58 58 57 57 56 57 56 57 58 60 58 59 60 58 59 58 58 57 56 56 57 57 58 58 61 60 61 61 61 61 62 61 61 59 60 58 60 59 62 60 60 60 59 59 60 60 60 59 60 60 59 60 60 60 59 58 58 58 58 58 58 58 57 58 58 58 59 58 60 59 60 60 60 61 61 61 61 60 63 60 61 61 60 61 59 59 58 57 58 56 56 54 54 57 58 59 59 60 59 59 61 61 59 59 59 59 58 60 59 60 60 60 60 60 62 61 61 69 65 70 76 75 75 -177 -177 -177 73 74 75 67 67 63 70 77 78 80 87 81 -193 336 335 335 335 -193 -193 -193 -193 60 61 61 61 59 58 56 57 59 64 69 80 -193 94 -193 -177 -177 499 -193 -177 -177 -193 109 109 110 112 113 -193 112 113 112 112 113 106 107 61 62 63 68 69 70 70 70 71 71 70 -209 -193 -209 -209 131 132 136 134 133 136 135 134 138 138 138 139 141 142 142 143 0 0 0 0 0
    0 0 0 0 0 0 0 0 0 0 0 0 0 0 0 0 0 0 0 0 0 0 0 0 0 0 0 0 0 0 0 0 0 0 0 0 0 0 0 0 0 0 0 0 0 0 0 0 0 0 0 0 0 0 0 0 0 0 0 0 0 0 0 0 0 0 0 0 0 -193 58 57 57 57 -193 57 58 57 63 63 64 61 61 61 60 61 61 59 60 58 60 59 59 61 60 60 59 60 60 59 59 59 58 58 58 57 56 57 57 59 60 63 60 60 61 60 60 59 59 58 57 57 59 58 60 59 62 60 62 62 62 62 62 61 62 60 61 60 62 61 64 60 61 61 60 60 61 61 61 60 61 61 60 61 61 62 60 60 59 59 59 59 59 58 58 58 59 59 61 60 62 61 63 62 63 62 62 63 63 62 65 61 62 62 61 62 60 60 59 58 59 57 57 55 55 58 59 60 59 61 60 61 62 63 61 61 61 61 59 61 60 60 60 60 60 62 64 65 66 72 69 71 77 75 75 73 72 72 72 74 74 69 68 65 71 77 78 81 86 82 83 -193 -193 -193 -193 84 83 74 88 65 68 66 67 64 63 60 59 61 67 70 81 -177 93 102 -193 -177 -177 -193 -193 -193 -193 110 111 112 113 113 -193 -193 -193 112 113 114 107 111 59 61 63 66 66 68 68 68 69 68 67 -209 -177 -209 -209 136 137 137 136 135 139 137 135 139 141 140 141 140 141 140 140 0 0 0 0 0
    0 0 0 0 0 0 0 0 0 0 0 0 0 0 0 0 0 0 0 0 0 0 0 0 0 0 0 0 0 0 0 0 0 0 0 0 0 0 0 0 0 0 0 0 0 0 0 0 0 0 0 0 0 0 0 0 0 0 0 0 0 0 0 0 0 0 0 0 0 -193 60 -193 60 64 -193 65 65 64 69 68 69 67 65 65 63 64 64 61 63 61 63 62 61 63 61 60 60 61 61 60 60 60 59 59 59 58 57 58 58 60 61 64 61 61 63 61 62 62 61 60 59 60 61 60 63 60 65 62 64 63 63 63 64 62 63 61 64 64 67 66 -193 63 63 63 62 61 61 61 61 60 61 61 61 62 62 63 61 61 60 61 61 60 59 59 58 59 60 59 61 61 64 62 64 64 64 64 64 65 66 63 67 63 64 64 62 63 61 60 60 58 59 57 57 55 55 58 60 60 60 61 60 61 62 63 61 61 61 62 60 63 61 61 61 62 63 66 69 71 72 76 72 72 81 75 75 73 72 72 72 74 74 70 70 67 72 81 81 84 87 83 84 85 -193 85 84 84 83 74 84 67 70 69 70 69 70 72 69 70 71 72 85 96 93 101 110 -193 107 110 108 108 109 111 112 112 112 113 113 113 113 112 113 113 107 112 62 64 65 67 67 68 68 67 67 66 64 -193 -177 -177 -177 139 139 139 -193 -193 -209 128 127 137 139 137 140 139 140 141 140 0 0 0 0 0
    0 0 0 0 0 0 0 0 0 0 0 0 0 0 0 0 0 0 0 0 0 0 0 0 0 0 0 0 0 0 0 0 0 0 0 0 0 0 0 0 0 0 0 0 0 0 0 0 0 0 0 0 0 0 0 0 0 0 0 0 0 0 0 0 0 0 0 0 0 -193 65 -193 66 73 74 75 74 73 73 71 71 70 68 68 67 67 68 65 68 65 68 66 64 67 65 62 64 64 64 63 64 63 61 62 62 61 60 61 59 62 63 67 64 63 66 64 67 66 65 66 63 -193 -193 65 69 63 68 64 67 67 66 67 67 65 66 66 69 71 71 72 -193 68 68 68 66 65 64 63 63 61 63 62 63 65 66 67 63 64 65 65 65 62 62 62 60 62 63 61 63 62 67 64 66 66 67 66 66 67 69 66 69 67 68 68 65 66 63 61 61 59 60 58 57 56 55 59 61 61 60 63 61 62 63 63 61 61 61 62 59 64 61 62 61 65 67 70 72 75 76 79 77 75 82 76 76 73 72 72 72 74 75 72 71 70 75 85 84 86 87 84 84 85 86 85 84 85 83 75 86 68 73 71 73 74 76 77 79 76 77 77 86 95 92 101 109 107 107 110 109 109 109 111 112 112 112 112 113 112 113 112 113 113 107 112 67 68 68 70 69 69 69 68 68 67 65 66 -193 -193 -193 -193 141 -209 -209 -209 -209 -209 -209 -209 -209 127 -193 136 137 140 139 0 0 0 0 0
    0 0 0 0 0 0 0 0 0 0 0 0 0 0 0 0 0 0 0 0 0 0 0 0 0 0 0 0 0 0 0 0 0 0 0 0 0 0 0 0 0 0 0 0 0 0 0 0 0 0 0 0 0 0 0 0 0 0 0 0 0 0 0 0 0 0 0 0 0 -193 71 71 72 76 78 79 77 77 76 73 72 72 70 70 70 69 70 68 71 70 72 70 68 69 68 66 68 68 68 67 69 69 65 67 70 66 64 65 62 66 65 68 67 66 68 68 70 70 -193 73 72 73 74 72 74 69 71 69 70 70 69 70 70 69 -193 71 72 75 74 76 74 -193 72 72 70 70 67 67 66 64 67 66 67 69 70 70 67 68 70 -193 69 67 68 68 66 71 71 65 67 66 70 -193 68 68 69 69 69 70 71 69 72 71 71 71 70 70 68 65 65 61 62 60 58 57 56 61 63 62 62 66 62 64 64 65 63 62 64 65 60 68 63 65 65 68 70 73 75 77 79 82 82 80 84 78 77 75 73 73 73 74 76 74 73 73 81 86 86 87 88 85 85 85 86 86 84 85 84 76 87 71 81 78 79 81 82 82 84 82 83 83 87 95 92 101 108 107 107 110 108 108 109 111 113 113 113 113 113 113 113 112 113 112 107 110 -193 71 71 73 71 71 71 70 69 69 67 69 66 68 68 69 -193 -193 -193 -209 -209 -209 82 -193 87 -209 -209 126 132 136 137 0 0 0 0 0
    0 0 0 0 0 0 0 0 0 0 0 0 0 0 0 0 0 0 0 0 0 0 0 0 0 0 0 0 0 0 0 0 0 0 0 0 0 0 0 0 0 0 0 0 0 0 0 0 0 0 0 0 0 0 0 0 0 0 0 0 0 0 0 0 0 0 0 0 0 75 75 75 75 79 80 80 78 79 77 75 74 73 72 72 72 71 72 71 74 74 73 72 71 71 70 68 70 71 71 71 -193 -193 -193 73 74 72 70 70 67 69 67 69 69 68 70 70 73 74 74 77 77 78 78 76 78 73 73 72 72 73 71 73 73 72 -209 74 74 79 76 78 76 75 75 74 73 73 70 70 69 68 70 70 71 71 73 73 70 71 -193 -193 72 71 71 72 71 75 75 70 -193 70 -193 -193 70 70 71 -209 -193 72 -193 -193 74 74 74 75 74 73 73 71 70 67 67 64 58 61 57 64 67 63 64 68 65 67 67 67 66 66 68 69 64 73 68 70 70 71 73 77 78 79 81 84 85 83 85 81 79 77 75 74 73 75 77 76 78 78 85 87 87 88 88 86 86 86 87 86 86 86 85 80 89 85 87 87 86 86 86 85 86 86 86 87 88 96 93 100 106 106 107 109 108 108 109 111 113 113 113 113 113 113 113 112 113 112 107 110 -209 73 74 78 78 73 74 72 71 71 70 71 69 70 70 70 71 72 -193 73 -209 79 85 -193 87 -209 -209 -209 -209 -193 127 0 0 0 0 0
    0 0 0 0 0 0 0 0 0 0 0 0 0 0 0 0 0 0 0 0 0 0 0 0 0 0 0 0 0 0 0 0 0 0 0 0 0 0 0 0 0 0 0 0 0 0 0 0 0 0 0 0 0 0 0 0 0 0 0 0 0 0 0 0 0 0 0 0 0 78 78 77 77 81 82 81 80 81 79 77 76 76 74 74 75 72 73 73 76 76 75 75 74 73 73 72 73 74 73 74 75 75 75 75 77 76 73 73 70 70 69 70 69 69 71 71 78 77 78 80 81 81 82 79 82 76 76 76 75 77 73 76 76 74 -193 76 75 82 77 80 79 78 77 77 76 75 73 73 70 71 72 -209 73 73 76 76 -209 72 77 75 75 75 75 75 75 77 77 72 -193 -209 -193 -193 -193 -193 -209 -209 -209 -209 75 -193 76 76 76 77 76 75 76 74 73 73 70 71 59 69 63 69 71 67 67 71 67 70 69 69 69 68 71 72 68 75 72 72 73 73 75 80 80 80 82 85 85 84 85 83 81 79 78 77 74 76 80 80 84 84 87 89 88 88 88 87 86 87 87 87 86 87 86 84 88 87 88 88 88 87 87 86 87 87 88 88 88 96 93 100 106 106 106 109 108 108 109 111 113 113 113 113 114 114 114 113 113 112 107 110 -209 79 79 83 85 83 82 78 77 74 -193 73 -193 71 72 70 71 72 74 73 76 79 84 84 87 89 97 -209 -209 -193 -209 0 0 0 0 0
    0 0 0 0 0 0 0 0 0 0 0 0 0 0 0 0 0 0 0 0 0 0 0 0 0 0 0 0 0 0 0 0 0 0 0 0 0 0 0 0 0 0 0 0 0 0 0 0 0 0 0 0 0 0 0 0 0 0 0 0 0 0 0 0 0 0 0 0 0 81 81 79 80 82 83 81 82 82 80 79 78 79 76 76 78 75 76 77 79 80 78 78 77 76 78 76 77 77 76 77 78 78 78 77 79 79 76 77 72 71 71 71 71 70 73 73 84 82 82 83 83 83 83 82 83 78 80 80 77 80 75 77 77 75 -193 78 76 83 79 82 80 80 79 78 78 77 74 76 73 73 74 75 75 76 80 79 76 75 81 77 77 77 78 78 77 79 79 74 -193 -209 -209 -209 -209 -209 -193 -177 -193 -193 77 76 77 78 78 79 78 77 78 76 75 76 73 75 67 75 75 74 76 70 70 75 70 72 71 71 71 70 73 74 69 76 72 73 73 74 76 82 81 81 82 85 85 84 85 84 82 83 82 81 76 81 86 86 88 87 89 90 89 88 89 88 87 88 88 87 87 87 87 86 88 88 88 89 88 88 88 87 87 87 87 88 88 96 93 99 105 105 106 108 108 108 109 111 113 113 113 113 114 114 114 113 113 112 107 110 -209 85 82 85 87 87 86 86 89 89 90 91 -193 -193 -193 71 71 73 76 75 78 79 82 84 87 89 92 92 92 97 -193 0 0 0 0 0
    0 0 0 0 0 0 0 0 0 0 0 0 0 0 0 0 0 0 0 0 0 0 0 0 0 0 0 0 0 0 0 0 0 0 0 0 0 0 0 0 0 0 0 0 0 0 0 0 0 0 0 0 0 0 0 0 0 0 0 0 0 0 0 0 0 0 0 0 0 82 82 80 82 83 83 82 82 83 81 80 80 81 79 79 81 77 80 81 83 83 82 83 83 80 83 81 81 80 80 80 81 81 82 80 81 82 79 82 77 75 75 74 77 74 84 81 87 85 85 85 84 84 84 83 84 79 82 81 79 83 79 81 80 78 -193 -193 78 84 79 83 81 81 81 80 80 79 76 79 75 76 77 80 79 80 83 82 79 78 84 80 79 80 80 80 80 82 81 76 80 -193 -193 -193 -193 -193 -193 -193 -193 -193 80 78 79 80 79 80 80 80 81 78 76 79 76 82 80 85 82 78 81 75 72 80 72 75 74 74 -193 73 75 77 71 77 73 74 74 74 77 83 81 81 82 85 85 84 85 85 84 86 86 86 83 89 90 90 89 89 90 91 90 89 89 88 88 88 88 88 87 88 88 87 88 87 88 89 88 88 88 87 88 87 88 89 89 96 94 100 105 105 106 108 108 108 110 111 114 114 114 114 114 114 114 113 113 112 107 110 108 -193 85 86 88 88 88 89 90 91 92 93 94 92 91 -193 -193 83 87 85 85 85 86 87 89 90 92 92 92 96 100 0 0 0 0 0
    0 0 0 0 0 0 0 0 0 0 0 0 0 0 0 0 0 0 0 0 0 0 0 0 0 0 0 0 0 0 0 0 0 0 0 0 0 0 0 0 0 0 0 0 0 0 0 0 0 0 0 0 0 0 0 0 0 0 0 0 0 0 0 0 0 0 0 0 0 83 83 81 83 84 84 82 83 83 82 82 82 83 81 81 83 80 83 84 85 85 85 86 86 84 86 85 84 84 83 83 83 83 84 82 83 84 83 84 83 79 83 85 86 89 88 86 88 86 86 86 84 85 84 84 85 80 83 83 82 84 83 85 84 83 -193 -193 80 85 80 83 82 82 82 80 81 81 77 82 78 79 81 84 82 83 85 84 83 81 85 82 81 83 83 83 83 84 84 79 85 86 87 84 -193 -193 -193 -193 -193 82 83 82 82 83 81 82 82 82 83 81 79 82 81 86 87 88 85 82 84 82 76 84 77 78 77 79 78 76 78 80 74 79 75 75 75 76 78 84 82 82 82 85 84 84 85 85 84 88 88 88 89 91 93 94 91 91 91 92 91 89 89 89 89 89 88 88 87 87 87 88 89 88 89 89 89 89 88 88 88 88 88 89 90 97 95 100 105 105 106 108 108 108 110 111 113 113 113 113 114 114 114 113 112 112 107 109 107 91 88 88 89 89 89 90 91 92 93 94 95 94 93 92 91 91 92 90 88 88 88 89 91 91 93 93 91 94 98 0 0 0 0 0
    0 0 0 0 0 0 0 0 0 0 0 0 0 0 0 0 0 0 0 0 0 0 0 0 0 0 0 0 0 0 0 0 0 0 0 0 0 0 0 0 0 0 0 0 0 0 0 0 0 0 0 0 0 0 0 0 0 0 0 0 0 0 0 0 0 0 0 0 0 84 84 82 84 85 84 83 83 84 82 82 83 83 82 82 84 81 85 86 87 86 87 88 88 87 88 86 86 85 85 84 84 84 84 83 83 84 84 85 84 82 85 88 89 93 93 89 89 87 87 87 86 86 86 85 86 83 85 85 84 86 84 86 84 85 87 85 83 87 82 85 83 84 83 82 83 83 79 84 82 83 83 85 84 85 86 85 84 83 86 84 83 85 85 84 84 85 85 82 88 88 89 87 -193 88 87 86 86 85 85 84 84 84 83 83 84 84 84 83 81 84 84 88 88 89 86 85 85 85 82 86 82 83 82 84 83 82 83 84 77 83 78 79 78 79 81 85 82 82 83 85 84 84 85 86 85 89 89 89 90 92 94 96 92 93 93 93 92 90 89 90 89 89 89 89 89 89 89 91 91 90 90 90 89 89 88 88 88 88 88 89 90 97 96 100 105 106 106 109 108 108 110 111 113 113 113 113 114 114 114 112 112 111 106 108 107 92 89 89 89 89 90 90 91 92 93 94 95 94 93 92 92 92 93 92 91 90 89 92 93 93 95 95 92 92 95 0 0 0 0 0
    0 0 0 0 0 0 0 0 0 0 0 0 0 0 0 0 0 0 0 0 0 0 0 0 0 0 0 0 0 0 0 0 0 0 0 0 0 0 0 0 0 0 0 0 0 0 0 0 0 0 0 0 0 0 0 0 0 0 0 0 0 0 0 0 0 0 0 0 0 84 85 84 85 85 85 83 84 85 83 82 83 83 82 83 85 83 87 88 88 88 89 90 90 88 89 87 86 86 86 85 85 85 85 84 85 85 86 87 86 85 86 89 90 95 94 91 90 88 88 89 87 88 87 87 87 86 87 87 86 88 85 86 85 85 88 86 86 87 84 86 85 85 85 84 85 84 82 86 84 84 84 86 84 85 86 85 85 84 86 84 84 85 85 85 85 86 86 85 89 90 91 89 89 90 89 88 87 86 86 85 85 85 84 84 85 85 85 84 83 86 86 88 89 89 86 86 87 87 85 87 85 86 85 86 -193 86 86 87 83 86 83 83 83 83 84 86 83 82 82 85 84 84 85 86 85 89 89 90 90 92 95 96 93 94 93 93 92 90 90 90 90 90 90 90 90 90 92 93 92 92 91 91 90 89 88 88 88 88 89 90 91 98 96 101 106 106 106 109 109 109 110 111 113 113 113 113 114 114 114 112 112 111 107 109 108 94 89 89 89 89 90 91 91 93 93 94 96 95 95 93 93 95 96 94 93 92 92 96 97 96 97 96 95 92 94 0 0 0 0 0
    0 0 0 0 0 0 0 0 0 0 0 0 0 0 0 0 0 0 0 0 0 0 0 0 0 0 0 0 0 0 0 0 0 0 0 0 0 0 0 0 0 0 0 0 0 0 0 0 0 0 0 0 0 0 0 0 0 0 0 0 0 0 0 0 0 0 0 0 0 85 86 85 86 87 86 84 86 85 84 83 84 84 83 84 85 84 87 89 89 88 90 91 91 90 90 89 87 87 87 86 85 85 85 84 86 87 87 88 88 88 88 92 92 97 95 91 92 90 89 90 89 89 89 89 89 88 89 89 88 89 86 87 86 87 90 88 89 89 86 87 87 87 87 86 86 85 83 87 85 85 85 86 85 85 86 85 85 84 86 84 84 85 86 86 86 87 87 87 90 91 92 90 90 91 90 89 88 87 86 86 86 86 85 86 86 87 87 86 85 87 87 89 89 90 87 87 88 87 86 87 85 86 85 86 86 85 87 87 85 87 85 86 86 86 86 86 83 82 82 85 84 84 85 86 86 89 90 91 91 92 95 96 94 94 93 93 92 90 90 90 90 90 90 90 90 91 93 93 93 93 92 91 90 90 89 88 88 89 90 90 92 99 98 101 106 106 106 109 109 109 110 111 113 113 113 113 114 114 114 112 112 112 107 109 109 97 89 90 89 90 91 92 92 93 93 95 96 95 95 94 93 96 96 94 94 93 94 96 97 97 96 96 95 93 96 0 0 0 0 0
    0 0 0 0 0 0 0 0 0 0 0 0 0 0 0 0 0 0 0 0 0 0 0 0 0 0 0 0 0 0 0 0 0 0 0 0 0 0 0 0 0 0 0 0 0 0 0 0 0 0 0 0 0 0 0 0 0 0 0 0 0 0 0 0 0 0 0 0 0 86 87 87 87 88 87 85 87 87 86 85 86 85 84 85 87 86 89 91 91 90 91 92 92 91 91 90 88 88 88 87 86 85 86 85 86 88 87 88 88 90 88 92 92 98 94 92 92 90 89 91 89 90 89 89 90 89 90 90 89 90 87 89 89 89 93 91 92 92 88 89 89 89 89 87 87 86 85 89 -193 85 85 86 85 86 86 85 84 84 86 84 85 86 87 87 87 88 88 89 91 92 93 92 91 93 92 91 89 88 86 87 87 87 86 88 88 89 88 88 87 89 89 91 90 92 89 89 89 88 87 88 85 86 85 86 86 86 87 88 87 89 87 88 88 88 89 87 84 83 83 86 84 84 85 86 86 89 90 91 91 92 96 96 95 95 94 95 94 90 91 91 90 91 91 91 91 91 93 94 93 93 92 92 90 90 89 89 89 89 90 91 93 99 99 102 108 106 107 109 109 109 110 111 112 112 112 112 113 -193 -193 -193 112 112 107 110 109 103 91 91 89 90 92 92 92 94 94 95 95 95 96 94 94 96 95 94 94 94 95 96 96 97 95 97 98 95 99 0 0 0 0 0
    0 0 0 0 0 0 0 0 0 0 0 0 0 0 0 0 0 0 0 0 0 0 0 0 0 0 0 0 0 0 0 0 0 0 0 0 0 0 0 0 0 0 0 0 0 0 0 0 0 0 0 0 0 0 0 0 0 0 0 0 0 0 0 0 0 0 0 0 0 87 88 88 89 89 89 87 88 88 88 87 86 86 85 86 88 88 90 92 92 91 92 93 93 92 92 91 89 89 89 88 86 85 86 86 87 88 87 88 87 88 87 89 90 97 93 91 92 90 90 91 90 92 90 90 90 90 91 91 90 91 89 91 92 92 96 93 94 94 91 91 91 90 90 89 89 88 87 90 -209 86 86 86 86 86 86 85 85 84 86 85 86 87 88 88 89 89 89 91 93 93 94 93 92 94 93 92 90 89 87 88 88 89 88 90 90 91 90 90 90 90 91 92 91 92 89 90 90 89 88 88 86 87 86 88 87 87 89 89 89 90 89 90 89 90 90 88 85 84 85 86 85 84 85 86 87 90 91 91 91 93 97 97 96 96 96 97 96 92 93 92 91 91 91 91 91 91 93 94 94 95 93 93 92 92 91 90 91 90 91 91 93 100 100 102 108 107 107 109 109 109 110 110 112 112 112 112 113 -193 -193 -193 111 112 108 110 110 105 94 93 89 91 93 93 93 94 94 95 95 95 96 94 94 96 94 93 93 94 94 94 94 97 94 99 101 98 102 0 0 0 0 0
    0 0 0 0 0 0 0 0 0 0 0 0 0 0 0 0 0 0 0 0 0 0 0 0 0 0 0 0 0 0 0 0 0 0 0 0 0 0 0 0 0 0 0 0 0 0 0 0 0 0 0 0 0 0 0 0 0 0 0 0 0 0 0 0 0 0 0 0 0 89 90 90 90 90 90 89 89 89 89 88 87 87 86 87 88 88 90 92 91 91 92 93 93 92 92 91 90 90 90 89 87 86 87 86 87 88 87 88 88 89 88 90 90 98 93 92 93 91 91 92 91 93 91 91 91 91 91 92 90 91 89 92 94 93 97 94 95 96 93 93 92 92 92 90 91 90 89 91 -209 -193 88 87 87 86 86 86 85 85 86 86 87 88 89 90 90 91 91 92 93 93 94 94 92 94 93 92 90 90 88 89 90 91 90 92 91 93 92 92 92 91 92 93 91 93 90 92 91 90 89 89 88 88 88 89 89 88 91 91 90 91 91 91 90 91 91 90 87 86 87 87 86 86 86 87 88 91 92 92 92 94 98 98 97 97 98 99 99 96 95 93 92 92 92 92 92 92 94 94 95 97 95 95 96 96 93 92 93 92 92 92 94 101 100 103 109 107 107 109 109 109 110 110 112 112 112 112 113 -193 -193 113 111 112 108 111 110 106 94 93 87 90 92 92 93 95 95 96 96 96 98 96 95 97 95 94 95 95 95 95 95 98 97 101 103 100 103 0 0 0 0 0
    0 0 0 0 0 0 0 0 0 0 0 0 0 0 0 0 0 0 0 0 0 0 0 0 0 0 0 0 0 0 0 0 0 0 0 0 0 0 0 0 0 0 0 0 0 0 0 0 0 0 0 0 0 0 0 0 0 0 0 0 0 0 0 0 0 0 0 0 0 91 91 92 91 91 91 90 89 90 90 89 88 88 87 89 90 89 90 91 91 92 92 94 93 93 93 92 92 92 91 91 89 88 89 89 89 90 90 90 89 91 90 92 92 99 93 93 94 93 92 93 92 94 92 92 92 92 92 92 90 91 88 92 94 93 97 94 96 96 94 95 93 93 93 92 93 91 91 93 -193 90 89 88 88 87 87 86 86 86 86 87 89 90 90 92 92 92 92 94 94 93 94 94 93 94 93 93 91 91 89 90 93 93 92 95 92 95 93 93 93 92 93 93 91 93 90 93 91 91 90 91 90 90 90 91 90 90 92 92 91 92 92 92 91 92 92 91 89 88 88 88 87 87 87 88 90 91 93 93 93 95 98 98 98 97 99 100 100 99 97 95 93 94 93 93 94 94 96 96 97 98 97 97 99 99 96 96 97 94 94 93 97 102 102 103 110 108 108 109 109 109 110 110 111 111 111 112 113 -193 114 113 112 112 108 111 110 106 95 93 86 91 94 94 96 98 101 100 99 98 99 98 96 98 96 94 95 97 97 96 96 101 100 103 105 102 105 0 0 0 0 0
    0 0 0 0 0 0 0 0 0 0 0 0 0 0 0 0 0 0 0 0 0 0 0 0 0 0 0 0 0 0 0 0 0 0 0 0 0 0 0 0 0 0 0 0 0 0 0 0 0 0 0 0 0 0 0 0 0 0 0 0 0 0 0 0 0 0 0 0 0 92 93 94 92 92 92 91 90 91 91 90 89 89 89 91 92 91 92 92 92 93 93 95 94 93 93 93 92 93 92 92 91 91 92 91 92 92 92 91 91 93 93 94 94 99 94 94 94 93 93 94 93 95 92 93 93 92 93 93 91 91 88 92 94 93 96 95 97 97 95 96 94 94 94 93 94 92 92 94 91 91 89 88 89 86 87 86 86 86 87 87 91 91 91 93 93 93 93 95 95 94 95 95 94 95 94 94 92 92 91 91 96 95 94 97 94 96 94 94 94 93 94 94 91 93 90 94 92 92 92 92 92 92 92 94 92 92 95 94 93 93 93 94 92 93 93 91 91 89 89 89 89 89 88 89 91 92 93 94 94 96 98 98 99 97 100 101 101 100 99 98 96 97 95 95 96 97 98 97 99 99 98 98 100 100 98 99 99 95 97 96 100 103 102 104 110 108 108 109 109 108 109 110 111 111 111 111 113 -193 114 113 112 112 108 112 111 106 95 -193 82 -209 -209 101 102 102 106 104 100 99 98 98 95 98 95 94 96 97 97 96 97 102 102 105 105 104 105 0 0 0 0 0
    0 0 0 0 0 0 0 0 0 0 0 0 0 0 0 0 0 0 0 0 0 0 0 0 0 0 0 0 0 0 0 0 0 0 0 0 0 0 0 0 0 0 0 0 0 0 0 0 0 0 0 0 0 0 0 0 0 0 0 0 0 0 0 0 0 0 0 0 0 92 93 93 92 93 92 91 90 91 91 90 89 90 90 91 93 92 93 93 93 94 93 95 94 93 94 93 93 93 93 93 91 92 93 92 93 93 93 92 92 93 93 94 95 100 95 95 95 94 93 95 94 96 93 94 94 93 94 94 92 92 89 93 95 94 97 95 97 97 96 97 95 95 95 94 96 93 93 96 91 92 89 -193 90 87 87 87 87 88 88 88 94 92 92 95 94 94 94 96 96 94 95 96 94 96 95 95 93 93 92 93 99 97 96 99 94 97 95 95 95 94 94 94 92 94 91 95 93 93 94 94 94 94 94 96 94 94 97 95 95 94 94 94 93 94 94 91 92 90 90 90 90 90 90 90 94 93 94 95 95 97 99 98 99 97 101 102 101 101 102 102 100 100 97 99 98 99 99 98 100 100 100 100 101 101 100 101 101 99 101 100 102 104 104 105 110 108 108 109 108 108 109 110 110 111 111 112 113 114 114 112 112 112 108 112 111 107 -209 -209 76 -209 -209 -209 -193 105 107 106 102 100 99 99 96 98 95 94 96 96 98 98 99 103 104 107 107 105 107 0 0 0 0 0
    0 0 0 0 0 0 0 0 0 0 0 0 0 0 0 0 0 0 0 0 0 0 0 0 0 0 0 0 0 0 0 0 0 0 0 0 0 0 0 0 0 0 0 0 0 0 0 0 0 0 0 0 0 0 0 0 0 0 0 0 0 0 0 0 0 0 0 0 0 93 93 93 92 93 93 91 90 90 91 90 89 90 90 91 93 92 93 94 93 95 93 96 94 93 94 93 93 94 93 94 92 93 95 94 95 95 95 94 94 95 95 96 98 101 95 96 96 95 94 96 95 97 93 94 94 94 95 95 93 93 90 95 96 96 97 95 97 97 96 97 95 95 95 94 96 93 93 96 91 94 91 91 92 87 88 87 87 89 88 89 96 93 93 95 94 95 94 96 96 94 95 96 94 96 95 95 93 93 93 93 99 97 96 99 95 97 95 96 96 94 95 94 92 95 92 97 94 94 95 96 96 96 96 98 95 95 98 95 95 94 95 95 93 94 94 92 93 91 91 91 91 91 91 91 96 94 95 95 96 98 99 98 99 98 101 102 102 103 103 104 103 103 101 103 102 102 100 99 101 102 102 102 103 103 103 104 104 105 105 104 105 106 105 107 110 108 108 109 108 108 110 110 110 112 111 112 113 114 114 112 112 112 108 112 110 107 -193 -209 -209 -193 -193 111 109 109 110 110 105 104 101 100 96 98 94 94 95 96 97 97 99 104 105 107 107 106 107 0 0 0 0 0
    0 0 0 0 0 0 0 0 0 0 0 0 0 0 0 0 0 0 0 0 0 0 0 0 0 0 0 0 0 0 0 0 0 0 0 0 0 0 0 0 0 0 0 0 0 0 0 0 0 0 0 0 0 0 0 0 0 0 0 0 0 0 0 0 0 0 0 0 0 93 92 93 92 92 92 91 89 90 90 90 89 91 91 92 93 93 94 94 94 96 93 96 94 93 93 93 93 94 93 94 93 94 96 96 96 97 96 96 95 96 96 97 99 101 97 97 97 96 96 97 96 98 94 95 95 95 96 96 94 94 91 98 98 98 98 95 97 97 96 97 95 95 95 94 96 93 94 96 92 96 95 96 94 88 88 88 88 90 90 89 97 93 93 96 95 95 95 96 96 94 95 96 94 95 95 95 93 94 94 94 99 97 96 99 95 97 95 96 96 94 95 94 92 95 92 97 94 94 95 96 96 96 96 98 94 95 98 95 95 94 95 94 93 94 94 92 93 91 93 92 92 92 92 92 99 94 95 95 96 99 99 99 99 98 101 102 102 103 103 105 105 105 103 105 104 105 103 101 102 103 103 103 104 104 104 106 106 106 106 106 107 107 107 109 110 108 109 109 108 108 110 110 110 113 112 112 113 114 114 112 112 112 108 111 110 107 -193 -193 -193 117 -193 114 113 116 115 116 111 108 103 101 96 99 94 94 96 97 98 98 100 105 106 108 107 106 107 0 0 0 0 0
    0 0 0 0 0 0 0 0 0 0 0 0 0 0 0 0 0 0 0 0 0 0 0 0 0 0 0 0 0 0 0 0 0 0 0 0 0 0 0 0 0 0 0 0 0 0 0 0 0 0 0 0 0 0 0 0 0 0 0 0 0 0 0 0 0 0 0 0 0 93 92 93 92 92 92 91 89 89 89 90 89 91 92 93 95 95 96 96 96 98 93 96 94 94 93 94 94 95 94 96 95 97 98 97 98 98 98 97 97 97 98 99 100 102 98 99 98 97 97 98 97 99 94 96 95 96 97 98 95 96 92 100 100 99 99 97 98 98 97 98 96 96 95 95 97 94 95 97 94 99 99 98 96 90 90 89 89 93 92 91 99 94 94 97 96 96 95 97 97 94 95 96 94 95 95 95 93 94 94 94 98 97 96 99 95 97 95 96 96 95 95 95 93 96 93 98 95 94 96 96 96 96 96 98 94 96 98 95 95 94 95 95 93 94 94 92 94 92 93 93 93 93 93 92 99 94 95 95 96 100 99 99 99 97 102 103 103 104 104 106 107 106 106 107 107 108 105 105 104 104 104 104 105 105 105 107 107 107 107 108 108 109 109 110 110 109 109 110 109 109 111 111 110 114 112 113 114 114 113 112 112 112 108 111 110 108 108 110 113 116 115 114 114 118 117 118 117 115 -209 -193 -209 100 96 97 100 100 100 101 102 107 108 109 107 106 107 0 0 0 0 0
    0 0 0 0 0 0 0 0 0 0 0 0 0 0 0 0 0 0 0 0 0 0 0 0 0 0 0 0 0 0 0 0 0 0 0 0 0 0 0 0 0 0 0 0 0 0 0 0 0 0 0 0 0 0 0 0 0 0 0 0 0 0 0 0 0 0 0 0 0 94 93 94 92 92 92 91 89 88 89 89 89 92 93 95 98 97 98 99 99 101 95 97 95 95 95 95 96 96 95 98 98 100 100 99 100 100 100 99 100 100 101 101 102 102 100 100 100 99 99 99 98 99 96 98 97 98 98 99 97 98 95 101 100 100 99 98 99 99 98 98 96 96 96 96 97 95 95 97 95 101 102 101 101 98 96 93 92 97 94 93 100 96 96 98 98 98 97 98 98 95 97 97 94 96 95 94 93 93 93 94 98 98 97 100 96 98 96 97 98 96 97 96 94 98 95 100 97 95 97 97 97 97 96 98 94 96 98 95 96 95 95 95 93 95 94 93 95 93 95 94 94 94 95 94 100 95 95 95 97 100 99 98 99 97 101 103 103 104 104 106 107 107 107 108 107 109 107 105 104 104 105 105 105 106 106 108 108 108 108 109 109 110 109 111 110 109 109 110 109 109 112 112 111 116 114 114 115 115 114 112 112 112 109 111 110 108 109 111 112 113 114 112 114 117 116 116 117 118 117 122 -209 -193 -193 103 104 101 101 103 104 107 108 108 107 105 106 0 0 0 0 0
    0 0 0 0 0 0 0 0 0 0 0 0 0 0 0 0 0 0 0 0 0 0 0 0 0 0 0 0 0 0 0 0 0 0 0 0 0 0 0 0 0 0 0 0 0 0 0 0 0 0 0 0 0 0 0 0 0 0 0 0 0 0 0 0 0 0 0 0 0 95 94 94 93 93 93 91 88 88 89 90 90 94 95 98 101 101 102 103 103 103 98 99 97 98 97 98 99 99 99 102 102 103 102 101 101 101 101 101 101 102 103 102 103 103 101 102 101 100 100 100 99 100 97 99 98 99 100 100 99 99 97 101 101 101 100 99 100 99 99 99 97 97 97 97 97 95 96 98 97 102 104 102 102 101 99 98 95 98 96 94 100 97 97 99 99 100 100 100 100 97 100 99 97 98 97 95 94 93 94 95 99 99 98 100 96 99 97 98 99 98 98 98 96 100 97 102 99 97 98 97 98 97 97 98 94 97 99 96 97 96 96 96 95 96 95 94 97 95 97 97 96 97 99 98 102 96 96 96 98 100 99 99 99 97 101 103 103 104 105 106 107 107 107 109 108 110 108 106 106 106 105 105 106 106 106 108 108 108 108 110 110 110 110 111 110 109 110 111 110 110 114 113 113 117 115 115 115 115 114 112 113 112 109 111 111 109 109 111 111 113 114 112 115 117 116 116 118 118 117 121 -209 -209 104 104 105 101 101 102 104 106 107 107 106 105 106 0 0 0 0 0
    0 0 0 0 0 0 0 0 0 0 0 0 0 0 0 0 0 0 0 0 0 0 0 0 0 0 0 0 0 0 0 0 0 0 0 0 0 0 0 0 0 0 0 0 0 0 0 0 0 0 0 0 0 0 0 0 0 0 0 0 0 0 0 0 0 0 0 0 0 97 96 96 94 95 95 90 88 88 89 91 92 100 99 101 104 104 104 105 104 105 101 102 100 101 100 101 102 102 102 104 104 104 104 103 103 103 102 102 103 103 104 103 105 104 103 103 103 102 102 102 101 101 99 101 100 101 101 101 100 100 99 102 101 102 100 100 101 100 100 100 99 98 98 98 98 97 98 99 99 103 105 103 104 103 102 101 99 99 97 95 101 98 99 100 101 101 102 102 102 100 102 102 101 100 99 97 95 94 95 96 98 99 98 100 97 99 98 99 100 100 100 99 98 101 100 103 101 99 99 97 99 98 98 99 95 97 99 97 98 97 98 97 97 97 97 96 100 99 101 100 99 100 102 102 103 97 98 98 100 101 99 99 99 98 101 103 103 104 105 107 108 108 107 109 108 110 110 108 108 110 107 107 107 106 107 109 109 109 109 110 111 110 111 113 110 110 111 112 112 111 115 114 114 117 115 115 115 115 114 112 113 111 109 111 111 109 109 111 111 112 114 113 115 116 115 116 118 118 116 -193 -209 -193 100 102 102 97 99 101 104 105 107 107 106 105 105 0 0 0 0 0
    0 0 0 0 0 0 0 0 0 0 0 0 0 0 0 0 0 0 0 0 0 0 0 0 0 0 0 0 0 0 0 0 0 0 0 0 0 0 0 0 0 0 0 0 0 0 0 0 0 0 0 0 0 0 0 0 0 0 0 0 0 0 0 0 0 0 0 0 0 101 98 99 97 98 100 93 90 88 91 98 99 104 103 104 105 105 105 105 105 105 103 104 102 103 103 103 104 103 103 105 105 105 104 104 104 103 104 103 104 104 105 104 105 105 105 105 104 105 104 104 104 103 102 103 102 103 103 102 102 102 101 103 102 103 101 102 102 101 101 101 100 100 99 100 99 99 100 100 101 105 106 105 105 105 104 104 102 101 100 98 102 100 100 101 102 102 103 103 103 102 104 104 103 102 101 100 98 96 98 98 99 101 100 101 99 100 99 100 101 101 101 101 101 103 102 103 102 101 100 99 100 100 100 100 97 99 100 99 99 98 99 98 98 99 99 99 102 102 103 103 102 103 105 105 105 100 100 100 101 102 100 99 100 99 102 104 104 105 106 108 108 108 108 110 109 110 111 110 111 113 109 109 108 108 108 110 109 110 109 111 111 111 111 114 109 111 112 113 113 112 116 115 116 118 116 116 116 115 114 113 113 111 109 111 111 109 110 111 111 112 114 114 116 116 116 116 118 120 119 -193 -209 -193 97 101 100 95 98 102 105 106 108 110 108 106 107 0 0 0 0 0
    0 0 0 0 0 0 0 0 0 0 0 0 0 0 0 0 0 0 0 0 0 0 0 0 0 0 0 0 0 0 0 0 0 0 0 0 0 0 0 0 0 0 0 0 0 0 0 0 0 0 0 0 0 0 0 0 0 0 0 0 0 0 0 0 0 0 0 0 0 104 101 101 101 101 102 99 92 88 93 103 103 106 104 105 105 106 106 106 106 106 105 105 104 105 105 105 106 105 105 106 106 106 105 104 104 104 104 104 104 105 105 105 105 105 106 105 106 106 106 106 106 106 105 105 105 104 104 103 103 103 102 103 102 103 102 103 102 101 102 102 102 101 101 101 100 101 101 101 103 104 105 105 104 105 105 105 104 102 102 101 103 101 102 102 103 103 104 104 104 104 106 105 105 104 103 102 101 100 101 101 101 103 103 103 101 102 101 102 102 103 103 103 103 104 103 104 103 102 101 100 101 101 101 101 98 101 100 100 100 99 99 99 100 100 100 -193 103 104 104 104 104 105 106 106 106 102 101 101 103 103 100 100 101 101 103 104 105 106 106 108 108 109 109 111 110 110 112 113 114 116 113 111 110 110 110 113 111 111 111 112 112 112 113 115 110 113 114 114 115 114 117 116 117 118 116 116 117 115 115 114 114 112 110 112 111 110 111 112 112 112 114 114 116 116 116 116 118 120 120 -193 -209 -209 94 100 94 90 97 104 108 107 111 114 -193 108 109 0 0 0 0 0
    0 0 0 0 0 0 0 0 0 0 0 0 0 0 0 0 0 0 0 0 0 0 0 0 0 0 0 0 0 0 0 0 0 0 0 0 0 0 0 0 0 0 0 0 0 0 0 0 0 0 0 0 0 0 0 0 0 0 0 0 0 0 0 0 0 0 0 0 0 107 -193 105 105 105 105 106 105 -193 100 106 105 109 106 107 106 107 107 107 107 107 106 106 106 107 107 107 109 107 107 108 108 108 106 106 105 104 104 104 104 105 105 105 105 105 106 106 107 107 107 108 108 108 108 107 107 106 105 105 105 104 103 103 102 103 102 103 103 102 103 103 103 103 102 103 101 102 103 102 104 104 104 104 104 103 105 104 104 103 102 102 104 102 103 103 104 105 105 106 106 106 107 107 107 106 105 105 105 103 104 104 104 106 106 105 104 104 104 104 104 105 104 104 104 105 104 104 104 104 103 102 103 104 103 103 101 103 101 101 101 101 101 100 102 102 102 -193 105 105 105 105 105 106 107 107 106 104 103 103 104 104 101 101 102 103 104 105 107 107 107 108 109 109 109 111 110 110 113 115 116 117 115 114 113 113 113 115 112 113 112 114 114 113 114 116 112 115 116 116 117 116 117 117 117 119 117 117 117 116 116 115 115 112 110 112 112 111 111 112 112 112 114 114 116 117 116 117 118 120 120 117 -209 -209 94 103 93 92 99 -193 111 108 112 114 -193 111 111 0 0 0 0 0
    0 0 0 0 0 0 0 0 0 0 0 0 0 0 0 0 0 0 0 0 0 0 0 0 0 0 0 0 0 0 0 0 0 0 0 0 0 0 0 0 0 0 0 0 0 0 0 0 0 0 0 0 0 0 0 0 0 0 0 0 0 0 0 0 0 0 0 0 0 -193 -193 -193 109 108 -209 -193 108 108 107 110 109 112 109 108 108 108 108 108 108 108 107 107 107 108 109 109 112 109 109 109 109 109 107 107 106 104 105 105 104 105 105 105 105 105 107 107 108 108 108 109 109 109 109 109 108 107 106 106 105 104 103 103 102 103 102 104 103 102 104 104 104 104 104 104 103 104 105 103 104 104 103 103 102 102 103 103 103 102 103 104 105 104 106 104 107 106 107 107 107 107 108 108 108 107 107 106 107 106 106 106 106 108 108 108 108 107 108 106 106 107 105 105 105 106 105 105 105 106 105 105 106 107 106 106 105 106 104 104 104 104 104 103 104 105 104 106 106 107 107 106 106 107 108 108 107 106 105 105 106 105 103 102 103 104 105 106 108 107 108 109 109 109 110 111 110 109 114 116 117 118 116 114 115 115 115 116 113 113 113 115 115 115 116 117 114 117 117 117 118 116 117 117 118 119 117 117 117 116 116 115 115 112 111 113 113 111 112 113 112 113 115 115 116 116 116 117 117 119 116 110 114 -209 99 104 102 104 -193 107 116 111 115 117 119 118 115 0 0 0 0 0
    0 0 0 0 0 0 0 0 0 0 0 0 0 0 0 0 0 0 0 0 0 0 0 0 0 0 0 0 0 0 0 0 0 0 0 0 0 0 0 0 0 0 0 0 0 0 0 0 0 0 0 0 0 0 0 0 0 0 0 0 0 0 0 0 0 0 0 0 0 110 -193 111 111 109 -209 108 109 109 110 113 111 114 110 109 108 109 108 108 108 108 107 108 108 109 109 110 113 109 109 110 109 109 108 107 107 104 105 105 105 106 106 106 106 106 108 107 109 109 108 110 109 109 110 109 108 106 106 106 105 104 103 102 101 103 102 104 103 103 105 105 105 105 105 105 104 105 106 103 104 103 102 102 101 100 101 101 102 101 103 104 105 105 108 106 109 107 108 108 108 108 109 108 109 107 108 107 107 108 108 108 108 109 110 109 109 109 110 108 110 109 106 106 106 107 106 106 106 106 106 107 107 110 108 108 107 108 106 107 107 106 106 106 107 107 106 107 107 107 107 107 107 108 108 108 107 107 107 106 107 106 104 104 105 106 106 107 111 108 109 109 109 110 111 112 111 109 115 116 117 117 117 114 117 116 117 117 114 114 115 116 116 115 117 117 115 118 118 118 119 117 118 118 119 118 117 117 118 116 116 116 116 112 113 114 114 112 113 113 113 114 117 116 116 115 116 116 116 117 111 108 108 99 98 102 102 104 -193 108 119 115 117 120 -193 120 117 0 0 0 0 0
    0 0 0 0 0 0 0 0 0 0 0 0 0 0 0 0 0 0 0 0 0 0 0 0 0 0 0 0 0 0 0 0 0 0 0 0 0 0 0 0 0 0 0 0 0 0 0 0 0 0 0 0 0 0 0 0 0 0 0 0 0 0 0 0 0 0 0 0 0 -193 -193 109 109 109 -193 108 109 109 110 114 112 114 110 109 108 109 108 108 108 108 107 108 108 110 110 110 113 109 109 109 109 109 108 107 107 104 106 105 106 106 106 106 106 106 109 108 109 109 109 110 109 109 110 109 108 107 106 106 105 104 103 102 102 103 103 104 103 103 105 105 105 105 105 105 105 106 107 103 104 103 102 102 101 100 101 101 102 100 102 103 105 105 110 107 110 108 108 108 108 108 109 108 109 107 108 108 108 109 109 108 109 109 110 109 109 109 110 108 112 109 107 107 107 107 107 107 107 106 106 107 108 110 108 108 107 108 107 109 108 107 107 108 108 108 107 108 107 107 107 107 108 108 108 108 108 108 108 107 108 107 106 106 107 108 107 108 113 109 110 110 109 110 111 113 112 109 116 116 117 117 117 114 118 118 119 118 115 115 116 116 117 116 117 117 116 118 118 118 119 118 118 118 119 119 118 117 118 117 117 117 116 112 114 115 115 113 113 113 114 115 117 116 115 113 114 114 115 115 109 107 106 101 98 101 102 105 108 112 120 117 119 121 121 121 119 0 0 0 0 0
    0 0 0 0 0 0 0 0 0 0 0 0 0 0 0 0 0 0 0 0 0 0 0 0 0 0 0 0 0 0 0 0 0 0 0 0 0 0 0 0 0 0 0 0 0 0 0 0 0 0 0 0 0 0 0 0 0 0 0 0 0 0 0 0 0 0 0 0 0 -193 -209 -193 108 108 108 108 109 109 111 114 113 114 110 109 108 109 108 108 108 108 108 108 108 109 110 110 113 109 109 108 108 108 108 107 106 103 105 105 105 106 106 106 106 106 109 108 110 109 109 111 109 109 110 109 108 -193 106 105 105 104 103 103 102 103 103 104 103 103 105 105 105 106 105 106 105 106 108 105 105 103 102 102 101 100 100 100 101 99 102 103 104 104 110 107 110 107 108 108 107 108 108 107 109 107 108 108 108 109 109 108 109 109 111 109 110 109 110 108 113 109 107 107 107 107 107 107 107 106 106 107 108 109 107 108 106 107 107 109 108 107 108 108 108 108 107 108 107 107 107 107 107 108 108 108 108 108 109 108 108 107 106 108 108 110 109 108 114 110 110 111 110 111 112 113 113 109 116 116 117 117 117 114 119 119 120 120 118 118 119 119 120 118 119 119 118 119 119 119 120 119 118 119 119 118 118 117 118 116 117 117 116 112 116 116 117 115 115 115 116 117 118 118 116 114 115 115 116 114 108 106 106 105 98 99 101 105 114 117 121 119 120 122 -193 122 121 0 0 0 0 0
    0 0 0 0 0 0 0 0 0 0 0 0 0 0 0 0 0 0 0 0 0 0 0 0 0 0 0 0 0 0 0 0 0 0 0 0 0 0 0 0 0 0 0 0 0 0 0 0 0 0 0 0 0 0 0 0 0 0 0 0 0 0 0 0 0 0 0 0 0 -209 -209 105 107 109 110 108 109 109 112 115 114 114 110 109 108 109 108 108 108 108 108 109 109 110 110 110 113 109 108 107 107 107 107 107 -193 103 105 105 106 107 106 106 107 107 109 108 110 110 110 -193 -193 -193 -193 109 -209 -209 -209 -209 -193 105 104 104 102 104 103 104 103 104 105 105 105 106 106 107 106 107 109 106 105 103 102 102 101 100 100 99 101 99 103 104 105 104 110 107 109 107 108 107 107 108 109 107 108 107 108 108 108 109 109 108 108 109 111 109 110 110 111 108 115 109 107 107 107 108 108 108 108 107 107 108 109 109 107 107 106 107 107 109 108 108 108 110 109 109 107 108 107 107 107 107 107 108 108 108 107 108 108 107 108 107 106 107 108 110 109 108 116 111 111 112 111 112 114 114 114 109 117 117 117 117 117 115 121 121 121 122 121 122 122 122 123 120 122 122 119 119 119 119 120 119 118 119 119 118 118 117 118 117 118 118 118 115 118 118 119 118 119 118 118 118 119 119 117 117 117 116 118 118 115 113 112 117 115 108 -193 -193 123 122 123 123 122 -193 -193 125 123 0 0 0 0 0
    0 0 0 0 0 0 0 0 0 0 0 0 0 0 0 0 0 0 0 0 0 0 0 0 0 0 0 0 0 0 0 0 0 0 0 0 0 0 0 0 0 0 0 0 0 0 0 0 0 0 0 0 0 0 0 0 0 0 0 0 0 0 0 0 0 0 0 0 0 -209 -209 -209 106 109 -193 108 109 110 113 -193 -209 115 -209 109 109 109 109 108 109 108 109 110 110 112 111 112 116 109 109 107 106 107 107 107 -193 103 105 105 107 107 107 106 107 107 110 -193 -193 -209 -193 -209 -209 -209 -209 -209 -209 -209 -209 -209 -209 -193 106 -209 103 104 103 105 103 104 106 105 106 106 106 107 106 107 109 106 106 103 102 102 101 100 101 99 100 99 -193 105 105 104 109 106 109 107 108 -193 107 108 109 108 109 107 109 108 108 109 109 108 108 109 112 110 111 110 111 109 116 110 108 107 108 109 109 109 109 108 108 109 109 110 106 107 106 106 106 109 108 108 109 111 109 109 108 108 107 107 107 106 106 107 107 107 107 107 108 107 108 107 105 107 108 110 109 109 116 111 111 112 112 113 115 114 114 110 117 117 117 117 117 116 121 122 122 123 123 124 124 124 125 123 124 124 120 119 119 119 119 119 118 119 119 120 120 119 120 119 120 120 120 118 120 120 121 120 121 120 119 120 119 120 118 118 119 118 119 120 119 120 119 121 122 122 124 126 126 125 125 128 126 130 128 128 125 0 0 0 0 0
    0 0 0 0 0 0 0 0 0 0 0 0 0 0 0 0 0 0 0 0 0 0 0 0 0 0 0 0 0 0 0 0 0 0 0 0 0 0 0 0 0 0 0 0 0 0 0 0 0 0 0 0 0 0 0 0 0 0 0 0 0 0 0 0 0 0 0 0 0 -209 -209 -209 -193 114 -193 114 115 113 116 118 -193 116 -209 110 110 110 110 110 110 110 111 112 -193 114 114 113 117 111 111 108 107 108 110 110 -193 104 106 106 108 109 109 107 108 107 -193 -209 -209 -209 -209 -209 -209 -209 -209 -209 -209 -209 -209 -209 -209 -209 -209 -209 -209 -209 103 105 -193 104 106 106 106 106 107 107 106 107 109 106 106 102 102 102 101 100 -193 -193 -193 -193 -193 -193 -209 104 110 107 110 108 -193 -193 108 109 111 108 109 107 -193 108 108 109 109 108 108 109 112 110 111 111 112 110 119 112 109 108 109 110 110 111 -193 -193 -193 114 117 116 109 109 107 107 107 109 109 109 110 112 110 110 108 109 107 107 107 107 107 107 107 108 107 108 109 108 109 107 106 108 109 111 110 111 116 111 111 112 112 114 115 114 114 110 117 117 117 117 116 116 122 122 123 124 124 124 125 125 126 124 125 124 121 120 120 119 120 120 119 120 120 121 121 120 121 121 121 121 120 120 121 121 122 121 121 121 120 120 120 120 118 119 120 118 119 121 121 122 121 123 123 125 126 128 127 126 125 128 128 131 130 130 128 0 0 0 0 0
    0 0 0 0 0 0 0 0 0 0 0 0 0 0 0 0 0 0 0 0 0 0 0 0 0 0 0 0 0 0 0 0 0 0 0 0 0 0 0 0 0 0 0 0 0 0 0 0 0 0 0 0 0 0 0 0 0 0 0 0 0 0 0 0 0 0 0 0 0 -209 -209 -209 -193 120 122 120 121 119 120 121 121 120 -209 114 114 114 115 -193 114 114 114 116 -193 -209 117 117 119 115 114 -193 108 109 -193 -193 -193 -193 109 109 112 114 114 112 111 110 115 -209 -209 -209 -209 -209 -209 -209 -209 -209 -209 -209 -209 -209 -209 -209 -193 -209 -209 -209 -193 -209 -209 105 108 107 107 107 108 108 107 108 112 108 107 103 -193 -209 -193 -209 -209 -193 -193 -193 -193 -193 -209 104 113 110 114 -193 -193 -193 111 111 114 110 112 108 -193 108 109 109 109 108 108 109 112 110 112 113 112 112 120 115 111 110 113 114 115 115 -193 -193 -193 119 121 121 116 113 109 110 109 111 110 110 112 114 112 112 110 110 108 108 108 107 108 108 108 109 108 110 112 112 113 110 109 111 112 114 112 113 116 112 112 112 113 115 115 114 113 110 117 116 117 117 116 117 123 123 123 124 124 125 125 126 125 123 125 125 121 120 121 120 120 120 121 121 122 123 124 123 124 125 124 123 122 121 122 122 122 122 123 122 122 122 121 120 120 120 120 119 120 121 121 122 121 122 123 124 125 126 125 124 124 127 128 132 131 131 130 0 0 0 0 0
    0 0 0 0 0 0 0 0 0 0 0 0 0 0 0 0 0 0 0 0 0 0 0 0 0 0 0 0 0 0 0 0 0 0 0 0 0 0 0 0 0 0 0 0 0 0 0 0 0 0 0 0 0 0 0 0 0 0 0 0 0 0 0 0 0 0 0 0 0 -209 -209 -209 -209 122 123 123 123 121 122 122 123 123 -209 118 119 -193 -209 -193 -193 -193 -193 -193 -209 -209 -209 -193 -193 -193 116 -193 -193 -193 -193 -193 -209 -193 116 116 118 118 -193 -193 116 114 -193 -209 -209 -209 939 943 -209 -209 -209 -193 -209 -209 -177 -209 -209 -209 -209 -209 -209 -209 -193 -193 -193 110 114 112 110 111 111 111 109 111 117 112 113 106 -209 -209 667 -209 -209 -209 -209 -209 108 -193 -209 107 117 -193 -193 -193 -193 -193 -193 115 117 115 117 111 113 110 110 111 110 108 108 109 111 110 111 113 112 115 -193 116 114 112 116 116 117 117 -193 -193 -209 121 122 122 121 117 113 113 112 114 113 112 115 116 115 115 112 112 109 110 110 108 109 109 109 110 109 114 116 116 117 115 115 116 118 118 117 117 117 113 113 113 114 116 116 115 114 111 117 117 117 117 117 119 123 123 123 124 124 125 125 125 125 123 125 125 122 121 121 121 120 121 122 123 123 125 125 125 125 127 126 124 123 122 122 122 123 122 123 123 123 122 121 120 120 120 120 119 120 121 121 123 122 123 123 124 125 125 124 124 124 126 128 131 132 132 131 0 0 0 0 0
    0 0 0 0 0 0 0 0 0 0 0 0 0 0 0 0 0 0 0 0 0 0 0 0 0 0 0 0 0 0 0 0 0 0 0 0 0 0 0 0 0 0 0 0 0 0 0 0 0 0 0 0 0 0 0 0 0 0 0 0 0 0 0 0 0 0 0 0 0 119 -193 123 121 123 124 124 124 123 123 123 124 124 -193 -193 -193 -193 -193 -193 -209 -209 -209 122 -193 -209 -209 -209 -193 -209 -193 -193 -193 -193 -193 -193 -193 -193 -193 -193 -193 -193 -193 -193 -209 -193 -209 -209 -209 -193 939 945 -209 -209 -209 -193 -209 -209 -209 -193 614 -193 -209 -209 -209 -209 129 123 123 -193 -193 -193 117 117 117 116 115 117 121 119 121 -209 -209 -209 -193 -193 -209 -209 -209 -209 115 119 119 -209 119 -209 -209 -209 -209 -209 -193 -209 120 120 120 116 117 114 113 113 112 109 109 110 113 110 113 115 114 117 122 119 116 115 118 119 120 119 120 -193 121 122 124 123 123 121 120 119 119 118 117 115 118 118 118 118 115 115 112 113 114 110 111 111 112 114 114 118 120 121 121 121 121 121 121 121 122 121 119 116 115 116 116 118 118 116 116 114 120 119 119 119 119 121 124 124 124 124 125 125 125 125 124 123 125 125 123 122 122 122 121 122 124 125 125 127 127 127 128 129 128 126 125 123 123 122 123 122 123 122 122 121 120 120 121 120 121 120 121 122 123 124 123 124 124 124 125 124 123 123 123 124 126 129 130 131 132 0 0 0 0 0
    0 0 0 0 0 0 0 0 0 0 0 0 0 0 0 0 0 0 0 0 0 0 0 0 0 0 0 0 0 0 0 0 0 0 0 0 0 0 0 0 0 0 0 0 0 0 0 0 0 0 0 0 0 0 0 0 0 0 0 0 0 0 0 0 0 0 0 0 0 120 126 124 122 123 124 124 124 123 124 123 125 125 -193 122 123 123 -193 -193 -193 -193 -193 122 124 -209 -209 -209 -209 -209 -193 -209 -193 -193 -193 -209 -193 -193 -193 -193 -193 -193 -193 -193 -209 -209 -193 -193 -193 -193 940 947 -209 -209 -209 -177 -209 -209 -209 -209 -209 -209 -209 131 133 -193 130 125 126 -193 -193 -193 -193 120 121 121 120 121 122 122 122 123 -209 -209 -209 -209 -209 -209 -209 -209 118 120 120 -209 120 -209 -209 -209 123 123 124 122 122 122 123 -209 120 118 117 116 115 112 111 113 116 114 116 118 118 -193 123 121 118 118 120 120 121 121 121 121 122 123 124 124 124 123 123 122 122 121 121 118 121 120 120 120 119 119 117 118 119 115 117 118 119 121 121 122 123 123 123 123 123 122 123 123 123 122 121 118 117 118 118 119 119 118 117 117 121 121 121 121 121 122 125 124 124 124 125 125 125 125 125 124 126 127 125 125 124 124 122 123 126 127 128 130 129 129 130 130 130 128 127 125 124 123 124 122 124 123 123 122 121 121 122 122 124 122 123 124 125 126 124 124 125 124 125 124 123 123 123 124 125 126 126 129 130 0 0 0 0 0
    0 0 0 0 0 0 0 0 0 0 0 0 0 0 0 0 0 0 0 0 0 0 0 0 0 0 0 0 0 0 0 0 0 0 0 0 0 0 0 0 0 0 0 0 0 0 0 0 0 0 0 0 0 0 0 0 0 0 0 0 0 0 0 0 0 0 0 0 0 121 126 124 123 124 124 125 124 123 124 124 125 125 -193 124 124 125 125 -193 -193 -193 124 123 125 -193 -193 -193 -193 -193 -193 -209 -209 -209 -209 -193 -193 -193 -193 -193 124 -193 -193 -193 125 -193 -193 -193 900 -209 939 946 -193 -209 -209 -209 -209 556 -193 -209 -209 -209 -209 132 133 -193 131 126 129 -193 126 126 124 123 123 123 123 123 123 123 124 124 123 -193 -193 123 123 123 -193 -209 120 121 121 121 122 -193 123 124 124 124 125 124 124 124 124 123 122 121 121 119 118 115 115 117 119 118 119 120 120 123 125 123 119 120 121 121 121 121 122 121 123 124 124 124 124 124 124 123 124 123 123 120 123 122 122 122 121 122 121 122 122 121 122 123 123 126 124 125 125 125 125 124 124 124 124 124 124 123 122 119 119 119 120 120 120 119 119 120 123 123 123 123 124 124 125 124 125 125 125 125 125 124 125 124 126 127 126 126 125 124 122 124 127 130 129 130 129 130 130 131 130 128 128 127 126 125 126 124 125 125 124 123 123 122 124 125 126 125 126 127 128 128 127 127 127 126 127 125 124 125 124 125 125 -193 124 126 129 0 0 0 0 0
    0 0 0 0 0 0 0 0 0 0 0 0 0 0 0 0 0 0 0 0 0 0 0 0 0 0 0 0 0 0 0 0 0 0 0 0 0 0 0 0 0 0 0 0 0 0 0 0 0 0 0 0 0 0 0 0 0 0 0 0 0 0 0 0 0 0 0 0 0 120 126 124 123 124 124 124 124 123 124 124 125 127 127 125 126 126 126 -193 125 125 124 124 126 124 124 123 123 123 122 122 122 -193 124 -193 125 124 125 124 125 125 126 125 127 -193 -193 -193 900 -209 -193 946 -209 -209 -209 -209 -209 -209 -193 -209 -209 -193 123 -193 132 -193 131 127 129 128 129 129 127 125 125 125 126 124 125 124 125 125 125 126 124 125 125 125 124 123 122 122 122 123 124 125 124 127 126 126 128 125 125 125 125 125 124 124 123 122 121 119 119 120 121 121 121 122 123 125 127 125 122 123 123 122 122 122 123 122 123 124 124 123 125 124 124 123 125 124 124 121 125 123 124 124 123 123 123 124 125 123 125 125 126 129 126 127 127 126 126 126 125 125 125 125 125 123 123 121 120 120 121 121 121 121 121 122 125 125 125 124 126 125 125 125 125 125 125 125 125 124 124 126 129 131 132 133 131 131 128 129 131 132 131 131 130 131 131 131 130 129 127 127 126 126 126 126 126 127 125 126 125 124 126 127 127 126 127 127 128 129 128 129 128 127 128 126 126 126 127 127 126 -193 126 127 133 0 0 0 0 0
    0 0 0 0 0 0 0 0 0 0 0 0 0 0 0 0 0 0 0 0 0 0 0 0 0 0 0 0 0 0 0 0 0 0 0 0 0 0 0 0 0 0 0 0 0 0 0 0 0 0 0 0 0 0 0 0 0 0 0 0 0 0 0 0 0 0 0 0 0 120 126 125 124 124 124 124 124 124 125 -193 126 127 128 126 126 126 126 126 125 125 124 123 125 123 124 124 124 123 123 123 123 122 124 123 125 124 125 124 125 125 126 125 127 -193 -193 -209 -193 -193 -209 -193 -209 -209 -209 120 120 121 122 120 120 119 121 130 132 132 130 126 128 129 129 129 128 127 126 126 128 126 126 125 126 126 126 127 126 126 127 127 126 124 124 124 123 124 124 125 125 127 126 126 128 126 126 125 125 125 124 125 124 122 122 121 121 122 122 122 122 124 124 126 127 126 124 126 125 124 123 123 124 123 124 124 124 123 125 125 126 124 125 124 126 123 127 124 126 125 124 125 125 125 126 124 127 126 127 130 127 128 128 127 127 126 126 125 125 126 125 124 123 121 121 121 122 122 122 122 123 124 126 126 126 125 127 126 125 125 125 125 125 124 125 123 124 131 132 133 135 135 134 134 132 133 133 133 133 132 131 131 131 132 131 129 127 126 126 125 126 126 127 128 128 130 129 127 131 130 129 129 128 127 128 130 130 132 130 129 128 126 127 128 129 128 126 127 130 130 134 0 0 0 0 0
    0 0 0 0 0 0 0 0 0 0 0 0 0 0 0 0 0 0 0 0 0 0 0 0 0 0 0 0 0 0 0 0 0 0 0 0 0 0 0 0 0 0 0 0 0 0 0 0 0 0 0 0 0 0 0 0 0 0 0 0 0 0 0 0 0 0 0 0 0 121 127 125 124 125 124 125 124 124 125 124 126 127 128 126 126 126 126 126 125 125 124 123 125 123 124 124 124 124 123 123 123 123 125 122 125 124 126 125 125 125 125 124 127 124 125 123 125 124 124 -193 124 124 122 122 122 123 123 122 121 120 121 129 131 131 129 126 128 128 128 128 128 126 126 126 128 126 126 126 126 126 127 128 126 126 126 126 126 125 124 124 123 124 124 125 124 127 125 126 127 126 126 125 125 126 124 126 124 123 123 122 122 123 123 123 123 125 125 126 128 127 125 128 126 124 123 123 125 124 124 124 123 123 125 126 126 125 126 125 127 124 129 125 127 126 125 126 126 126 127 125 128 127 128 131 128 128 128 127 127 126 126 125 125 126 126 124 124 123 123 123 124 123 124 124 124 125 127 126 127 126 128 127 125 125 125 125 125 124 125 123 124 135 136 137 138 137 136 136 135 134 134 133 133 132 132 132 132 132 131 129 127 126 127 126 127 128 128 130 131 134 133 130 134 132 131 131 130 128 129 131 132 134 133 130 129 127 127 129 130 128 124 124 125 125 132 0 0 0 0 0
    0 0 0 0 0 0 0 0 0 0 0 0 0 0 0 0 0 0 0 0 0 0 0 0 0 0 0 0 0 0 0 0 0 0 0 0 0 0 0 0 0 0 0 0 0 0 0 0 0 0 0 0 0 0 0 0 0 0 0 0 0 0 0 0 0 0 0 0 0 122 127 125 124 125 124 125 124 124 125 124 126 127 128 125 126 126 126 125 125 124 124 123 125 123 124 124 125 125 124 125 125 124 126 123 126 124 126 125 125 125 125 124 127 -193 125 123 124 123 123 123 124 124 123 122 122 123 122 122 121 120 121 126 128 130 128 125 126 127 127 127 127 126 125 126 128 126 127 126 127 126 128 128 126 126 126 126 125 125 124 124 122 124 124 125 125 127 125 125 127 126 126 126 125 126 124 126 125 124 124 123 124 124 124 124 124 125 125 126 128 127 125 129 127 124 123 123 124 123 124 123 123 123 124 126 126 124 125 125 127 124 129 125 127 126 125 126 126 126 127 125 129 128 129 131 128 129 129 127 127 126 126 125 125 126 126 125 126 125 126 125 127 125 126 126 126 126 127 127 128 126 129 128 125 125 125 125 125 124 125 124 125 137 138 138 140 138 138 138 137 136 136 135 134 133 133 133 133 133 132 129 127 127 128 128 130 130 130 132 133 136 135 133 135 133 132 132 132 129 129 131 132 133 133 130 129 127 128 130 131 129 124 123 124 124 130 0 0 0 0 0
    0 0 0 0 0 0 0 0 0 0 0 0 0 0 0 0 0 0 0 0 0 0 0 0 0 0 0 0 0 0 0 0 0 0 0 0 0 0 0 0 0 0 0 0 0 0 0 0 0 0 0 0 0 0 0 0 0 0 0 0 0 0 0 0 0 0 0 0 0 121 126 124 124 125 124 125 124 124 125 124 125 127 127 125 126 126 125 125 124 124 124 123 125 123 124 124 125 125 125 125 125 124 126 123 126 124 126 125 125 125 125 124 126 -193 125 123 124 123 123 124 124 124 124 123 123 123 122 122 121 120 121 125 126 128 126 124 125 126 127 126 126 125 125 126 129 127 127 126 127 126 128 128 126 126 126 126 125 126 125 124 123 124 124 126 125 128 125 125 127 126 126 126 126 126 124 126 125 124 124 123 124 124 124 124 125 125 125 125 127 126 125 129 126 123 122 122 124 122 123 123 122 122 124 125 125 124 124 124 126 124 128 125 126 126 125 126 126 126 127 125 129 128 129 132 128 129 128 127 127 126 126 125 125 126 126 125 126 126 126 126 128 126 128 127 128 127 128 127 128 127 129 128 125 125 125 125 125 124 125 124 126 137 139 138 140 139 138 138 138 137 137 136 135 134 135 134 134 134 133 130 128 129 130 130 132 132 132 134 135 137 137 135 137 133 132 133 133 130 130 131 132 134 134 131 131 129 130 131 132 130 125 124 123 124 129 0 0 0 0 0
    0 0 0 0 0 0 0 0 0 0 0 0 0 0 0 0 0 0 0 0 0 0 0 0 0 0 0 0 0 0 0 0 0 0 0 0 0 0 0 0 0 0 0 0 0 0 0 0 0 0 0 0 0 0 0 0 0 0 0 0 0 0 0 0 0 0 0 0 0 121 126 124 124 125 124 124 124 124 125 124 125 127 126 124 125 125 125 125 124 124 123 122 125 123 124 124 125 125 124 125 124 124 125 122 125 123 125 124 -193 125 125 124 126 -193 125 123 124 124 124 125 125 124 125 123 124 122 121 121 117 114 118 -193 123 126 124 123 125 125 126 126 126 125 125 126 129 126 127 126 126 126 128 128 126 126 126 126 126 126 125 124 123 124 124 126 125 128 125 125 127 126 126 126 126 126 124 126 125 124 124 123 125 124 124 125 125 125 125 125 127 126 125 129 126 121 121 121 124 122 122 122 121 122 124 125 125 123 124 124 126 124 128 125 126 126 125 126 126 126 127 125 129 129 130 132 129 130 128 127 126 126 125 125 124 125 125 124 126 126 126 126 127 126 127 127 128 127 128 127 128 127 129 128 125 125 125 125 125 124 125 125 126 137 138 138 140 138 138 138 138 137 137 137 136 135 136 136 136 135 134 131 129 131 132 132 134 134 134 135 136 138 137 136 137 133 132 134 133 129 129 131 132 134 134 133 132 131 132 133 133 132 127 125 124 128 132 0 0 0 0 0
    0 0 0 0 0 0 0 0 0 0 0 0 0 0 0 0 0 0 0 0 0 0 0 0 0 0 0 0 0 0 0 0 0 0 0 0 0 0 0 0 0 0 0 0 0 0 0 0 0 0 0 0 0 0 0 0 0 0 0 0 0 0 0 0 0 0 0 0 0 122 126 124 124 125 124 124 124 124 125 124 126 127 126 124 125 125 125 125 124 123 123 122 125 122 124 123 125 125 124 125 124 123 125 122 124 123 -193 -193 -193 124 124 123 126 123 126 124 125 126 125 126 126 125 126 124 125 121 120 117 114 111 115 -209 -193 124 124 123 125 125 126 126 125 125 125 126 129 126 127 125 126 126 128 127 125 126 125 126 125 126 125 124 123 124 124 126 124 128 124 125 126 126 126 126 126 126 124 126 125 124 124 123 125 125 125 125 126 125 125 125 128 126 126 129 125 121 121 121 123 122 122 122 121 121 124 125 125 123 124 123 126 124 129 125 127 126 126 126 127 127 128 126 130 129 130 132 129 130 129 127 126 126 125 125 124 125 124 124 125 125 125 125 126 125 126 127 128 127 128 128 129 127 129 130 125 125 125 125 125 124 125 126 126 137 138 137 139 137 137 137 138 137 137 137 137 136 138 138 138 137 137 133 131 133 134 134 135 135 135 136 137 139 138 137 138 134 133 134 134 129 129 131 133 134 135 134 133 133 134 135 135 134 130 129 129 133 134 0 0 0 0 0
    0 0 0 0 0 0 0 0 0 0 0 0 0 0 0 0 0 0 0 0 0 0 0 0 0 0 0 0 0 0 0 0 0 0 0 0 0 0 0 0 0 0 0 0 0 0 0 0 0 0 0 0 0 0 0 0 0 0 0 0 0 0 0 0 0 0 0 0 0 122 126 124 124 125 124 124 124 124 125 124 126 128 127 124 125 125 125 125 124 123 123 122 125 122 -193 123 125 125 125 125 124 123 125 122 124 123 124 124 124 124 125 123 127 -193 126 124 125 126 125 126 126 126 127 125 125 121 119 117 113 113 116 -209 -193 123 124 -193 125 125 126 126 125 125 125 126 129 126 127 125 126 126 129 128 125 126 125 126 126 126 126 124 123 124 124 126 124 128 124 124 126 126 126 126 126 126 124 127 126 125 125 124 126 126 126 126 126 125 126 125 127 126 126 129 126 121 121 121 124 122 122 122 121 122 124 125 125 123 123 123 125 124 129 125 127 126 126 127 127 127 128 126 130 129 130 131 130 130 129 128 126 126 125 125 125 125 125 124 125 125 124 125 125 124 126 127 127 128 127 128 129 128 129 131 125 125 125 125 125 125 126 128 127 137 137 137 139 137 138 138 138 138 138 138 138 137 138 138 139 138 139 134 131 133 135 134 136 136 136 137 137 139 138 137 138 132 132 133 133 128 129 -193 132 134 135 135 135 134 135 136 136 136 132 132 132 134 135 0 0 0 0 0
    0 0 0 0 0 0 0 0 0 0 0 0 0 0 0 0 0 0 0 0 0 0 0 0 0 0 0 0 0 0 0 0 0 0 0 0 0 0 0 0 0 0 0 0 0 0 0 0 0 0 0 0 0 0 0 0 0 0 0 0 0 0 0 0 0 0 0 0 0 122 125 123 124 124 124 124 124 124 124 124 126 128 126 124 125 125 125 125 124 123 123 123 126 122 -193 123 125 124 124 124 122 123 125 122 124 123 124 124 124 125 125 123 127 -193 126 125 124 126 124 125 126 126 127 -193 125 -193 120 119 117 118 119 -193 122 123 125 123 125 125 126 126 125 125 125 125 130 127 128 -193 126 127 131 129 126 127 126 126 126 127 127 125 124 125 124 126 124 128 124 125 126 126 127 127 127 127 125 129 128 126 127 126 128 127 126 126 126 125 126 126 128 127 127 129 127 122 122 122 125 123 122 122 122 122 123 124 124 122 123 122 125 123 127 125 126 126 126 126 127 127 128 126 130 129 130 131 130 130 129 128 127 127 126 126 125 125 126 124 126 126 125 126 126 125 126 127 127 126 125 126 127 127 128 132 125 126 126 126 126 127 128 130 128 137 139 139 141 139 139 139 139 139 140 139 140 137 139 139 139 138 141 137 136 135 137 136 138 137 137 137 138 139 139 138 139 133 135 136 134 126 127 128 130 134 135 135 134 134 135 136 137 136 134 134 135 135 136 0 0 0 0 0
    0 0 0 0 0 0 0 0 0 0 0 0 0 0 0 0 0 0 0 0 0 0 0 0 0 0 0 0 0 0 0 0 0 0 0 0 0 0 0 0 0 0 0 0 0 0 0 0 0 0 0 0 0 0 0 0 0 0 0 0 0 0 0 0 0 0 0 0 0 124 126 124 125 125 124 124 123 123 124 123 125 126 124 123 125 125 125 125 124 124 123 123 127 122 -193 123 126 124 124 -193 121 122 125 121 123 122 123 124 124 125 124 123 127 -193 125 125 124 126 125 125 126 126 129 -193 -209 -193 -193 -209 -209 -209 120 -193 122 123 125 123 125 125 126 126 125 125 125 125 130 127 -193 -193 126 129 134 131 127 127 125 126 126 127 126 124 124 124 124 126 124 128 124 125 126 127 127 127 127 128 125 131 130 128 130 129 130 128 128 127 127 126 127 126 128 127 127 130 128 123 122 122 125 123 122 122 122 122 123 124 124 122 122 122 124 123 126 125 126 125 126 126 127 127 127 127 129 129 130 131 130 129 129 128 127 127 126 126 126 126 126 125 126 126 125 127 126 126 126 126 126 126 125 126 126 128 129 134 127 127 127 128 128 129 130 132 129 137 138 139 140 139 139 139 140 139 140 140 140 139 141 141 142 142 146 147 146 143 144 141 145 140 139 139 140 141 140 139 141 137 140 140 140 -209 131 131 133 135 137 136 134 134 136 136 136 135 133 133 133 136 136 0 0 0 0 0
    0 0 0 0 0 0 0 0 0 0 0 0 0 0 0 0 0 0 0 0 0 0 0 0 0 0 0 0 0 0 0 0 0 0 0 0 0 0 0 0 0 0 0 0 0 0 0 0 0 0 0 0 0 0 0 0 0 0 0 0 0 0 0 0 0 0 0 0 0 126 128 124 125 125 124 124 123 123 123 123 125 125 123 123 124 124 125 125 124 124 124 124 128 122 -193 122 126 124 123 -193 121 121 124 121 122 122 122 123 123 124 124 122 126 -193 125 126 124 126 125 125 126 127 -193 -193 -209 -193 -193 -209 -209 -209 -209 -209 122 122 -193 123 125 125 126 126 125 125 125 125 130 128 -193 -193 126 131 135 131 127 126 124 125 125 126 126 124 123 124 124 126 124 129 125 125 126 127 127 128 128 128 125 131 130 128 129 129 130 128 128 127 128 126 126 126 128 127 129 130 130 121 121 122 126 123 122 121 121 122 123 124 124 121 122 122 124 122 126 124 125 125 125 126 127 127 127 127 129 129 129 130 130 129 129 128 127 128 126 127 126 126 127 125 127 126 125 127 126 126 127 126 127 126 126 126 126 129 130 135 128 128 129 129 130 131 131 132 130 137 137 138 139 137 138 138 139 139 139 139 139 139 141 142 145 144 148 150 150 149 149 149 150 143 142 142 141 141 141 140 141 137 141 140 144 -209 -193 -209 -209 136 139 138 136 136 135 135 135 134 132 132 130 135 136 0 0 0 0 0
    0 0 0 0 0 0 0 0 0 0 0 0 0 0 0 0 0 0 0 0 0 0 0 0 0 0 0 0 0 0 0 0 0 0 0 0 0 0 0 0 0 0 0 0 0 0 0 0 0 0 0 0 0 0 0 0 0 0 0 0 0 0 0 0 0 0 0 0 0 128 128 123 125 124 124 124 123 123 123 123 125 124 123 122 124 124 125 125 124 124 123 124 128 122 123 121 125 122 122 120 120 121 125 121 122 122 122 123 123 124 124 121 126 -209 125 126 125 127 126 126 127 127 131 -193 -193 -209 117 -209 -193 -209 -209 -209 122 -193 -193 123 125 125 126 125 125 125 125 125 131 -193 -209 -209 -193 130 134 129 126 125 123 124 125 126 126 124 124 125 125 128 126 130 125 126 126 127 128 128 128 128 125 131 130 128 129 128 130 127 128 127 127 125 126 125 127 126 128 128 128 122 122 123 128 123 122 121 122 122 123 124 123 121 122 121 123 122 125 124 125 125 125 126 127 127 127 127 129 129 129 130 130 129 130 129 127 128 126 127 127 126 127 125 126 125 124 126 125 125 126 126 127 125 126 126 126 129 131 135 128 128 129 129 131 131 131 132 129 135 136 136 137 136 137 138 139 138 139 139 138 140 141 142 144 143 146 149 150 150 148 150 150 145 144 143 142 142 142 141 142 138 142 142 148 147 -209 -193 -209 138 139 140 138 137 136 135 137 135 135 135 133 137 138 0 0 0 0 0
    0 0 0 0 0 0 0 0 0 0 0 0 0 0 0 0 0 0 0 0 0 0 0 0 0 0 0 0 0 0 0 0 0 0 0 0 0 0 0 0 0 0 0 0 0 0 0 0 0 0 0 0 0 0 0 0 0 0 0 0 0 0 0 0 0 0 0 0 0 135 131 123 126 124 124 124 124 123 123 123 126 124 124 123 124 125 125 125 124 123 124 124 129 123 -209 -209 -209 120 119 119 119 120 124 121 122 122 122 123 123 124 124 121 126 123 125 128 127 129 128 126 127 130 -193 -209 -193 -209 -209 -209 -209 -209 -209 -209 -209 -209 -193 -193 126 126 -193 -193 -209 -193 -193 125 131 -209 -209 -209 -209 127 132 127 125 124 123 125 125 127 127 125 125 125 125 128 125 129 125 125 126 127 127 128 128 128 125 132 130 127 129 128 129 126 127 126 126 124 125 125 126 126 128 128 127 122 122 123 129 124 123 122 123 122 124 124 124 121 121 121 122 121 125 124 125 125 125 126 128 128 127 128 129 129 129 129 129 128 129 128 127 129 126 127 127 127 127 125 126 125 123 126 125 126 126 126 128 126 127 128 126 130 132 136 130 129 130 130 132 132 132 133 130 135 135 136 137 136 137 138 138 138 139 139 138 140 141 142 145 145 147 150 151 150 148 150 151 146 146 144 143 143 144 144 144 140 146 147 153 153 -193 150 -193 144 147 147 146 141 138 136 138 135 -209 -209 133 136 139 0 0 0 0 0
    0 0 0 0 0 0 0 0 0 0 0 0 0 0 0 0 0 0 0 0 0 0 0 0 0 0 0 0 0 0 0 0 0 0 0 0 0 0 0 0 0 0 0 0 0 0 0 0 0 0 0 0 0 0 0 0 0 0 0 0 0 0 0 0 0 0 0 0 0 139 140 -209 131 127 125 125 124 122 122 124 132 -209 -193 125 126 127 129 129 127 124 126 129 136 137 147 -209 148 -193 -193 -193 -209 -193 133 123 122 123 124 125 125 126 127 124 131 128 127 132 130 131 130 127 130 135 -193 -209 513 -209 -209 -209 -209 -209 -193 -193 -193 132 134 129 130 -193 -209 -193 -209 -193 -193 -193 -209 -209 -193 -193 -177 -209 130 126 123 122 122 124 125 127 127 125 125 125 124 126 124 129 124 126 127 127 128 129 130 131 128 137 135 131 133 130 129 126 127 126 125 124 124 124 125 124 126 126 126 123 123 125 131 126 125 123 124 123 124 124 124 121 -209 121 123 121 125 124 126 126 127 130 132 132 131 132 133 133 -193 131 130 129 130 129 128 130 128 129 129 128 129 126 129 127 125 130 128 131 130 130 131 129 129 131 129 132 133 136 132 131 133 133 134 134 134 134 132 136 136 137 137 136 137 137 138 138 138 138 137 140 141 143 146 147 148 150 151 150 148 151 151 147 147 145 144 145 145 146 146 143 148 149 152 153 152 152 150 149 150 150 150 148 142 142 144 145 150 150 142 142 143 0 0 0 0 0
    0 0 0 0 0 0 0 0 0 0 0 0 0 0 0 0 0 0 0 0 0 0 0 0 0 0 0 0 0 0 0 0 0 0 0 0 0 0 0 0 0 0 0 0 0 0 0 0 0 0 0 0 0 0 0 0 0 0 0 0 0 0 0 0 0 0 0 0 0 144 148 -209 139 -209 -209 -209 -209 -209 -193 126 -209 -209 -209 129 131 132 135 136 136 133 134 138 142 150 151 152 150 149 148 149 149 147 141 129 128 128 129 131 132 131 131 131 137 -193 134 136 135 132 132 130 134 139 -209 -209 -209 -209 -209 -193 -209 -209 135 138 140 140 140 135 -193 -209 -193 -177 -177 -193 -193 -193 -209 -209 -209 93 98 -209 -209 -209 -209 -209 121 127 128 133 131 129 129 130 127 126 125 131 124 129 131 132 132 134 136 137 136 140 141 137 137 136 131 128 129 127 128 128 131 129 132 132 134 135 134 137 133 133 134 129 129 127 127 124 125 124 125 -209 -177 -209 124 121 129 125 130 -209 130 134 136 137 -193 -209 -209 -193 -209 -209 -193 -193 134 132 133 133 131 132 132 132 132 130 134 132 133 135 134 135 135 135 135 133 133 134 134 135 136 138 134 134 135 136 136 136 136 136 135 137 137 139 138 137 137 138 138 138 138 138 138 143 144 145 147 148 149 150 151 149 147 150 151 147 147 146 145 145 146 147 147 145 149 149 152 152 151 152 150 149 150 150 151 150 146 150 149 153 153 152 151 149 148 0 0 0 0 0
    0 0 0 0 0 0 0 0 0 0 0 0 0 0 0 0 0 0 0 0 0 0 0 0 0 0 0 0 0 0 0 0 0 0 0 0 0 0 0 0 0 0 0 0 0 0 0 0 0 0 0 0 0 0 0 0 0 0 0 0 0 0 0 0 0 0 0 0 0 148 150 148 144 144 -193 -209 -209 -209 -209 -209 -209 -209 -209 134 134 137 141 149 149 145 143 145 149 151 151 151 151 150 150 150 150 149 145 137 138 135 136 136 137 137 136 137 143 145 144 144 143 139 139 138 140 144 148 -193 -209 -209 -209 -209 -209 -209 -209 143 145 145 144 140 -193 -193 -209 -177 -177 -177 -193 -209 -209 -209 -209 -209 142 141 143 144 146 149 147 142 140 142 139 138 138 137 138 135 134 138 131 137 148 142 141 142 145 145 142 145 146 140 141 143 138 134 135 -193 -193 143 146 147 146 147 149 146 142 146 139 138 136 133 134 133 133 128 127 124 -193 -193 -177 -209 -209 -209 141 -209 -209 -209 -193 152 146 147 -193 -209 -193 -193 -193 -193 -193 -193 -193 136 138 -209 -209 -209 -209 -193 -209 -209 140 139 140 141 139 140 141 140 141 138 137 137 138 139 140 139 136 137 138 139 139 139 139 138 139 140 141 144 142 140 140 141 141 139 138 140 141 147 147 147 148 149 150 150 151 149 147 150 151 148 148 147 147 147 147 148 148 147 150 150 151 152 151 151 150 149 150 150 150 149 146 149 149 152 152 152 152 150 150 0 0 0 0 0
    0 0 0 0 0 0 0 0 0 0 0 0 0 0 0 0 0 0 0 0 0 0 0 0 0 0 0 0 0 0 0 0 0 0 0 0 0 0 0 0 0 0 0 0 0 0 0 0 0 0 0 0 0 0 0 0 0 0 0 0 0 0 0 0 0 0 0 0 0 150 152 151 149 148 -209 -193 -209 -209 -209 -209 -177 -177 -209 -209 -209 146 149 152 152 150 150 149 151 152 152 151 151 150 150 149 150 149 146 143 144 141 141 143 145 144 141 144 148 149 148 147 147 146 148 146 147 148 149 150 -193 -209 -193 149 150 -193 -193 147 148 147 147 145 144 144 144 -193 -177 -177 -177 -209 -193 144 146 148 146 145 147 146 148 150 150 146 145 146 145 142 142 142 142 140 141 146 143 147 152 150 149 149 150 149 149 149 149 144 147 149 149 144 150 152 153 151 150 150 149 150 150 147 146 147 142 143 138 136 138 136 138 -209 -209 -209 146 149 -193 151 151 152 149 151 -209 -209 153 154 151 151 -193 -193 149 149 149 147 146 149 145 145 146 147 145 147 148 148 148 145 147 146 146 146 143 144 147 143 147 142 142 141 142 144 144 140 139 140 140 142 142 142 142 141 142 143 145 148 147 144 142 144 144 140 138 141 142 149 148 149 149 149 150 151 151 150 148 151 152 150 150 149 149 148 149 149 149 149 150 150 152 152 151 151 150 149 150 150 150 149 146 149 149 152 152 152 153 152 152 0 0 0 0 0
    0 0 0 0 0 0 0 0 0 0 0 0 0 0 0 0 0 0 0 0 0 0 0 0 0 0 0 0 0 0 0 0 0 0 0 0 0 0 0 0 0 0 0 0 0 0 0 0 0 0 0 0 0 0 0 0 0 0 0 0 0 0 0 0 0 0 0 0 0 151 -193 151 151 149 -193 -193 -209 -209 -209 -209 -177 -193 -209 -209 -209 -209 154 155 155 152 151 151 152 152 152 151 151 150 150 149 150 150 148 147 148 148 148 149 149 149 148 149 150 150 149 149 149 150 151 150 151 151 151 152 151 -193 -193 150 150 149 146 149 149 148 149 148 148 149 149 -193 -177 -177 -193 -209 146 146 147 148 146 146 147 146 148 150 150 148 147 147 147 146 146 145 145 142 146 147 147 149 152 151 151 151 151 151 150 150 150 146 148 150 150 149 151 152 153 152 151 151 150 151 150 148 149 149 144 149 146 144 144 144 148 151 150 153 152 152 152 153 152 152 151 151 -193 151 152 153 151 151 151 151 150 151 150 149 148 150 148 149 149 150 150 151 151 150 -193 149 149 148 148 148 146 146 149 146 149 146 148 147 148 149 149 144 146 147 146 147 145 146 145 144 144 145 146 149 148 145 142 143 144 140 136 144 147 151 150 150 150 150 151 151 152 150 148 151 153 152 152 150 150 149 149 150 149 150 151 150 151 152 150 151 150 150 150 150 150 149 147 150 149 153 151 152 153 152 152 0 0 0 0 0
    0 0 0 0 0 0 0 0 0 0 0 0 0 0 0 0 0 0 0 0 0 0 0 0 0 0 0 0 0 0 0 0 0 0 0 0 0 0 0 0 0 0 0 0 0 0 0 0 0 0 0 0 0 0 0 0 0 0 0 0 0 0 0 0 0 0 0 0 0 -193 152 151 150 149 149 150 -209 -209 -209 -209 -193 -209 -193 164 -209 -209 156 156 156 152 152 151 152 152 152 151 151 150 150 149 150 150 149 148 149 149 149 151 150 150 149 150 151 150 150 150 150 150 151 151 151 151 152 152 152 152 152 151 150 149 147 150 150 149 149 148 149 150 151 151 -193 -193 -193 -193 147 146 147 147 146 146 147 146 147 150 151 148 148 148 148 147 147 147 146 143 148 148 149 149 152 151 151 151 151 151 150 150 150 147 148 150 149 150 151 151 152 151 150 151 150 150 150 148 149 149 146 151 150 150 147 147 150 152 151 153 152 152 151 152 152 152 151 151 151 151 151 152 151 151 151 151 151 151 151 150 149 150 149 150 150 151 150 151 151 -193 -193 149 149 148 148 148 147 148 150 147 150 148 150 150 151 151 150 148 150 151 150 149 148 148 149 149 148 148 149 150 151 151 149 149 149 147 142 149 151 152 150 150 150 150 151 151 151 150 148 151 152 153 153 151 151 150 150 151 150 150 150 149 151 151 150 151 149 149 149 149 150 149 147 150 149 153 152 154 154 154 154 0 0 0 0 0
    0 0 0 0 0 0 0 0 0 0 0 0 0 0 0 0 0 0 0 0 0 0 0 0 0 0 0 0 0 0 0 0 0 0 0 0 0 0 0 0 0 0 0 0 0 0 0 0 0 0 0 0 0 0 0 0 0 0 0 0 0 0 0 0 0 0 0 0 0 151 152 151 151 149 149 149 149 144 135 -209 -209 -209 160 -209 -209 -209 155 155 154 152 152 151 152 152 152 151 151 151 150 149 150 150 148 148 149 148 149 150 150 149 150 150 151 151 150 150 150 151 151 151 152 151 152 152 152 152 152 151 150 149 147 150 150 149 149 149 149 150 151 151 -193 -193 -193 -193 147 146 147 148 146 146 147 146 147 150 151 149 148 148 149 148 148 148 147 144 148 148 149 150 152 151 151 151 151 151 150 150 150 146 147 149 149 149 149 150 151 151 150 150 149 150 149 148 149 148 146 152 151 152 149 149 151 153 152 153 152 152 151 152 152 151 151 150 150 150 150 151 151 151 150 151 151 151 151 150 150 151 150 151 151 152 150 151 152 -193 -193 150 149 149 148 149 148 148 150 147 150 148 150 151 151 151 150 148 151 151 151 150 149 150 150 150 150 150 150 151 152 152 151 151 151 151 151 151 154 153 152 151 151 151 151 152 152 148 148 149 150 152 153 152 151 151 151 152 152 152 151 150 151 151 150 150 149 149 149 149 149 149 147 150 150 153 152 154 154 154 155 0 0 0 0 0
    0 0 0 0 0 0 0 0 0 0 0 0 0 0 0 0 0 0 0 0 0 0 0 0 0 0 0 0 0 0 0 0 0 0 0 0 0 0 0 0 0 0 0 0 0 0 0 0 0 0 0 0 0 0 0 0 0 0 0 0 0 0 0 0 0 0 0 0 0 152 152 152 151 150 150 150 150 146 138 -193 -209 154 159 -209 -209 150 152 152 152 151 151 150 151 152 152 151 151 150 150 150 150 150 148 148 149 148 149 149 149 149 149 150 150 150 150 150 150 151 151 151 151 151 152 152 152 152 152 151 150 149 148 150 150 149 149 149 149 150 151 151 -193 148 152 149 147 147 148 148 146 146 147 146 147 150 150 149 148 148 149 148 148 148 147 145 149 148 149 150 152 -193 151 151 151 151 150 150 150 146 147 149 148 148 149 150 151 150 149 149 149 149 149 148 149 149 147 152 153 154 151 151 153 153 152 154 152 152 151 151 152 151 150 150 149 150 148 150 150 150 150 151 151 151 151 150 150 151 150 151 151 152 150 151 -193 -193 576 150 150 149 148 149 148 148 150 147 150 148 150 150 151 151 150 148 151 151 150 149 148 150 150 151 150 150 150 151 152 152 151 151 150 151 152 152 155 154 153 152 151 151 152 152 151 146 148 147 147 151 152 151 150 150 151 151 151 151 150 150 151 151 149 150 149 149 149 149 149 149 148 150 151 153 152 153 153 154 155 0 0 0 0 0
    0 0 0 0 0 0 0 0 0 0 0 0 0 0 0 0 0 0 0 0 0 0 0 0 0 0 0 0 0 0 0 0 0 0 0 0 0 0 0 0 0 0 0 0 0 0 0 0 0 0 0 0 0 0 0 0 0 0 0 0 0 0 0 0 0 0 0 0 0 153 152 152 151 149 149 149 148 144 139 140 142 148 152 148 143 148 151 152 152 151 151 150 151 152 152 150 150 150 150 150 150 150 148 148 149 149 149 150 150 150 149 150 150 150 150 149 150 150 -193 150 151 151 152 152 152 152 152 151 150 149 148 150 150 149 149 149 149 150 151 151 151 149 153 150 148 148 148 149 147 146 147 146 147 149 150 148 147 148 149 148 148 148 147 146 148 148 149 150 152 -193 -193 -193 151 151 150 150 150 147 148 149 148 148 149 150 151 150 149 149 149 149 149 149 149 149 148 153 153 154 152 152 153 154 -193 154 152 153 151 151 151 151 150 150 149 149 148 150 150 149 150 150 151 151 152 151 150 151 150 151 151 152 150 150 -193 -193 576 150 150 149 149 150 148 148 151 147 150 149 150 150 151 151 150 147 151 151 151 149 149 150 150 150 150 150 151 151 151 152 151 151 150 150 151 152 155 153 152 152 151 151 151 151 150 143 147 146 146 152 152 151 150 150 151 151 150 150 149 149 150 151 148 149 148 149 149 149 149 148 148 151 152 153 153 154 154 154 156 0 0 0 0 0
    0 0 0 0 0 0 0 0 0 0 0 0 0 0 0 0 0 0 0 0 0 0 0 0 0 0 0 0 0 0 0 0 0 0 0 0 0 0 0 0 0 0 0 0 0 0 0 0 0 0 0 0 0 0 0 0 0 0 0 0 0 0 0 0 0 0 0 0 0 152 151 150 150 148 147 147 145 142 137 138 138 141 149 145 144 147 150 151 152 151 151 150 151 152 152 150 150 150 150 150 150 150 149 149 150 149 150 150 150 150 150 150 150 150 150 149 150 150 151 150 151 151 151 151 152 152 151 151 150 149 148 150 150 148 149 150 150 150 151 151 151 150 153 151 148 147 148 149 147 146 147 146 146 149 149 148 147 148 149 148 148 148 147 146 148 148 148 149 151 -193 -193 151 151 151 150 151 150 148 148 149 149 149 149 150 151 150 149 150 149 149 149 149 149 148 148 152 152 154 153 153 154 154 -193 154 152 153 151 -177 151 150 150 149 149 149 147 149 149 149 150 150 152 152 153 151 151 151 151 152 151 151 150 150 -193 576 577 150 150 150 149 150 149 149 151 148 150 149 150 151 151 151 151 148 151 151 151 150 149 151 151 151 151 151 151 151 151 151 150 150 150 150 151 152 155 152 152 151 150 151 151 151 150 141 147 145 144 151 151 151 152 152 153 154 154 153 153 152 153 152 149 149 149 149 149 149 149 148 148 151 152 153 153 154 154 155 156 0 0 0 0 0
    0 0 0 0 0 0 0 0 0 0 0 0 0 0 0 0 0 0 0 0 0 0 0 0 0 0 0 0 0 0 0 0 0 0 0 0 0 0 0 0 0 0 0 0 0 0 0 0 0 0 0 0 0 0 0 0 0 0 0 0 0 0 0 0 0 0 0 0 0 151 150 148 148 146 146 146 144 142 137 139 138 141 -193 -193 145 147 150 151 151 151 151 150 151 152 152 151 151 151 150 150 150 150 148 149 150 149 149 150 150 150 150 150 151 150 150 150 150 150 151 150 151 150 151 151 152 152 151 151 150 149 148 150 150 148 149 150 150 150 151 151 151 150 153 152 149 149 149 150 148 146 147 146 145 149 149 148 147 148 149 148 149 148 148 146 147 147 147 148 151 150 150 150 150 150 150 150 150 148 148 149 148 149 149 150 151 150 150 150 150 150 149 149 150 149 149 152 153 154 153 153 154 154 -193 154 152 152 150 -177 151 149 149 148 148 148 146 149 149 149 151 151 153 153 154 152 152 152 151 152 152 152 150 150 -193 576 577 -193 150 150 149 151 150 150 152 148 150 150 150 151 151 151 151 148 151 152 152 150 150 151 151 151 151 151 150 151 151 151 150 150 150 150 151 152 155 151 151 151 150 150 150 150 148 140 147 145 142 148 149 151 154 154 156 158 159 160 162 159 160 154 151 150 150 150 150 149 149 148 148 151 152 152 152 153 154 155 157 0 0 0 0 0
    0 0 0 0 0 0 0 0 0 0 0 0 0 0 0 0 0 0 0 0 0 0 0 0 0 0 0 0 0 0 0 0 0 0 0 0 0 0 0 0 0 0 0 0 0 0 0 0 0 0 0 0 0 0 0 0 0 0 0 0 0 0 0 0 0 0 0 0 0 149 147 145 146 144 144 144 143 142 137 142 144 -193 -209 -193 146 147 149 150 150 150 150 149 151 152 151 150 150 151 150 150 150 150 148 149 150 149 149 149 149 150 149 150 151 150 150 150 150 150 151 150 151 151 152 152 153 152 152 151 150 149 148 150 150 148 149 149 150 150 151 151 150 150 153 152 150 149 149 150 148 147 147 146 146 149 149 149 147 148 149 149 149 149 149 147 147 146 147 148 151 150 150 150 150 150 150 150 150 148 149 149 148 149 149 150 151 150 150 150 150 150 149 150 151 149 150 153 153 154 153 153 154 -193 -193 153 151 152 150 -177 151 149 149 148 148 148 145 149 149 149 150 151 153 152 153 152 152 152 151 152 151 151 149 150 -193 576 577 -193 150 150 149 151 150 150 152 148 150 149 150 151 151 150 150 148 151 152 152 150 150 151 151 151 151 151 150 151 151 151 150 150 150 150 151 152 154 151 151 151 150 150 150 150 148 140 148 148 146 149 151 153 158 157 158 160 162 165 167 166 166 163 -209 -209 151 151 151 150 149 148 148 151 153 153 152 154 154 155 157 0 0 0 0 0
    0 0 0 0 0 0 0 0 0 0 0 0 0 0 0 0 0 0 0 0 0 0 0 0 0 0 0 0 0 0 0 0 0 0 0 0 0 0 0 0 0 0 0 0 0 0 0 0 0 0 0 0 0 0 0 0 0 0 0 0 0 0 0 0 0 0 0 0 0 145 144 142 144 143 144 144 145 145 143 148 149 150 151 148 147 147 148 149 148 149 149 148 150 151 151 150 150 150 149 149 150 150 148 149 150 149 149 149 149 149 149 150 151 150 150 149 150 150 150 150 150 150 152 152 153 152 151 151 149 148 148 150 149 148 149 149 149 150 -193 -193 -193 150 153 152 149 149 149 150 148 147 147 146 146 149 149 149 147 148 149 149 149 149 149 148 147 146 147 148 151 149 149 150 150 150 149 149 149 147 149 148 147 149 149 150 150 150 150 150 150 150 149 150 151 150 151 153 153 154 153 153 154 153 153 152 151 152 149 150 150 149 149 148 148 148 144 148 149 148 150 150 152 152 152 152 152 151 151 152 151 151 149 149 151 -193 -193 150 149 150 149 151 150 150 152 148 150 149 150 151 150 150 150 148 150 151 151 150 149 151 151 150 150 150 150 150 150 150 150 150 150 150 151 152 155 151 150 150 150 149 150 150 148 140 150 150 150 152 154 156 161 160 161 163 164 167 169 169 169 169 -209 -209 -209 151 152 150 150 149 149 152 154 153 153 154 155 156 158 0 0 0 0 0
    0 0 0 0 0 0 0 0 0 0 0 0 0 0 0 0 0 0 0 0 0 0 0 0 0 0 0 0 0 0 0 0 0 0 0 0 0 0 0 0 0 0 0 0 0 0 0 0 0 0 0 0 0 0 0 0 0 0 0 0 0 0 0 0 0 0 0 0 0 143 144 142 144 143 145 146 147 148 148 150 150 150 151 149 148 148 148 148 148 148 148 147 149 151 150 149 150 150 149 149 150 149 147 148 149 149 149 149 150 150 149 150 150 149 150 149 149 149 149 149 149 149 152 151 153 152 151 150 149 148 147 149 149 148 148 149 149 150 -193 -193 -193 150 152 151 149 149 148 150 148 147 147 146 146 148 148 148 146 147 149 149 149 149 149 148 146 146 147 148 150 149 149 149 149 149 149 149 148 147 148 148 146 148 148 149 150 150 149 149 150 150 149 150 151 150 151 152 152 153 153 153 154 153 153 152 151 152 149 150 150 148 149 148 148 148 144 148 149 148 150 149 152 152 152 152 152 151 151 152 150 151 148 149 150 150 -193 150 149 150 149 151 150 150 152 149 149 149 150 151 150 149 149 147 149 150 150 148 148 150 150 149 150 150 149 150 150 150 150 150 150 150 151 152 155 150 150 150 150 149 149 149 148 140 152 152 152 154 155 157 161 161 163 164 166 167 170 169 169 170 -193 -209 -209 -209 155 151 149 149 150 153 155 153 153 154 155 157 159 0 0 0 0 0
    0 0 0 0 0 0 0 0 0 0 0 0 0 0 0 0 0 0 0 0 0 0 0 0 0 0 0 0 0 0 0 0 0 0 0 0 0 0 0 0 0 0 0 0 0 0 0 0 0 0 0 0 0 0 0 0 0 0 0 0 0 0 0 0 0 0 0 0 0 142 144 142 146 144 146 146 148 149 149 150 151 150 151 149 148 148 148 148 147 148 148 146 149 150 149 149 149 149 149 149 150 149 147 149 150 149 149 149 149 149 149 149 150 148 149 148 149 149 -193 149 149 149 152 -193 153 152 150 150 148 147 145 149 148 147 148 149 149 149 -193 -193 -193 149 152 150 148 148 148 150 149 147 147 147 147 148 148 148 145 146 149 149 149 148 149 149 147 147 148 148 150 149 149 149 149 149 149 148 148 146 148 148 145 148 148 149 150 149 150 149 150 150 150 150 151 150 151 151 152 152 153 153 154 152 153 152 151 152 149 149 150 148 149 148 148 148 144 148 149 148 150 149 151 152 152 152 152 151 151 152 150 151 148 149 150 150 151 150 149 150 149 151 150 150 152 149 150 149 150 151 150 150 149 147 148 149 149 147 147 150 149 149 149 150 149 150 150 150 150 150 151 150 151 152 155 150 150 149 150 150 150 150 149 140 153 153 154 154 156 158 161 162 164 165 166 168 170 169 169 169 -193 -209 -209 -209 169 155 -209 150 151 155 157 153 153 154 155 157 160 0 0 0 0 0
    0 0 0 0 0 0 0 0 0 0 0 0 0 0 0 0 0 0 0 0 0 0 0 0 0 0 0 0 0 0 0 0 0 0 0 0 0 0 0 0 0 0 0 0 0 0 0 0 0 0 0 0 0 0 0 0 0 0 0 0 0 0 0 0 0 0 0 0 0 141 142 140 145 143 145 146 148 149 150 150 151 150 151 150 149 149 148 148 147 147 148 146 148 150 149 148 149 149 149 149 150 150 148 149 150 150 150 150 149 149 148 149 150 148 149 148 -193 149 149 149 150 150 153 -193 153 153 150 149 148 147 145 149 147 147 148 149 149 149 149 150 148 149 151 150 147 148 148 150 149 147 147 147 147 148 148 148 144 145 148 148 148 148 149 148 146 147 148 148 150 149 148 148 148 148 148 148 147 146 147 147 145 147 148 149 150 150 150 150 151 150 150 150 151 149 151 150 151 151 152 152 153 152 152 151 151 152 149 149 150 148 148 147 148 148 144 149 149 148 150 149 151 152 152 152 151 151 151 152 150 151 148 150 150 150 151 150 149 151 149 151 150 150 152 149 150 149 150 151 150 150 149 147 148 149 149 146 146 149 149 148 149 150 149 150 150 150 150 150 151 150 150 152 155 150 149 149 149 149 149 149 149 142 154 155 155 156 157 159 162 164 164 165 166 168 170 169 169 169 -209 -209 -209 170 169 160 -209 160 154 160 161 155 155 156 158 161 164 0 0 0 0 0
    0 0 0 0 0 0 0 0 0 0 0 0 0 0 0 0 0 0 0 0 0 0 0 0 0 0 0 0 0 0 0 0 0 0 0 0 0 0 0 0 0 0 0 0 0 0 0 0 0 0 0 0 0 0 0 0 0 0 0 0 0 0 0 0 0 0 0 0 0 142 142 141 145 143 144 145 148 149 149 150 150 149 151 150 150 149 148 148 148 148 148 147 149 150 148 148 149 149 149 149 150 150 148 150 150 150 150 150 150 151 149 150 151 148 149 149 149 149 149 150 151 151 153 153 154 154 151 149 148 147 145 149 147 147 147 148 148 148 149 149 147 148 150 150 148 148 148 150 149 147 148 147 147 148 148 147 143 144 147 148 148 147 149 148 146 146 147 147 149 148 147 148 148 148 148 148 148 146 147 147 144 147 149 150 150 150 150 150 151 151 150 150 150 150 151 150 151 151 151 151 152 151 152 150 150 152 148 149 150 148 148 147 148 148 144 149 149 148 150 149 151 152 151 152 151 151 151 152 150 150 147 150 149 149 150 150 149 150 149 151 149 150 152 149 150 150 151 151 151 150 150 148 148 149 149 146 145 149 149 148 149 150 149 150 150 150 150 150 151 150 150 152 155 149 149 149 149 149 149 149 149 144 154 156 157 157 159 161 163 164 164 166 167 168 170 169 169 168 -193 -209 -193 170 169 162 -209 -209 -209 -193 170 158 159 160 163 166 167 0 0 0 0 0
    0 0 0 0 0 0 0 0 0 0 0 0 0 0 0 0 0 0 0 0 0 0 0 0 0 0 0 0 0 0 0 0 0 0 0 0 0 0 0 0 0 0 0 0 0 0 0 0 0 0 0 0 0 0 0 0 0 0 0 0 0 0 0 0 0 0 0 0 0 -209 -209 -193 -193 144 144 146 148 150 149 149 150 149 150 150 149 149 148 148 148 148 149 148 149 150 148 149 149 149 149 149 150 150 148 150 151 151 150 150 150 150 149 149 150 148 149 149 149 149 149 150 151 152 154 153 153 153 150 147 147 145 143 148 146 147 147 147 147 148 148 148 145 147 149 149 147 148 148 150 149 148 148 148 148 149 148 147 143 143 147 148 148 146 149 147 145 145 146 146 149 147 147 148 148 149 149 149 148 147 148 148 144 147 149 150 150 149 149 149 151 150 150 150 150 150 151 150 151 150 151 151 152 151 152 150 150 152 148 149 150 148 148 147 149 148 143 149 150 148 150 150 151 152 151 151 151 150 150 151 149 150 146 149 149 149 150 150 149 150 149 150 149 150 151 149 150 150 151 151 151 151 150 149 149 149 149 146 146 149 149 148 150 151 150 150 151 151 151 151 151 150 151 152 156 150 149 149 149 150 150 150 150 147 155 158 158 159 160 162 163 165 165 166 167 168 170 169 169 168 169 170 172 170 168 163 -209 -209 -209 171 179 -209 -193 165 168 169 170 0 0 0 0 0
    0 0 0 0 0 0 0 0 0 0 0 0 0 0 0 0 0 0 0 0 0 0 0 0 0 0 0 0 0 0 0 0 0 0 0 0 0 0 0 0 0 0 0 0 0 0 0 0 0 0 0 0 0 0 0 0 0 0 0 0 0 0 0 0 0 0 0 0 0 -209 -193 -193 -193 -193 144 147 149 151 150 150 150 149 150 150 150 149 148 149 149 149 150 149 150 150 148 149 149 149 149 149 150 149 148 150 150 151 150 150 150 150 148 149 150 147 149 149 149 149 149 150 151 152 154 153 153 154 150 146 146 145 142 148 146 147 146 147 147 147 147 148 145 146 148 148 147 148 148 150 149 148 149 148 148 149 149 147 142 142 146 147 148 145 148 146 145 144 145 146 148 147 147 148 149 149 149 149 149 148 148 148 144 147 149 150 150 148 149 148 150 150 149 149 149 150 151 150 152 150 151 151 152 151 151 149 149 151 148 148 149 148 148 148 149 148 143 150 150 148 150 149 150 151 150 151 150 150 149 150 149 149 146 149 148 149 150 149 149 150 148 150 148 150 150 149 150 150 150 151 151 151 151 150 150 149 149 146 146 149 149 149 150 151 150 151 151 151 151 151 152 150 151 152 157 150 149 148 150 150 151 151 151 148 155 158 159 159 160 161 163 164 165 166 167 169 170 170 169 169 169 170 171 171 169 -209 -209 -209 -209 180 182 184 180 172 172 173 172 0 0 0 0 0
    0 0 0 0 0 0 0 0 0 0 0 0 0 0 0 0 0 0 0 0 0 0 0 0 0 0 0 0 0 0 0 0 0 0 0 0 0 0 0 0 0 0 0 0 0 0 0 0 0 0 0 0 0 0 0 0 0 0 0 0 0 0 0 0 0 0 0 0 0 -209 -177 -177 -193 -193 144 147 150 151 150 150 150 149 150 150 150 150 149 149 149 149 150 149 150 150 148 149 148 148 148 148 149 149 148 150 151 151 151 151 151 151 149 149 150 146 148 148 149 148 149 150 151 153 155 154 153 154 149 145 146 144 142 147 145 147 146 146 147 147 147 147 144 146 147 147 147 147 148 149 149 148 149 148 149 149 149 147 142 142 146 147 148 143 148 146 145 144 145 145 148 147 147 149 149 149 149 149 149 148 148 148 144 147 148 149 150 147 148 147 150 150 149 149 149 150 152 150 152 151 151 151 151 151 151 148 149 151 147 149 150 149 149 149 150 150 146 152 151 149 150 149 150 151 150 150 149 149 148 150 148 149 146 149 148 149 150 149 149 150 148 149 147 149 150 148 149 149 150 151 151 151 151 150 150 149 149 146 147 149 149 149 151 152 151 151 151 151 152 151 152 147 148 152 156 150 149 148 149 150 151 151 151 150 155 158 160 160 161 163 164 166 166 167 168 169 169 170 169 167 -209 -209 170 -193 -193 -209 -209 -209 189 190 184 186 184 184 180 178 174 0 0 0 0 0
    0 0 0 0 0 0 0 0 0 0 0 0 0 0 0 0 0 0 0 0 0 0 0 0 0 0 0 0 0 0 0 0 0 0 0 0 0 0 0 0 0 0 0 0 0 0 0 0 0 0 0 0 0 0 0 0 0 0 0 0 0 0 0 0 0 0 0 0 0 -209 -177 -177 -193 -193 146 148 150 151 150 150 150 149 150 150 150 150 149 149 150 149 151 149 151 151 148 149 148 148 149 149 150 149 149 150 151 151 151 151 151 151 149 149 150 146 148 147 148 148 149 150 -193 153 155 -193 153 154 147 142 144 143 141 147 145 146 146 146 147 147 147 147 144 145 146 147 146 146 147 149 149 148 149 148 148 149 148 146 141 142 146 147 147 -193 -193 146 145 144 145 145 148 -193 148 149 149 149 150 149 149 148 148 149 144 145 148 149 149 146 147 146 149 149 149 149 149 150 152 151 153 152 152 151 152 153 152 148 149 151 148 149 151 151 151 151 152 151 150 154 153 -193 150 149 149 151 149 150 149 149 148 149 148 148 145 149 148 148 149 149 149 150 149 149 147 150 150 148 150 150 151 151 152 152 151 152 151 150 150 148 148 149 149 149 151 152 150 150 150 151 152 151 152 145 147 152 156 150 148 147 148 149 151 151 151 150 155 158 160 161 161 163 163 165 165 166 167 167 167 167 165 165 -209 -209 -209 -209 -209 -209 -193 177 184 187 182 184 182 183 180 178 173 0 0 0 0 0
    0 0 0 0 0 0 0 0 0 0 0 0 0 0 0 0 0 0 0 0 0 0 0 0 0 0 0 0 0 0 0 0 0 0 0 0 0 0 0 0 0 0 0 0 0 0 0 0 0 0 0 0 0 0 0 0 0 0 0 0 0 0 0 0 0 0 0 0 0 -193 -177 -177 -193 -193 145 148 150 151 150 149 150 148 150 151 150 150 149 149 151 150 152 151 151 151 149 149 149 149 149 150 150 150 149 150 151 151 151 151 151 151 148 148 150 146 148 148 149 -193 -193 -193 -193 153 155 -193 154 -193 -209 -193 143 142 140 147 145 147 146 146 146 146 146 147 142 144 144 146 145 146 148 150 149 148 149 148 148 149 148 145 141 142 145 147 -209 -209 -193 145 -193 143 144 144 148 -193 148 149 150 150 150 150 150 -193 148 149 143 144 147 148 148 144 146 145 148 149 148 149 149 150 153 -193 154 153 153 153 155 155 153 149 149 151 148 150 151 -193 -193 153 153 153 152 155 154 -193 151 150 149 151 150 150 150 149 149 149 148 148 145 148 147 148 149 149 149 150 149 149 147 149 149 148 150 150 151 151 152 153 152 153 153 152 152 151 151 150 -193 150 -193 -209 -193 -209 148 149 151 151 -209 -209 144 151 155 150 147 146 148 148 150 150 150 149 154 157 159 160 160 163 163 164 164 165 165 165 165 164 162 161 -193 -193 -209 -209 -209 -209 -209 -209 -209 181 181 182 181 181 179 178 174 0 0 0 0 0</data></disparity>
</opencv_storage>
