<?xml version="1.0"?>
<opencv_storage>
<gps_time_stamp>30783</gps_time_stamp>
<gps_x>-8.5248708724975586e+000</gps_x>
<gps_y>9.7788757085800171e-001</gps_y>
<gps_z>-2.1065866947174072e+000</gps_z>
<image_time_stamp>18667</image_time_stamp>
<disparity type_id="opencv-matrix">
  <rows>85</rows>
  <cols>320</cols>
  <dt>s</dt>
  <data>
    0 0 0 0 0 0 0 0 0 0 0 0 0 0 0 0 0 0 0 0 0 0 0 0 0 0 0 0 0 0 0 0 0 0 0 0 0 0 0 0 0 0 0 0 0 0 0 0 0 0 0 0 0 0 0 0 0 0 0 0 0 0 0 0 0 0 0 0 0 18 18 21 -209 -209 249 246 238 -193 -193 0 -193 0 0 0 0 0 0 0 -209 -209 -209 -209 0 11 10 9 9 0 10 9 9 10 10 10 10 10 10 9 9 0 0 0 0 0 0 0 0 0 0 0 0 0 0 0 0 0 0 0 0 0 9 9 0 0 0 0 14 17 14 12 12 12 10 -193 -209 -209 -209 -193 -209 -193 -177 -177 -177 -177 -209 -209 -209 -209 -209 -209 -209 -209 -209 124 124 127 131 -193 -209 0 9 10 10 10 16 11 15 11 10 10 9 10 -193 0 0 0 9 10 10 11 10 11 13 13 14 13 12 12 12 11 10 15 10 10 10 10 9 10 10 10 0 9 9 9 9 9 11 12 13 13 13 15 17 14 16 14 13 13 13 13 13 11 14 11 17 20 18 18 21 17 16 16 16 14 14 16 15 10 14 17 22 16 15 20 -177 -209 -193 -177 -177 -177 -177 -177 -177 -209 -193 -193 93 96 98 97 -193 -193 -209 25 27 27 28 28 30 31 32 34 32 33 35 35 35 35 35 36 35 37 37 36 36 37 36 37 38 39 40 -209 -209 -209 -177 -177 138 139 140 150 142 141 140 141 138 0 0 0 0 0
    0 0 0 0 0 0 0 0 0 0 0 0 0 0 0 0 0 0 0 0 0 0 0 0 0 0 0 0 0 0 0 0 0 0 0 0 0 0 0 0 0 0 0 0 0 0 0 0 0 0 0 0 0 0 0 0 0 0 0 0 0 0 0 0 0 0 0 0 0 -209 -209 -209 -209 -209 247 -209 236 241 -193 -193 -193 0 0 0 0 0 0 -193 -209 -193 -193 -209 0 10 -193 -193 0 0 10 0 9 10 10 10 10 10 11 10 10 9 9 -193 -193 0 -193 0 0 0 0 -193 -193 -193 -193 -193 0 0 0 0 0 0 9 9 0 0 0 9 20 18 15 -193 -193 -193 -209 -209 -209 -209 -209 -177 -209 -193 -177 -209 -209 -209 85 84 85 83 86 85 84 90 95 99 -193 -209 -209 -209 -209 -193 9 9 9 10 20 12 17 12 11 11 10 11 -193 -193 9 0 9 11 11 12 11 11 13 13 14 13 12 13 12 11 10 15 9 9 9 0 0 9 9 9 0 0 9 8 9 9 11 12 13 13 13 14 18 14 16 14 13 13 13 13 13 11 14 11 18 20 18 18 21 17 16 16 17 14 15 16 16 10 16 19 22 17 16 20 -177 -193 -193 -177 -177 -177 -177 -177 -177 -209 -193 -177 94 96 98 97 -193 -209 -209 25 26 26 26 27 28 28 28 31 30 32 35 35 35 35 35 36 35 37 37 36 36 36 36 36 36 37 39 -193 -209 -209 -177 -177 -209 140 141 150 141 140 139 139 136 0 0 0 0 0
    0 0 0 0 0 0 0 0 0 0 0 0 0 0 0 0 0 0 0 0 0 0 0 0 0 0 0 0 0 0 0 0 0 0 0 0 0 0 0 0 0 0 0 0 0 0 0 0 0 0 0 0 0 0 0 0 0 0 0 0 0 0 0 0 0 0 0 0 0 -209 -209 -209 -209 -209 -209 -193 -193 239 -209 -193 -193 -193 0 -193 -193 -193 -209 -209 -209 -209 -209 -209 -193 10 11 9 9 0 10 9 9 10 10 10 11 12 14 11 10 10 -193 -193 -193 -209 -209 -209 -209 -209 -209 -193 -193 385 -193 -177 -193 0 0 0 0 9 9 10 0 0 0 0 -193 -209 -193 -177 -177 91 91 -209 -209 -209 -209 -209 -209 -209 -193 86 86 88 85 85 86 85 86 86 85 90 92 94 98 100 102 100 -193 -193 0 0 -193 -209 18 12 18 13 12 11 -193 -193 -193 -193 -209 0 9 11 13 14 12 10 12 13 15 14 13 15 14 12 11 16 10 9 0 0 0 0 0 0 0 0 0 0 9 9 12 12 12 12 12 12 17 14 15 14 13 13 13 13 13 11 14 11 18 19 18 18 22 17 17 16 17 14 16 17 16 10 18 -193 -193 16 15 20 -177 -177 -193 -177 -177 -177 -177 -177 -193 -209 -193 -177 94 96 99 98 -177 -209 -209 25 26 25 26 27 28 28 28 29 30 31 34 35 35 35 36 36 36 37 36 36 36 36 36 36 36 37 38 -193 -209 -209 -177 -177 -209 142 143 150 140 139 138 137 134 0 0 0 0 0
    0 0 0 0 0 0 0 0 0 0 0 0 0 0 0 0 0 0 0 0 0 0 0 0 0 0 0 0 0 0 0 0 0 0 0 0 0 0 0 0 0 0 0 0 0 0 0 0 0 0 0 0 0 0 0 0 0 0 0 0 0 0 0 0 0 0 0 0 0 -209 -209 -209 -209 82 86 85 86 -193 -193 242 237 -193 -209 -209 -209 -209 -209 -209 -209 -209 -209 -209 -209 -193 13 11 10 0 10 9 10 11 12 11 12 13 17 -193 -209 -209 -193 836 836 836 -209 -209 -193 -193 92 92 92 -193 -177 -177 -209 9 0 9 0 9 10 11 0 0 -177 -177 -193 -209 -209 88 90 91 91 90 -209 -209 -209 -209 -193 -193 85 87 86 87 85 86 86 85 86 86 85 90 91 92 95 97 99 98 97 -209 0 0 -209 -209 -193 12 18 12 11 -193 -193 -193 -193 -193 -209 -209 -209 -209 -209 -209 13 10 12 14 17 15 14 17 17 13 14 18 11 9 0 0 0 0 0 0 0 0 0 0 0 9 11 12 12 12 13 12 17 13 16 14 13 13 13 13 13 11 14 11 18 18 17 18 21 17 17 17 17 15 16 17 17 11 19 -193 -193 -193 -193 -193 -177 -177 -193 -177 -177 -177 -177 -177 -193 -209 -193 -177 -193 97 99 99 -177 -177 -193 24 25 25 26 27 28 27 27 29 30 31 35 36 36 36 37 36 37 37 37 36 36 36 36 35 35 36 38 -193 -209 -209 -209 -177 -193 -193 146 149 139 138 136 135 133 0 0 0 0 0
    0 0 0 0 0 0 0 0 0 0 0 0 0 0 0 0 0 0 0 0 0 0 0 0 0 0 0 0 0 0 0 0 0 0 0 0 0 0 0 0 0 0 0 0 0 0 0 0 0 0 0 0 0 0 0 0 0 0 0 0 0 0 0 0 0 0 0 0 0 -193 -209 -209 -209 86 87 86 86 -193 -209 243 -209 83 -209 -209 -209 -209 -177 -177 -193 -209 -209 -193 -209 -209 -193 -209 12 0 11 10 11 13 14 12 13 15 -193 -209 -209 -209 836 835 835 833 -209 -209 -193 92 92 91 92 92 -209 -177 -209 -209 -209 -209 0 9 10 11 -193 -177 -209 -209 -209 -193 -209 89 90 91 91 90 89 -193 -193 88 90 87 86 88 87 88 86 87 87 86 87 87 86 90 90 91 94 95 96 97 96 -193 -209 -209 -177 -193 -209 12 19 12 -193 -193 864 -193 -193 -193 -209 -209 -209 -193 -209 -209 -209 10 12 15 19 16 14 18 19 13 15 18 10 0 0 0 0 0 0 0 0 0 0 0 0 0 10 12 13 12 13 12 18 13 15 14 13 13 12 13 13 11 13 11 16 17 16 18 22 17 17 17 18 15 16 18 18 11 18 -193 -193 -193 -193 -193 -177 -177 -193 -177 -177 -193 -177 -177 -193 -209 -193 -177 94 97 99 99 -177 -177 21 23 25 24 25 26 27 26 27 27 28 30 36 37 37 37 38 37 37 37 37 36 35 36 35 35 35 36 38 -209 -209 -209 -209 -177 -193 -209 144 142 136 135 134 133 132 0 0 0 0 0
    0 0 0 0 0 0 0 0 0 0 0 0 0 0 0 0 0 0 0 0 0 0 0 0 0 0 0 0 0 0 0 0 0 0 0 0 0 0 0 0 0 0 0 0 0 0 0 0 0 0 0 0 0 0 0 0 0 0 0 0 0 0 0 0 0 0 0 0 0 -209 -209 -209 -193 87 88 87 87 87 -193 -209 -193 85 87 87 88 -193 -209 -209 -193 -193 -193 -193 -193 -209 90 90 -209 -209 11 11 12 -193 -193 -209 -193 -193 -193 -209 -209 -209 -209 -209 -209 -209 -209 -193 -193 93 91 91 91 92 93 -193 92 -209 -209 -193 -193 9 10 -193 -209 -193 94 -209 -209 88 90 90 91 91 91 90 89 -193 -209 88 90 -209 87 90 88 89 88 88 88 87 88 88 87 90 90 91 93 94 95 95 96 -193 -177 -193 -177 -193 -209 -193 19 -209 -193 -209 -209 -209 602 -177 -209 -209 -209 -177 -209 -209 -209 -209 -193 -193 -193 -209 14 19 21 13 14 17 10 0 0 0 0 0 0 0 0 0 0 0 0 0 9 11 12 12 14 13 18 14 15 14 13 12 12 12 12 10 12 10 14 16 16 18 22 18 17 18 18 16 16 18 18 11 16 -193 -193 -193 16 21 -177 -193 -177 -209 -209 -177 -193 -193 -193 -209 -193 -177 94 96 99 99 -177 -193 21 24 25 24 25 26 26 26 26 27 27 30 36 37 37 36 37 36 37 37 36 36 35 36 35 35 35 36 39 -209 -193 611 -209 -177 -193 137 137 134 133 132 132 131 129 0 0 0 0 0
    0 0 0 0 0 0 0 0 0 0 0 0 0 0 0 0 0 0 0 0 0 0 0 0 0 0 0 0 0 0 0 0 0 0 0 0 0 0 0 0 0 0 0 0 0 0 0 0 0 0 0 0 0 0 0 0 0 0 0 0 0 0 0 0 0 0 0 0 0 93 90 91 90 89 89 88 87 87 88 88 87 87 89 89 89 89 89 89 90 91 90 90 91 -193 91 90 90 -193 -209 -193 86 87 88 87 88 88 88 88 88 91 -209 -209 -193 -193 91 92 91 93 91 90 91 91 92 91 91 93 -193 -193 97 -209 -209 -209 -193 95 94 91 91 -193 -209 90 91 91 91 90 89 -193 -209 -209 -209 -209 88 92 89 90 89 89 89 89 89 89 87 90 90 90 92 93 93 94 95 -209 618 -193 -193 -209 89 -193 -209 -209 -209 -193 -193 -209 -209 -193 -209 -209 -209 -193 -209 -193 -193 84 81 84 87 89 -193 -193 -209 12 15 16 10 0 0 0 0 0 0 0 0 0 0 0 0 0 0 10 -193 12 14 14 18 15 16 15 13 12 12 11 12 10 11 10 13 17 16 19 22 18 18 18 19 16 15 17 18 11 14 -193 -209 -209 -193 -193 -177 -177 -177 -209 -177 -177 -177 -193 -177 -209 -209 -193 94 96 99 99 -193 -209 -193 23 24 23 25 26 25 26 25 26 27 30 35 38 37 37 37 36 36 36 36 35 34 35 34 35 35 37 -193 607 607 609 -193 -177 -193 134 136 132 131 130 130 130 128 0 0 0 0 0
    0 0 0 0 0 0 0 0 0 0 0 0 0 0 0 0 0 0 0 0 0 0 0 0 0 0 0 0 0 0 0 0 0 0 0 0 0 0 0 0 0 0 0 0 0 0 0 0 0 0 0 0 0 0 0 0 0 0 0 0 0 0 0 0 0 0 0 0 0 95 92 91 90 89 89 88 88 88 89 89 89 90 91 91 91 92 90 91 91 91 91 91 91 91 92 92 92 91 90 90 89 89 91 89 90 91 91 91 91 93 94 92 95 93 93 94 93 93 92 91 91 91 91 90 90 91 91 93 94 94 94 93 94 95 94 92 92 90 -193 90 91 91 90 90 89 89 90 89 90 89 89 95 91 91 91 90 90 90 90 90 89 91 90 90 91 92 92 93 94 92 -193 -193 -193 90 90 91 90 89 90 91 92 91 92 93 94 90 -209 -209 87 87 89 87 86 86 88 89 88 86 86 -209 -209 -209 -209 -193 -193 0 0 -193 -193 0 0 0 -193 -193 0 0 0 -193 -193 12 15 15 19 16 16 16 13 12 11 11 12 9 10 10 12 17 17 20 23 19 19 18 20 17 14 17 17 11 -193 -193 -193 -193 92 -193 -209 -209 -209 -209 -209 -177 -193 -193 -193 -193 93 93 94 96 99 99 -209 -209 -193 22 23 23 24 25 24 25 24 25 26 29 33 39 38 38 38 36 36 36 35 35 34 34 33 34 35 37 -193 605 606 608 612 -177 -193 133 135 131 129 128 129 129 127 0 0 0 0 0
    0 0 0 0 0 0 0 0 0 0 0 0 0 0 0 0 0 0 0 0 0 0 0 0 0 0 0 0 0 0 0 0 0 0 0 0 0 0 0 0 0 0 0 0 0 0 0 0 0 0 0 0 0 0 0 0 0 0 0 0 0 0 0 0 0 0 0 0 0 97 94 93 93 90 90 90 89 90 90 91 92 92 94 94 94 95 91 91 91 91 91 91 91 91 92 93 94 93 92 94 92 93 95 92 93 94 94 94 93 94 95 92 96 94 93 93 92 93 91 90 91 90 90 90 89 90 91 94 94 93 93 94 95 95 95 94 92 92 93 91 91 90 90 90 89 89 89 89 91 91 91 99 93 92 93 92 92 91 91 91 89 91 91 89 90 90 90 91 92 91 -193 91 91 91 91 91 91 90 91 92 93 93 92 93 94 90 89 89 89 88 89 88 88 88 89 90 89 87 87 87 89 90 90 93 89 -209 -193 -209 -193 -193 0 -177 -193 -193 -193 -193 -193 98 98 -193 16 17 19 17 17 17 -193 -193 -193 -193 -193 -193 -209 -193 -193 17 16 20 23 20 20 19 21 -193 -193 17 -177 -209 -209 -209 92 90 92 -193 -193 -193 93 -209 -209 -209 -209 -193 -193 91 92 93 94 97 99 100 -209 -209 -193 21 22 22 22 23 23 -193 22 24 25 -193 28 40 43 39 39 36 36 35 34 35 34 33 32 34 36 37 -177 604 604 605 -193 -177 -193 131 134 129 128 128 129 129 127 0 0 0 0 0
    0 0 0 0 0 0 0 0 0 0 0 0 0 0 0 0 0 0 0 0 0 0 0 0 0 0 0 0 0 0 0 0 0 0 0 0 0 0 0 0 0 0 0 0 0 0 0 0 0 0 0 0 0 0 0 0 0 0 0 0 0 0 0 0 0 0 0 0 0 97 96 94 95 92 92 91 90 92 92 93 93 93 95 95 95 97 92 92 91 91 91 91 91 91 92 93 94 94 94 97 96 98 99 95 96 97 97 97 96 96 96 93 97 95 93 94 92 93 92 91 91 91 91 90 91 92 92 96 95 94 94 95 95 95 96 95 92 93 95 91 91 91 90 90 90 89 90 90 92 92 93 100 94 94 94 93 93 92 92 92 90 92 91 89 89 89 89 91 92 91 91 92 92 92 92 92 92 92 92 93 95 94 93 92 93 90 89 89 89 89 90 90 89 89 90 91 91 89 89 90 91 94 92 96 90 -193 -193 -193 -209 -193 -193 -193 -193 -193 -193 92 95 96 95 -193 -209 -193 -193 -193 -193 -193 434 -193 -193 -193 -193 -193 93 92 92 -193 -193 21 24 21 21 21 -193 366 373 -209 -209 -193 -193 92 94 91 93 94 93 93 94 93 92 90 93 93 93 92 93 94 95 98 100 102 -209 -209 -193 -193 -209 -193 23 24 -209 -209 -209 -209 -209 -209 -209 -209 -209 39 38 36 35 34 34 35 34 33 33 34 37 38 -193 -193 -193 -193 -193 -177 131 130 134 129 128 128 129 130 128 0 0 0 0 0
    0 0 0 0 0 0 0 0 0 0 0 0 0 0 0 0 0 0 0 0 0 0 0 0 0 0 0 0 0 0 0 0 0 0 0 0 0 0 0 0 0 0 0 0 0 0 0 0 0 0 0 0 0 0 0 0 0 0 0 0 0 0 0 0 0 0 0 0 0 98 97 96 98 94 94 93 92 95 93 94 95 95 96 96 96 98 93 93 92 91 91 92 92 92 92 94 96 96 96 99 99 100 100 97 97 97 97 97 96 96 96 94 99 98 96 98 96 96 94 93 93 93 94 93 93 94 94 99 96 95 95 95 95 95 96 96 93 94 96 92 92 92 91 91 91 90 91 90 94 94 95 100 95 95 95 94 94 93 93 93 91 93 91 89 89 90 89 91 93 92 92 93 93 93 94 94 94 93 93 94 96 95 94 94 96 92 91 91 91 91 92 92 91 91 92 93 93 91 92 93 95 100 97 100 92 92 -193 -193 90 91 -193 -193 89 91 91 92 94 94 93 95 93 -193 90 -193 -193 -193 -193 94 93 93 94 93 93 92 92 92 90 91 -193 90 94 -209 -209 -209 -209 100 99 96 97 94 96 93 94 95 94 94 95 94 93 92 94 95 94 94 93 95 97 98 100 103 -209 -209 -209 -209 -209 -209 -209 -209 -209 -209 -209 -209 -193 -209 -209 93 -193 -193 -193 -193 35 34 34 35 34 33 34 35 39 -193 -193 -177 -177 -193 -193 -193 129 130 134 129 128 129 129 131 129 0 0 0 0 0
    0 0 0 0 0 0 0 0 0 0 0 0 0 0 0 0 0 0 0 0 0 0 0 0 0 0 0 0 0 0 0 0 0 0 0 0 0 0 0 0 0 0 0 0 0 0 0 0 0 0 0 0 0 0 0 0 0 0 0 0 0 0 0 0 0 0 0 0 0 99 98 97 99 96 96 95 95 98 95 96 97 97 97 97 97 98 93 94 93 92 92 94 93 94 94 95 98 98 98 101 101 102 101 98 97 97 97 97 95 96 96 94 100 99 98 100 98 99 95 94 95 94 97 95 96 96 96 100 97 96 96 96 96 95 97 96 93 94 97 93 93 93 92 92 92 92 93 92 98 97 98 101 97 97 97 96 96 94 94 94 92 94 92 90 91 91 91 93 95 93 94 94 94 94 95 95 95 94 95 96 99 98 98 96 98 93 91 92 93 92 93 94 93 92 94 96 95 93 95 96 98 101 100 102 96 94 94 91 91 91 89 90 89 91 91 91 92 92 91 92 91 90 90 89 91 92 93 94 93 93 94 93 94 93 93 92 91 93 92 92 96 99 103 -209 92 101 99 96 97 95 97 94 94 95 94 94 95 94 94 93 95 96 96 96 94 96 98 99 99 103 104 105 -193 116 -209 -209 -209 -193 95 95 97 96 95 93 95 96 94 96 -193 -193 -193 30 31 33 31 32 32 36 41 -209 -193 -193 157 -177 -193 -209 129 130 133 129 129 129 130 131 130 0 0 0 0 0
    0 0 0 0 0 0 0 0 0 0 0 0 0 0 0 0 0 0 0 0 0 0 0 0 0 0 0 0 0 0 0 0 0 0 0 0 0 0 0 0 0 0 0 0 0 0 0 0 0 0 0 0 0 0 0 0 0 0 0 0 0 0 0 0 0 0 0 0 0 99 99 98 -193 98 98 97 97 100 97 98 98 98 98 98 98 98 94 95 95 93 94 95 94 96 95 97 99 100 100 102 101 102 101 98 97 98 97 97 95 96 96 94 100 100 99 101 99 101 97 96 98 96 99 96 98 98 98 101 99 97 97 97 97 95 97 97 93 94 97 93 94 94 93 93 94 94 95 94 100 99 100 102 99 99 99 97 98 96 96 96 93 97 95 92 93 94 94 96 99 95 96 95 96 95 96 96 98 96 98 99 102 101 100 99 100 94 93 94 96 94 96 97 95 94 96 98 96 95 97 98 100 101 100 102 98 96 96 93 92 92 90 91 89 91 91 91 92 93 92 93 91 91 90 90 92 93 94 94 93 93 94 94 94 93 93 92 92 95 94 95 98 99 102 98 97 102 100 99 99 97 99 95 95 96 94 95 95 94 95 93 96 97 98 98 96 98 101 102 101 104 105 106 105 106 107 100 96 97 94 95 97 96 95 94 96 98 97 99 99 97 99 97 99 -193 -193 -193 -193 -193 -193 94 99 102 -193 -209 124 135 128 130 133 130 130 130 131 132 130 0 0 0 0 0
    0 0 0 0 0 0 0 0 0 0 0 0 0 0 0 0 0 0 0 0 0 0 0 0 0 0 0 0 0 0 0 0 0 0 0 0 0 0 0 0 0 0 0 0 0 0 0 0 0 0 0 0 0 0 0 0 0 0 0 0 0 0 0 0 0 0 0 0 0 99 99 99 -193 101 101 100 100 102 98 99 99 99 99 99 98 99 94 98 98 96 96 98 96 98 97 98 100 100 100 102 101 102 101 98 98 98 97 97 96 96 96 94 100 100 99 102 100 102 99 99 101 99 101 98 100 100 99 102 99 98 98 97 98 96 97 97 93 94 98 94 96 95 95 95 96 97 98 95 100 100 101 103 100 100 100 99 99 98 98 98 94 99 98 94 96 98 97 99 101 97 99 97 98 97 99 99 100 99 101 100 103 101 101 100 101 95 93 96 98 95 98 99 97 96 97 99 97 96 98 99 101 101 100 102 99 98 97 94 93 92 91 91 90 91 91 92 93 93 93 93 92 91 91 92 93 94 95 95 94 94 95 94 95 94 94 93 92 96 97 98 101 103 104 103 100 103 100 99 99 98 99 97 97 97 95 97 97 96 97 96 97 98 99 99 97 99 102 102 101 105 105 106 105 105 104 99 96 96 94 95 97 97 97 95 98 99 99 100 100 98 99 98 99 96 98 99 98 98 100 99 103 104 111 118 121 134 127 130 133 130 130 131 132 132 131 0 0 0 0 0
    0 0 0 0 0 0 0 0 0 0 0 0 0 0 0 0 0 0 0 0 0 0 0 0 0 0 0 0 0 0 0 0 0 0 0 0 0 0 0 0 0 0 0 0 0 0 0 0 0 0 0 0 0 0 0 0 0 0 0 0 0 0 0 0 0 0 0 0 0 99 99 100 102 101 101 101 101 102 98 99 99 99 99 99 99 99 95 99 100 98 97 99 98 99 98 99 100 99 100 102 102 103 102 98 98 99 98 98 96 96 96 93 100 100 98 101 98 101 100 100 101 100 102 100 102 101 100 102 99 98 99 98 99 97 98 98 94 97 100 97 98 98 97 98 99 99 100 97 101 100 101 103 100 100 100 99 100 99 99 99 95 100 99 96 99 100 99 101 102 98 100 99 100 99 100 100 102 101 101 101 103 101 100 100 100 95 94 98 99 97 99 100 98 98 98 99 97 96 98 99 101 101 100 102 99 99 98 95 95 92 91 92 90 92 92 93 94 95 95 95 93 93 94 94 95 96 97 97 96 95 96 95 96 95 94 93 93 97 99 101 103 104 106 104 101 103 100 99 99 99 100 98 98 99 97 100 99 99 100 99 99 100 100 100 98 101 103 103 102 105 106 107 105 105 103 100 98 97 95 95 97 97 98 96 98 99 99 100 100 99 100 99 100 99 101 101 101 102 103 103 105 105 111 115 120 133 127 130 134 131 131 132 132 133 132 0 0 0 0 0
    0 0 0 0 0 0 0 0 0 0 0 0 0 0 0 0 0 0 0 0 0 0 0 0 0 0 0 0 0 0 0 0 0 0 0 0 0 0 0 0 0 0 0 0 0 0 0 0 0 0 0 0 0 0 0 0 0 0 0 0 0 0 0 0 0 0 0 0 0 100 100 101 -193 102 102 101 101 102 98 98 99 99 98 98 99 99 95 100 100 99 98 99 99 99 98 99 100 99 100 103 -193 -193 102 98 98 99 98 98 96 96 95 93 100 99 97 100 98 102 101 101 102 101 102 100 102 102 101 102 100 99 99 99 99 97 99 98 95 99 102 101 101 100 99 100 101 101 101 99 101 101 101 103 100 100 100 100 100 100 100 100 95 101 100 99 101 102 101 102 103 101 102 101 102 101 101 102 103 102 101 101 102 101 100 100 100 96 95 99 100 99 100 101 99 99 98 99 97 97 98 99 102 101 100 102 100 99 98 97 96 93 92 93 90 93 94 94 97 98 98 97 96 95 97 97 97 98 100 98 98 97 98 97 97 97 95 94 95 99 100 102 104 104 106 105 102 103 100 100 100 100 101 99 100 100 99 102 101 101 101 101 101 101 101 101 99 103 104 104 104 106 107 107 106 105 104 102 100 99 96 96 98 98 98 97 99 100 101 101 102 102 103 103 104 104 106 104 105 106 106 105 106 107 111 112 120 133 126 130 134 132 132 133 133 134 134 0 0 0 0 0
    0 0 0 0 0 0 0 0 0 0 0 0 0 0 0 0 0 0 0 0 0 0 0 0 0 0 0 0 0 0 0 0 0 0 0 0 0 0 0 0 0 0 0 0 0 0 0 0 0 0 0 0 0 0 0 0 0 0 0 0 0 0 0 0 0 0 0 0 0 103 103 103 -193 104 103 102 101 101 97 98 99 98 98 98 99 99 96 101 101 100 100 101 100 100 99 100 101 99 100 103 -193 104 102 99 99 99 98 99 96 96 95 93 100 100 99 100 99 103 102 102 103 102 103 101 103 102 101 103 100 99 99 99 99 98 98 99 95 99 101 101 101 100 100 101 101 102 102 100 101 101 101 103 100 100 100 100 100 100 100 100 94 101 100 100 102 102 102 103 105 103 103 102 103 101 102 102 103 102 101 101 102 101 101 100 101 97 97 101 101 100 100 101 100 100 99 99 98 98 99 99 102 100 100 101 100 100 98 98 97 93 93 94 91 95 97 97 99 99 99 98 96 96 97 98 98 99 101 99 99 99 99 98 98 98 97 95 97 100 101 102 104 104 106 105 104 104 101 101 100 100 102 101 101 102 101 104 103 103 104 103 103 103 103 102 102 105 106 105 105 107 107 107 107 107 107 105 104 102 97 97 99 98 98 98 99 100 101 102 102 103 104 103 104 105 107 106 107 108 108 107 108 108 111 110 119 132 126 131 135 133 133 134 134 135 135 0 0 0 0 0
    0 0 0 0 0 0 0 0 0 0 0 0 0 0 0 0 0 0 0 0 0 0 0 0 0 0 0 0 0 0 0 0 0 0 0 0 0 0 0 0 0 0 0 0 0 0 0 0 0 0 0 0 0 0 0 0 0 0 0 0 0 0 0 0 0 0 0 0 0 106 106 106 108 107 104 103 102 102 98 98 98 98 98 99 99 100 97 103 103 102 102 102 101 102 101 102 103 102 103 105 104 104 102 99 98 99 98 99 96 97 95 94 102 102 102 103 102 105 104 104 104 102 103 102 103 102 101 103 100 99 99 99 99 98 98 99 95 99 101 101 101 100 99 100 101 101 102 101 101 101 102 104 100 100 100 100 101 100 100 100 95 102 102 102 104 103 103 103 104 104 102 101 102 101 102 101 103 102 -193 101 -193 101 101 101 101 99 99 102 102 101 102 102 101 101 100 100 98 99 99 99 102 100 100 101 100 100 99 99 98 93 96 97 93 98 99 100 100 101 100 99 97 97 98 99 99 100 102 100 100 100 100 100 99 99 99 96 99 100 101 102 104 104 105 105 104 104 102 102 101 102 103 103 103 103 104 106 105 106 106 105 106 106 106 105 105 107 107 107 106 108 108 108 107 108 108 107 106 106 103 102 102 100 100 99 99 100 101 102 103 103 104 103 105 105 108 107 108 108 109 108 109 109 111 110 119 -193 126 132 136 134 134 135 135 136 136 0 0 0 0 0
    0 0 0 0 0 0 0 0 0 0 0 0 0 0 0 0 0 0 0 0 0 0 0 0 0 0 0 0 0 0 0 0 0 0 0 0 0 0 0 0 0 0 0 0 0 0 0 0 0 0 0 0 0 0 0 0 0 0 0 0 0 0 0 0 0 0 0 0 0 108 108 108 109 108 106 105 103 102 98 98 98 99 99 99 100 100 99 104 104 104 104 104 103 103 103 105 106 105 106 107 106 105 103 100 98 98 98 99 96 98 97 97 105 105 106 106 105 106 105 105 105 103 103 102 103 103 103 103 101 100 100 100 100 99 99 100 96 100 102 101 101 100 99 100 101 101 102 101 102 102 102 105 101 101 101 101 102 102 102 102 96 104 103 103 105 104 104 104 104 104 102 101 102 101 102 100 103 101 -193 101 -193 101 100 101 101 99 99 103 103 102 103 103 102 101 100 100 98 98 99 98 102 99 99 100 99 100 99 99 99 93 99 100 95 101 101 102 101 102 101 101 99 100 100 101 100 101 103 101 101 101 101 100 100 100 99 96 100 101 101 102 103 104 105 104 104 105 102 102 102 102 104 104 104 105 105 107 108 108 109 108 109 110 110 108 108 110 109 108 108 109 108 108 107 108 108 107 107 106 105 104 103 103 101 101 99 100 102 103 103 104 105 104 105 106 109 108 109 109 109 109 109 110 112 111 -193 -193 126 132 136 136 136 136 136 136 137 0 0 0 0 0
    0 0 0 0 0 0 0 0 0 0 0 0 0 0 0 0 0 0 0 0 0 0 0 0 0 0 0 0 0 0 0 0 0 0 0 0 0 0 0 0 0 0 0 0 0 0 0 0 0 0 0 0 0 0 0 0 0 0 0 0 0 0 0 0 0 0 0 0 0 108 108 108 109 108 107 106 104 102 99 99 99 99 99 100 101 102 101 106 107 106 106 105 105 105 106 107 107 107 108 108 108 107 104 101 99 99 99 100 98 100 100 101 106 108 108 108 106 107 106 106 106 104 104 103 104 104 104 104 102 100 101 101 101 100 100 101 99 102 104 103 103 101 101 102 102 103 104 103 103 103 104 108 103 103 103 103 103 103 103 104 98 105 105 104 105 105 105 106 104 106 103 103 105 103 104 102 -193 102 100 101 102 101 101 101 102 100 101 104 104 103 104 104 103 102 101 100 99 99 99 98 102 98 99 99 99 99 99 99 99 94 101 101 99 103 103 104 102 102 102 101 100 100 101 101 100 101 103 101 101 101 100 100 100 100 99 97 100 101 101 103 104 104 105 104 104 104 102 102 101 102 103 104 104 105 106 108 109 111 111 110 112 114 114 113 113 113 111 110 110 111 109 109 108 108 108 108 107 107 106 106 105 106 104 104 101 102 104 105 105 106 105 105 106 107 110 108 110 110 110 110 110 111 114 114 -193 -193 127 133 137 136 136 137 137 137 137 0 0 0 0 0
    0 0 0 0 0 0 0 0 0 0 0 0 0 0 0 0 0 0 0 0 0 0 0 0 0 0 0 0 0 0 0 0 0 0 0 0 0 0 0 0 0 0 0 0 0 0 0 0 0 0 0 0 0 0 0 0 0 0 0 0 0 0 0 0 0 0 0 0 0 108 108 109 110 109 108 107 105 103 100 100 99 99 100 101 102 103 103 107 108 107 107 106 106 106 106 108 108 108 109 110 110 108 106 103 101 101 101 102 -193 102 103 105 107 109 109 109 107 108 108 108 108 106 105 104 107 106 105 106 103 102 102 103 103 102 102 103 102 105 105 105 105 103 104 104 104 106 106 107 106 106 106 110 104 104 104 104 105 105 105 105 100 107 108 106 106 107 107 110 106 109 106 107 109 108 107 106 105 103 102 103 103 102 102 102 103 102 103 106 105 104 104 104 103 102 101 100 99 100 100 99 102 98 99 99 99 99 99 100 100 95 104 104 -193 106 106 106 103 103 102 101 100 100 101 102 100 101 103 101 101 101 101 100 100 101 100 98 101 102 102 104 104 104 105 105 104 104 101 101 101 102 103 103 104 105 106 109 110 111 111 111 113 115 114 114 115 114 113 112 112 112 109 109 108 108 108 108 108 107 107 107 107 108 106 106 103 103 104 104 104 106 106 105 107 108 112 110 112 111 111 111 111 112 114 115 -209 -209 127 133 137 137 137 137 137 137 137 0 0 0 0 0
    0 0 0 0 0 0 0 0 0 0 0 0 0 0 0 0 0 0 0 0 0 0 0 0 0 0 0 0 0 0 0 0 0 0 0 0 0 0 0 0 0 0 0 0 0 0 0 0 0 0 0 0 0 0 0 0 0 0 0 0 0 0 0 0 0 0 0 0 0 109 109 109 110 109 109 109 106 104 101 101 101 100 101 102 103 104 106 108 109 107 108 107 106 106 106 109 108 109 109 110 111 109 108 105 103 103 103 -193 -193 -193 -193 106 108 110 110 110 108 109 109 109 108 107 106 106 109 108 107 107 104 104 104 105 105 104 104 106 105 107 107 107 106 105 105 105 105 107 107 108 107 107 107 111 106 105 105 106 106 106 106 107 103 108 112 109 108 109 108 114 108 110 108 109 110 109 108 108 106 105 102 104 104 104 104 104 104 103 105 107 105 104 103 103 102 101 101 101 100 101 101 100 102 98 99 100 99 100 100 101 102 99 106 107 107 108 108 107 105 105 103 102 102 101 102 103 101 102 104 102 102 102 101 101 100 101 101 99 103 103 104 105 105 105 105 105 104 104 101 101 102 102 104 104 104 105 107 109 111 111 111 111 114 115 115 114 115 115 113 113 113 112 110 109 108 108 108 109 109 109 108 108 108 109 109 108 106 105 105 104 105 106 106 106 109 110 114 111 114 112 112 112 111 112 114 115 -209 -209 128 134 138 137 137 138 138 137 137 0 0 0 0 0
    0 0 0 0 0 0 0 0 0 0 0 0 0 0 0 0 0 0 0 0 0 0 0 0 0 0 0 0 0 0 0 0 0 0 0 0 0 0 0 0 0 0 0 0 0 0 0 0 0 0 0 0 0 0 0 0 0 0 0 0 0 0 0 0 0 0 0 0 0 110 110 110 111 110 110 110 107 105 103 103 103 101 103 104 105 106 107 109 110 109 109 108 107 108 108 111 110 110 110 111 111 110 109 107 105 105 -193 -193 -193 -193 106 107 109 110 111 110 109 110 109 110 109 108 107 107 111 109 108 108 106 106 107 108 107 106 107 108 107 109 109 109 107 106 106 105 106 107 107 108 107 108 109 112 107 107 107 108 107 108 107 108 105 109 114 110 109 110 108 113 108 110 108 109 109 109 108 108 107 106 103 105 105 105 105 105 105 105 106 108 106 105 104 103 102 102 101 101 101 102 102 100 103 99 99 100 100 101 101 103 103 103 107 109 109 110 110 109 107 107 106 103 103 103 104 104 102 103 105 103 103 103 102 102 101 102 102 101 105 105 105 106 107 107 107 106 105 104 102 102 102 103 104 104 104 105 107 109 111 112 112 112 115 116 116 115 116 115 114 113 114 113 110 110 109 109 109 110 110 110 109 109 109 110 109 108 106 106 105 105 106 108 108 109 112 113 116 113 115 113 112 112 112 112 115 116 -209 -193 128 134 138 137 137 138 137 137 137 0 0 0 0 0
    0 0 0 0 0 0 0 0 0 0 0 0 0 0 0 0 0 0 0 0 0 0 0 0 0 0 0 0 0 0 0 0 0 0 0 0 0 0 0 0 0 0 0 0 0 0 0 0 0 0 0 0 0 0 0 0 0 0 0 0 0 0 0 0 0 0 0 0 0 110 110 110 111 110 110 111 109 106 107 107 -193 -193 105 106 107 108 110 111 112 111 111 110 109 110 110 113 111 111 111 111 111 111 110 109 106 106 106 -193 -193 107 108 109 110 111 111 111 109 110 110 111 111 109 108 109 113 110 109 110 108 108 109 109 108 107 108 109 109 110 110 109 108 107 108 106 107 108 108 109 108 109 111 113 109 108 109 109 109 110 109 109 106 111 114 111 112 112 110 113 109 110 109 109 109 109 108 109 108 107 105 106 106 107 107 107 107 107 108 109 107 106 106 105 104 103 102 102 102 104 103 102 104 100 100 101 102 102 102 105 105 105 109 111 111 111 112 111 108 109 108 106 106 105 105 105 103 104 107 104 103 104 103 103 102 103 104 104 106 107 107 107 109 108 108 107 105 104 103 103 103 103 105 104 105 106 107 109 112 113 113 113 116 117 116 115 117 116 115 115 115 115 112 111 111 110 110 112 110 110 109 109 110 110 109 109 106 107 106 106 108 110 109 111 113 115 116 114 116 114 113 113 112 113 115 117 -193 -193 128 134 137 137 137 137 137 136 137 0 0 0 0 0
    0 0 0 0 0 0 0 0 0 0 0 0 0 0 0 0 0 0 0 0 0 0 0 0 0 0 0 0 0 0 0 0 0 0 0 0 0 0 0 0 0 0 0 0 0 0 0 0 0 0 0 0 0 0 0 0 0 0 0 0 0 0 0 0 0 0 0 0 0 110 110 110 111 110 110 111 109 107 111 112 -193 -193 110 112 110 112 113 113 113 112 112 110 109 111 110 113 111 112 110 111 111 111 110 110 107 107 107 110 109 109 110 110 111 112 112 111 110 111 110 112 112 110 110 112 115 111 110 111 109 109 111 111 109 108 110 111 110 111 111 109 109 108 109 107 108 110 109 109 109 111 112 114 111 110 110 112 112 112 111 110 107 112 115 112 112 113 110 114 110 111 110 110 110 109 109 111 109 108 106 108 108 108 108 108 108 108 109 111 109 108 108 107 107 106 105 105 104 106 106 105 105 102 101 103 103 103 104 107 106 107 110 112 112 112 113 112 109 111 110 108 107 106 107 107 104 104 108 105 104 105 104 104 103 104 105 107 108 109 109 108 110 110 109 108 105 104 103 103 104 104 105 105 105 106 108 110 113 114 114 114 117 117 116 116 118 117 116 117 117 117 116 116 116 114 113 115 112 113 111 111 112 112 110 109 106 106 105 106 107 108 107 109 112 115 117 115 117 114 113 113 113 114 116 118 -193 129 129 134 137 137 137 137 137 136 136 0 0 0 0 0
    0 0 0 0 0 0 0 0 0 0 0 0 0 0 0 0 0 0 0 0 0 0 0 0 0 0 0 0 0 0 0 0 0 0 0 0 0 0 0 0 0 0 0 0 0 0 0 0 0 0 0 0 0 0 0 0 0 0 0 0 0 0 0 0 0 0 0 0 0 110 110 110 111 110 110 111 109 107 112 113 113 110 115 116 115 115 116 115 114 113 112 110 109 110 110 112 111 111 110 110 111 111 110 110 108 109 109 112 111 111 111 112 112 113 113 112 111 112 111 113 113 111 110 114 115 112 112 112 111 111 113 113 111 109 113 112 111 112 111 110 110 109 111 108 110 111 110 110 110 112 113 114 112 112 112 113 114 113 112 112 108 114 115 113 113 113 111 115 111 112 111 111 110 110 110 112 109 109 108 110 109 109 110 109 109 109 110 112 109 109 109 109 109 108 107 107 106 109 108 107 107 104 103 104 105 105 105 109 108 109 111 113 113 113 113 112 109 112 110 109 109 108 109 109 107 107 111 107 106 107 107 105 104 106 107 110 110 111 111 110 111 112 110 109 106 106 105 104 105 105 105 105 106 107 109 110 113 114 115 115 117 117 117 117 119 118 117 118 118 118 118 119 118 115 115 115 113 114 112 112 112 112 111 110 107 108 106 108 108 108 109 116 116 118 118 116 117 115 114 114 113 114 116 118 -193 130 130 135 136 136 137 137 136 136 136 0 0 0 0 0
    0 0 0 0 0 0 0 0 0 0 0 0 0 0 0 0 0 0 0 0 0 0 0 0 0 0 0 0 0 0 0 0 0 0 0 0 0 0 0 0 0 0 0 0 0 0 0 0 0 0 0 0 0 0 0 0 0 0 0 0 0 0 0 0 0 0 0 0 0 110 110 110 111 110 111 111 109 107 112 113 113 110 117 117 117 117 117 117 115 115 113 110 109 110 109 112 110 111 110 110 111 111 110 111 108 109 110 113 112 112 112 113 113 113 113 113 112 113 112 113 113 112 111 114 116 112 112 113 113 113 115 114 112 110 114 112 111 112 110 110 109 110 111 109 111 112 110 111 111 112 114 114 113 113 113 114 114 114 113 112 110 115 115 114 114 114 112 115 113 113 112 112 111 111 111 112 110 109 109 111 110 110 110 109 109 110 111 112 109 109 109 109 109 109 108 108 108 111 110 109 109 107 105 107 107 107 107 113 110 111 113 114 113 114 114 113 110 113 111 110 111 110 111 112 111 110 114 111 111 110 112 108 107 109 110 114 112 113 113 112 113 114 112 111 108 107 106 105 105 106 105 105 106 107 109 110 114 115 115 116 118 118 117 119 119 119 119 120 120 120 120 120 119 117 117 117 114 116 114 114 115 115 114 113 111 116 114 117 118 118 119 122 122 120 121 118 118 116 115 115 115 115 117 120 130 130 131 135 136 136 136 136 136 135 135 0 0 0 0 0
    0 0 0 0 0 0 0 0 0 0 0 0 0 0 0 0 0 0 0 0 0 0 0 0 0 0 0 0 0 0 0 0 0 0 0 0 0 0 0 0 0 0 0 0 0 0 0 0 0 0 0 0 0 0 0 0 0 0 0 0 0 0 0 0 0 0 0 0 0 110 110 110 111 110 110 111 109 107 112 113 114 112 118 119 119 119 119 119 118 117 116 114 112 113 110 114 110 111 110 110 110 111 110 111 109 110 111 114 112 113 113 115 113 114 113 113 113 113 113 114 113 112 111 114 116 112 113 113 113 113 115 114 111 109 113 112 111 111 110 110 109 109 111 109 111 111 110 111 111 112 114 114 113 113 113 114 114 114 113 112 110 115 115 113 114 115 112 116 113 113 113 112 112 111 112 113 110 110 110 112 111 111 111 110 110 111 112 112 109 109 109 108 108 108 107 108 108 111 111 111 111 111 108 111 110 110 110 115 111 113 113 114 113 114 114 113 110 113 111 111 111 110 112 113 112 111 114 113 115 114 116 111 110 111 113 116 114 114 114 113 114 115 114 113 109 109 107 106 106 107 105 105 106 107 109 110 115 115 115 116 117 117 117 119 119 119 120 121 121 121 122 122 121 120 120 119 117 119 118 117 119 118 118 118 120 121 121 121 122 121 121 123 122 121 121 119 119 117 116 116 117 117 119 121 131 131 131 135 135 135 135 135 135 134 135 0 0 0 0 0
    0 0 0 0 0 0 0 0 0 0 0 0 0 0 0 0 0 0 0 0 0 0 0 0 0 0 0 0 0 0 0 0 0 0 0 0 0 0 0 0 0 0 0 0 0 0 0 0 0 0 0 0 0 0 0 0 0 0 0 0 0 0 0 0 0 0 0 0 0 110 110 110 112 110 111 111 109 107 112 114 115 113 119 120 120 121 120 122 121 121 121 -193 119 119 114 -193 111 112 110 111 111 111 110 111 109 111 114 116 115 115 115 117 115 116 114 114 114 114 115 115 114 114 113 116 118 114 114 114 113 114 115 114 112 110 113 112 112 111 110 110 109 110 111 109 111 111 110 111 111 112 115 114 113 113 113 114 114 114 113 111 109 113 113 112 114 114 112 115 113 113 114 112 111 111 112 113 110 110 110 113 111 112 111 110 110 111 112 111 109 109 108 108 107 108 107 107 107 110 110 111 111 113 111 114 114 113 113 117 113 114 114 114 113 114 114 113 110 113 111 111 111 111 112 113 114 114 115 116 117 116 118 114 113 114 115 117 115 114 115 114 114 115 114 113 110 111 108 108 107 109 107 107 108 109 110 111 116 115 115 116 117 116 117 118 119 117 120 122 121 121 122 123 122 121 122 121 119 120 120 120 121 121 121 121 122 123 123 122 123 122 123 123 122 122 122 120 121 119 118 118 119 119 120 123 132 131 131 135 134 134 134 135 134 134 135 0 0 0 0 0
    0 0 0 0 0 0 0 0 0 0 0 0 0 0 0 0 0 0 0 0 0 0 0 0 0 0 0 0 0 0 0 0 0 0 0 0 0 0 0 0 0 0 0 0 0 0 0 0 0 0 0 0 0 0 0 0 0 0 0 0 0 0 0 0 0 0 0 0 0 111 110 111 112 111 111 111 109 108 112 114 115 114 119 120 121 122 121 125 123 123 124 123 124 123 120 -193 114 115 113 113 113 113 111 113 111 113 117 119 118 117 118 119 117 117 116 115 114 115 116 116 116 116 116 118 119 117 116 116 115 116 117 115 113 110 114 113 112 112 110 110 110 110 111 109 111 111 110 111 111 113 116 115 114 114 114 114 115 114 113 110 109 112 111 111 114 114 112 115 113 113 114 112 111 111 113 113 111 110 110 113 111 112 111 110 110 111 112 111 108 109 108 108 107 108 107 108 107 109 109 110 110 113 111 116 115 113 114 117 113 114 114 113 113 113 114 113 110 113 111 112 112 112 113 114 115 116 117 118 119 118 119 116 116 116 115 117 115 114 115 114 114 115 114 114 110 113 111 111 110 112 110 110 112 112 112 113 117 116 116 116 117 116 117 118 118 116 120 122 121 122 122 124 123 123 124 124 121 123 124 123 124 123 124 123 123 124 125 123 124 123 123 124 122 122 122 121 122 119 118 120 120 122 124 128 134 132 133 136 135 135 135 135 135 134 135 0 0 0 0 0
    0 0 0 0 0 0 0 0 0 0 0 0 0 0 0 0 0 0 0 0 0 0 0 0 0 0 0 0 0 0 0 0 0 0 0 0 0 0 0 0 0 0 0 0 0 0 0 0 0 0 0 0 0 0 0 0 0 0 0 0 0 0 0 0 0 0 0 0 0 111 111 111 113 112 111 112 110 109 114 115 116 116 120 121 123 123 123 128 126 125 126 125 126 125 125 123 117 117 116 116 116 115 114 116 114 115 119 121 119 118 119 119 117 118 116 116 116 116 117 118 117 118 118 120 120 119 118 118 116 117 117 116 114 111 114 113 112 112 110 109 109 110 112 109 112 112 111 111 112 114 117 116 115 115 115 115 116 115 114 110 109 112 111 112 114 114 112 114 114 112 114 112 112 112 114 114 112 111 112 114 112 113 112 110 111 112 113 113 109 111 111 110 109 110 109 109 108 109 109 108 111 115 114 117 116 114 114 117 113 114 113 113 112 113 113 113 110 113 111 112 112 113 114 115 115 116 117 118 119 118 119 116 116 116 115 117 114 114 115 114 114 115 114 114 111 115 114 113 112 114 112 113 114 115 114 113 118 116 116 117 117 116 117 118 118 116 121 123 122 123 123 124 124 126 128 128 124 131 133 132 132 130 130 127 126 127 126 124 125 124 124 125 124 124 123 121 122 120 119 121 120 123 127 131 134 132 134 135 134 134 134 135 134 134 135 0 0 0 0 0
    0 0 0 0 0 0 0 0 0 0 0 0 0 0 0 0 0 0 0 0 0 0 0 0 0 0 0 0 0 0 0 0 0 0 0 0 0 0 0 0 0 0 0 0 0 0 0 0 0 0 0 0 0 0 0 0 0 0 0 0 0 0 0 0 0 0 0 0 0 113 113 114 115 114 113 113 111 111 117 118 118 118 121 122 124 124 124 130 126 127 128 126 127 126 128 125 119 119 118 119 119 118 117 117 116 117 120 121 119 118 120 121 119 119 117 117 117 117 118 -193 119 119 120 122 123 121 121 120 118 118 119 117 115 112 114 112 111 112 110 110 110 110 113 110 113 114 113 113 114 115 118 117 117 117 117 117 117 117 117 112 111 115 113 115 117 116 114 116 115 113 116 113 113 114 116 115 113 113 113 115 113 115 114 112 113 114 115 115 112 115 115 116 112 114 -193 115 -209 -193 -209 111 114 119 119 119 117 114 115 117 112 113 112 112 112 113 113 114 110 114 113 114 115 115 115 116 116 117 118 119 120 119 119 117 117 116 115 116 114 114 115 114 114 115 114 115 112 116 115 114 113 115 112 114 115 116 114 114 118 116 116 117 117 116 117 118 119 117 121 125 123 123 124 125 125 127 130 129 126 134 135 134 133 131 132 129 127 128 128 125 125 124 125 125 125 125 124 123 125 124 124 125 124 128 131 132 134 133 135 135 134 134 134 135 134 134 135 0 0 0 0 0
    0 0 0 0 0 0 0 0 0 0 0 0 0 0 0 0 0 0 0 0 0 0 0 0 0 0 0 0 0 0 0 0 0 0 0 0 0 0 0 0 0 0 0 0 0 0 0 0 0 0 0 0 0 0 0 0 0 0 0 0 0 0 0 0 0 0 0 0 0 117 117 118 118 118 115 116 113 115 119 119 120 120 122 123 126 125 125 131 127 128 129 128 129 128 129 128 122 123 121 122 122 121 122 121 121 121 122 124 122 121 123 124 120 120 119 118 118 118 119 -193 119 120 121 124 125 123 122 122 120 121 121 119 117 115 115 113 111 112 111 110 110 111 114 111 115 115 115 115 115 116 119 119 119 119 118 118 119 119 119 116 116 119 120 122 122 122 119 121 119 116 118 115 115 116 118 117 114 115 115 117 115 116 115 114 115 116 116 117 115 119 119 121 117 118 120 -193 -209 -193 -193 120 119 122 122 122 120 116 117 118 112 113 112 112 112 113 114 115 112 117 116 118 117 118 118 118 117 118 119 120 120 120 120 117 117 116 115 116 114 113 115 114 114 115 115 115 113 116 116 115 115 116 114 115 116 116 115 114 118 116 116 116 117 116 117 119 119 118 121 124 123 123 123 124 124 127 130 130 130 134 135 134 133 132 133 130 128 128 128 125 126 125 125 125 125 126 125 124 130 130 131 131 129 131 132 133 134 133 135 135 134 134 134 135 134 134 135 0 0 0 0 0
    0 0 0 0 0 0 0 0 0 0 0 0 0 0 0 0 0 0 0 0 0 0 0 0 0 0 0 0 0 0 0 0 0 0 0 0 0 0 0 0 0 0 0 0 0 0 0 0 0 0 0 0 0 0 0 0 0 0 0 0 0 0 0 0 0 0 0 0 0 121 121 121 121 121 118 118 116 117 121 120 121 121 122 123 126 126 126 132 128 129 130 130 130 129 131 129 124 127 124 124 125 124 124 122 123 123 123 125 124 123 125 125 122 121 119 118 118 118 119 -193 120 121 122 124 126 125 123 124 121 122 122 121 119 117 117 115 113 114 113 113 112 113 115 113 116 117 117 117 117 117 120 121 120 120 120 120 121 121 121 121 121 123 125 125 126 126 124 125 123 119 121 118 117 118 119 118 116 117 118 118 116 117 116 116 118 119 119 119 118 121 122 123 122 122 123 123 -193 -193 124 123 121 122 122 122 121 118 119 118 113 114 113 113 112 113 116 117 115 119 118 120 120 120 120 120 118 119 120 120 121 120 120 118 118 116 115 116 115 114 115 114 115 115 115 116 115 117 118 118 119 119 119 119 119 119 118 116 118 116 116 116 116 116 117 119 118 117 121 123 122 122 123 124 124 129 131 132 133 135 136 135 134 133 133 131 129 128 129 125 126 125 125 126 126 126 125 125 133 132 134 134 132 133 134 134 134 133 135 135 133 134 134 135 134 134 135 0 0 0 0 0
    0 0 0 0 0 0 0 0 0 0 0 0 0 0 0 0 0 0 0 0 0 0 0 0 0 0 0 0 0 0 0 0 0 0 0 0 0 0 0 0 0 0 0 0 0 0 0 0 0 0 0 0 0 0 0 0 0 0 0 0 0 0 0 0 0 0 0 0 0 125 124 125 124 126 122 122 121 122 123 122 123 122 123 124 127 126 127 132 128 129 130 130 130 129 130 129 124 129 126 126 127 125 125 124 125 124 124 126 125 123 125 126 123 121 120 119 119 119 120 122 121 122 124 125 126 126 125 125 123 124 124 123 122 121 121 119 119 120 118 120 119 120 120 118 120 120 120 120 119 120 121 124 122 122 122 122 123 124 123 123 123 126 127 126 128 128 128 128 126 -193 124 -193 -193 120 122 120 118 120 121 120 118 118 118 119 120 121 121 121 121 123 124 126 124 125 126 126 125 124 128 127 124 124 124 124 123 120 121 119 115 116 114 114 113 114 117 119 118 121 121 123 123 124 124 122 119 120 121 121 122 121 120 119 119 118 116 117 115 115 116 115 115 116 116 117 117 119 120 122 123 123 123 123 123 122 121 120 119 117 116 116 116 116 117 118 118 117 121 123 122 122 123 125 126 133 134 135 136 137 137 136 136 134 134 132 130 128 129 125 126 125 125 126 126 127 126 126 133 133 134 134 133 133 134 134 134 133 134 135 133 133 134 134 134 134 135 0 0 0 0 0
    0 0 0 0 0 0 0 0 0 0 0 0 0 0 0 0 0 0 0 0 0 0 0 0 0 0 0 0 0 0 0 0 0 0 0 0 0 0 0 0 0 0 0 0 0 0 0 0 0 0 0 0 0 0 0 0 0 0 0 0 0 0 0 0 0 0 0 0 0 127 127 129 127 130 128 129 128 128 126 125 123 122 123 124 127 126 127 132 128 129 130 130 129 129 130 128 124 130 127 127 128 126 126 124 126 125 125 126 125 123 126 126 125 123 122 120 120 121 122 124 123 123 124 125 126 126 125 125 124 125 125 124 123 123 123 122 122 122 122 124 124 124 124 123 124 123 124 123 122 122 123 127 124 124 124 123 124 125 125 125 124 128 128 128 129 129 130 131 129 125 128 126 -193 124 125 122 121 122 123 122 120 121 120 122 123 123 123 123 123 125 126 128 125 127 129 129 129 129 131 130 127 126 125 126 124 122 122 120 117 117 115 115 115 115 119 123 122 125 126 126 126 127 126 123 120 122 122 122 123 122 121 120 121 119 116 117 116 115 116 115 115 116 116 118 -193 121 124 129 127 126 126 127 127 125 124 123 120 118 117 116 116 116 117 118 119 118 121 123 123 123 124 127 131 135 136 136 137 137 137 136 136 134 134 131 129 128 130 126 127 126 126 127 127 129 127 129 134 134 134 134 134 134 134 134 133 133 134 135 133 133 134 134 134 135 136 0 0 0 0 0
    0 0 0 0 0 0 0 0 0 0 0 0 0 0 0 0 0 0 0 0 0 0 0 0 0 0 0 0 0 0 0 0 0 0 0 0 0 0 0 0 0 0 0 0 0 0 0 0 0 0 0 0 0 0 0 0 0 0 0 0 0 0 0 0 0 0 0 0 0 129 129 131 129 132 130 132 131 131 128 126 123 123 123 124 128 126 128 132 128 129 129 130 129 128 130 128 124 131 128 128 128 127 127 125 127 125 126 126 126 124 126 127 126 124 125 123 122 123 124 125 124 124 125 125 126 127 126 125 125 126 126 126 125 125 125 124 124 124 124 126 127 127 126 125 126 126 129 126 124 124 125 131 126 126 126 125 126 127 126 126 125 129 129 129 130 130 131 132 131 128 131 131 131 128 130 126 124 126 126 125 123 123 123 125 125 125 125 125 125 126 128 128 126 128 129 130 130 130 132 131 128 127 125 126 125 122 123 121 119 118 117 117 118 118 123 130 126 130 130 129 129 129 128 126 123 125 124 123 125 124 124 123 123 120 117 118 116 116 116 115 116 117 118 120 122 123 126 131 129 128 128 129 129 126 127 125 121 119 119 117 117 117 118 119 119 119 122 123 123 123 124 128 133 136 137 136 137 137 137 136 136 134 134 131 131 130 132 128 128 127 127 127 128 130 129 131 135 134 135 135 134 134 134 134 134 133 135 135 134 134 134 135 135 136 137 0 0 0 0 0
    0 0 0 0 0 0 0 0 0 0 0 0 0 0 0 0 0 0 0 0 0 0 0 0 0 0 0 0 0 0 0 0 0 0 0 0 0 0 0 0 0 0 0 0 0 0 0 0 0 0 0 0 0 0 0 0 0 0 0 0 0 0 0 0 0 0 0 0 0 128 129 130 129 131 129 131 131 132 -193 -193 124 124 123 126 128 126 128 132 128 129 129 130 129 128 130 128 124 131 129 129 128 127 126 125 126 125 125 126 126 125 126 127 127 125 127 124 125 126 126 126 125 125 125 125 125 126 125 125 126 127 127 128 126 127 126 125 125 124 125 127 127 128 127 127 129 129 132 129 127 126 127 132 127 127 127 126 127 128 127 127 125 129 129 129 130 130 130 131 131 129 131 131 132 131 131 129 127 130 129 128 126 125 126 128 127 127 126 126 127 128 129 129 126 129 129 130 130 131 132 132 129 128 125 126 125 122 123 121 120 119 118 120 120 121 129 132 129 132 131 131 130 131 130 128 125 129 126 126 128 127 127 127 126 123 119 119 119 118 118 117 118 119 121 122 124 124 127 131 129 128 129 130 130 128 129 126 122 121 120 119 119 119 119 120 120 121 122 124 124 124 125 129 135 136 137 136 137 136 136 136 135 132 134 132 133 134 135 133 132 131 130 129 130 131 129 133 136 135 135 135 135 135 135 135 134 133 135 135 134 135 136 136 137 138 139 0 0 0 0 0
    0 0 0 0 0 0 0 0 0 0 0 0 0 0 0 0 0 0 0 0 0 0 0 0 0 0 0 0 0 0 0 0 0 0 0 0 0 0 0 0 0 0 0 0 0 0 0 0 0 0 0 0 0 0 0 0 0 0 0 0 0 0 0 0 0 0 0 0 0 129 130 131 129 130 129 132 131 132 -193 -193 125 125 125 127 128 126 128 132 128 129 129 129 128 128 129 128 124 131 129 129 128 127 126 125 126 126 125 125 126 125 126 127 127 126 127 125 126 126 127 126 125 125 125 125 125 125 125 125 126 127 127 128 126 127 126 125 125 124 125 126 127 129 129 129 132 131 133 130 128 128 129 133 128 128 128 127 128 129 128 127 125 129 129 129 130 130 130 132 131 129 131 131 131 131 131 130 129 131 130 129 128 127 129 131 129 129 128 128 129 129 130 129 126 129 130 131 131 131 132 132 130 128 125 126 125 124 124 123 122 121 121 123 123 124 132 133 130 132 131 131 130 131 130 128 127 131 127 128 130 130 129 130 130 127 125 122 123 122 122 121 121 122 124 124 127 126 128 131 129 129 130 131 131 129 131 128 123 124 122 121 120 121 121 122 122 122 123 125 125 125 126 130 135 135 136 135 136 135 135 135 134 131 134 132 135 135 138 137 136 136 135 133 133 133 132 135 137 136 136 136 136 135 135 135 133 133 134 133 133 134 134 136 137 139 139 0 0 0 0 0
    0 0 0 0 0 0 0 0 0 0 0 0 0 0 0 0 0 0 0 0 0 0 0 0 0 0 0 0 0 0 0 0 0 0 0 0 0 0 0 0 0 0 0 0 0 0 0 0 0 0 0 0 0 0 0 0 0 0 0 0 0 0 0 0 0 0 0 0 0 129 131 132 129 131 131 133 133 133 -193 -193 127 127 126 128 129 127 129 131 128 129 129 129 128 128 129 127 124 131 128 127 127 126 125 125 126 125 125 125 126 126 128 129 128 126 128 126 127 126 128 126 125 126 125 125 125 126 126 125 127 128 127 128 127 127 127 125 126 124 125 126 128 130 130 130 132 132 133 131 130 130 131 133 129 129 129 127 128 129 128 127 125 128 129 128 129 130 130 132 131 130 131 131 131 131 131 130 128 131 130 129 127 127 129 132 130 130 129 130 130 130 130 129 126 129 130 130 131 130 132 131 129 128 126 127 125 125 125 124 123 123 124 128 126 128 133 133 131 132 131 131 130 131 130 129 128 131 129 130 132 131 131 132 132 130 130 127 129 128 127 126 125 125 127 126 129 127 130 132 130 130 131 131 131 130 132 129 124 128 125 123 123 123 124 124 124 124 125 126 126 125 127 131 136 134 135 134 135 134 134 134 133 129 134 133 136 137 140 140 141 140 139 138 137 137 136 136 139 137 137 137 136 135 135 134 134 133 134 134 134 134 135 136 140 140 140 0 0 0 0 0
    0 0 0 0 0 0 0 0 0 0 0 0 0 0 0 0 0 0 0 0 0 0 0 0 0 0 0 0 0 0 0 0 0 0 0 0 0 0 0 0 0 0 0 0 0 0 0 0 0 0 0 0 0 0 0 0 0 0 0 0 0 0 0 0 0 0 0 0 0 128 131 -193 130 -193 -193 135 -209 -209 -209 -209 128 129 128 130 129 127 129 131 128 129 129 130 129 129 130 128 124 131 128 127 127 126 125 125 126 125 125 126 127 126 128 129 128 126 128 126 127 127 129 126 126 126 126 126 126 126 126 125 127 129 128 129 127 127 128 126 127 125 126 127 129 130 131 130 132 132 133 131 130 130 131 133 129 130 129 127 129 129 128 127 125 128 128 128 129 130 131 132 131 130 131 131 131 132 130 130 128 130 129 129 126 126 128 131 129 130 129 130 130 130 130 129 126 129 129 130 130 130 132 131 130 129 127 128 126 126 126 125 125 125 126 129 127 130 133 133 131 132 131 131 130 130 130 129 127 131 129 131 132 132 132 132 133 132 132 130 132 131 130 130 129 128 129 128 131 128 131 133 131 131 132 132 132 131 132 130 126 130 127 125 125 125 126 126 125 126 126 127 126 126 127 132 136 134 135 134 134 133 133 133 133 129 134 134 136 138 141 142 142 142 141 141 140 141 138 137 140 138 137 137 136 136 136 135 134 132 133 134 134 134 135 137 141 142 141 0 0 0 0 0
    0 0 0 0 0 0 0 0 0 0 0 0 0 0 0 0 0 0 0 0 0 0 0 0 0 0 0 0 0 0 0 0 0 0 0 0 0 0 0 0 0 0 0 0 0 0 0 0 0 0 0 0 0 0 0 0 0 0 0 0 0 0 0 0 0 0 0 0 0 -193 130 -193 -193 -193 -209 -209 -209 -193 -209 -209 129 130 129 131 130 127 130 131 128 129 129 130 129 129 130 128 125 131 128 126 126 126 125 125 125 125 125 125 126 125 126 126 127 126 128 126 128 127 130 127 126 127 126 126 126 126 126 125 127 129 127 129 127 127 128 127 127 125 126 128 130 131 132 131 132 132 133 131 131 130 131 132 129 130 129 127 129 128 128 127 125 128 127 128 130 131 131 132 132 131 132 132 132 132 130 130 128 130 129 129 125 126 127 131 129 130 129 129 129 130 130 128 126 129 129 130 132 132 133 132 132 131 128 130 126 126 126 125 125 125 126 128 127 130 133 133 131 133 131 131 131 131 131 129 128 131 128 131 133 132 132 132 133 132 132 131 132 131 131 131 130 128 129 128 131 128 131 133 131 131 132 132 132 131 132 130 126 131 129 127 126 127 128 128 128 128 128 130 130 131 132 134 138 134 135 134 134 133 132 133 132 129 135 134 137 138 141 142 142 142 141 141 141 142 138 138 140 138 138 137 137 137 136 136 136 133 136 139 139 139 141 145 149 148 146 0 0 0 0 0
    0 0 0 0 0 0 0 0 0 0 0 0 0 0 0 0 0 0 0 0 0 0 0 0 0 0 0 0 0 0 0 0 0 0 0 0 0 0 0 0 0 0 0 0 0 0 0 0 0 0 0 0 0 0 0 0 0 0 0 0 0 0 0 0 0 0 0 0 0 -193 -209 -193 -209 -193 -193 161 -209 -209 -209 -209 131 132 131 132 131 128 131 131 128 130 130 130 130 129 131 128 125 132 129 126 125 125 124 124 125 125 125 125 127 125 126 126 127 126 128 127 129 128 131 128 127 128 127 127 127 126 126 125 128 128 127 128 127 127 127 127 127 125 126 128 130 131 133 132 133 133 134 132 132 131 132 132 129 130 129 128 129 128 128 126 125 128 126 128 130 132 132 133 132 132 132 133 132 132 130 131 128 130 129 129 126 126 127 130 128 129 128 128 129 130 130 128 126 130 129 132 133 133 134 132 133 133 131 132 128 127 127 125 126 126 125 126 125 127 133 133 131 133 131 131 131 131 131 128 128 130 127 131 133 132 131 132 133 132 132 131 132 131 131 131 130 129 129 129 130 128 131 133 131 131 132 132 132 131 132 129 127 130 130 128 127 128 129 130 130 130 131 132 132 133 134 135 139 134 135 134 134 133 132 133 132 128 135 135 137 139 141 142 142 142 141 141 141 142 138 138 141 139 138 138 137 137 137 136 136 135 138 142 142 144 146 148 150 149 148 0 0 0 0 0
    0 0 0 0 0 0 0 0 0 0 0 0 0 0 0 0 0 0 0 0 0 0 0 0 0 0 0 0 0 0 0 0 0 0 0 0 0 0 0 0 0 0 0 0 0 0 0 0 0 0 0 0 0 0 0 0 0 0 0 0 0 0 0 0 0 0 0 0 0 -209 -209 -209 -209 -193 -193 -193 150 152 142 -193 134 134 133 133 132 130 132 132 130 131 132 132 131 131 132 130 128 135 132 128 126 127 125 125 126 125 127 129 133 132 130 -193 131 130 131 130 132 131 133 130 129 130 129 128 128 127 127 126 129 129 128 129 128 127 127 128 128 126 128 130 130 132 134 133 134 134 135 133 132 132 134 132 130 131 129 127 128 128 128 126 125 127 125 128 131 133 133 134 133 132 132 132 131 132 130 131 128 129 128 128 125 126 127 128 127 128 128 128 128 129 130 127 126 130 129 131 133 133 134 132 133 133 132 132 130 128 128 126 126 126 125 125 125 125 132 131 130 132 130 130 130 130 130 128 128 130 127 130 132 132 131 132 133 132 132 131 132 132 132 132 131 130 130 130 131 129 132 132 131 131 131 132 132 131 132 128 126 129 129 127 127 127 128 129 130 130 131 132 133 133 134 135 138 133 134 133 133 131 131 131 131 127 135 135 136 139 140 142 142 142 141 141 141 142 139 140 143 140 140 139 138 138 138 137 138 137 141 147 146 147 147 149 150 149 148 0 0 0 0 0
    0 0 0 0 0 0 0 0 0 0 0 0 0 0 0 0 0 0 0 0 0 0 0 0 0 0 0 0 0 0 0 0 0 0 0 0 0 0 0 0 0 0 0 0 0 0 0 0 0 0 0 0 0 0 0 0 0 0 0 0 0 0 0 0 0 0 0 0 0 -177 -209 -209 158 166 -193 152 150 150 146 144 138 138 -209 135 134 132 133 133 131 132 133 133 132 133 134 132 132 137 135 130 129 129 128 130 130 130 132 135 137 137 -193 134 136 134 135 134 135 135 136 134 132 132 131 131 131 129 129 128 130 131 129 131 130 129 129 131 131 132 135 -193 134 135 -193 -193 136 135 135 133 133 133 135 133 131 132 130 129 130 130 129 126 125 128 125 130 132 133 134 135 133 133 131 132 131 132 130 132 130 130 129 130 126 127 128 128 126 128 128 127 127 128 130 127 127 130 129 132 133 134 134 132 133 134 133 132 130 129 129 127 127 128 126 126 126 126 132 131 130 132 130 130 130 130 131 128 129 131 129 131 132 132 131 132 133 132 132 132 133 133 133 133 132 131 131 130 131 130 132 132 131 131 132 132 132 131 131 128 126 128 128 127 126 127 128 129 130 130 132 132 133 133 134 134 137 132 132 131 131 130 129 130 130 126 135 135 136 138 140 141 141 141 141 141 141 141 138 140 143 142 142 141 140 140 139 140 140 139 148 148 148 148 147 148 149 148 147 0 0 0 0 0
    0 0 0 0 0 0 0 0 0 0 0 0 0 0 0 0 0 0 0 0 0 0 0 0 0 0 0 0 0 0 0 0 0 0 0 0 0 0 0 0 0 0 0 0 0 0 0 0 0 0 0 0 0 0 0 0 0 0 0 0 0 0 0 0 0 0 0 0 0 -177 -209 -209 155 160 151 151 150 149 147 146 142 141 140 139 136 134 135 134 132 133 134 134 133 134 135 133 134 137 137 133 133 132 133 135 137 139 141 142 145 146 144 140 144 142 141 144 141 142 145 142 137 135 134 133 133 131 132 130 132 132 132 133 132 132 133 134 135 136 139 141 138 140 143 -193 137 136 136 134 134 134 136 133 132 133 132 131 132 131 131 126 127 129 126 -193 -209 -209 -209 -209 -209 -209 134 135 134 134 133 133 133 133 133 133 131 131 131 131 128 130 129 128 128 129 131 128 129 132 132 135 136 136 137 -193 -193 -193 -193 134 131 129 129 128 129 129 126 125 126 126 132 131 130 131 130 130 130 130 131 129 129 131 130 130 132 132 131 131 132 132 132 132 134 134 134 134 133 132 132 132 132 131 133 133 132 132 132 132 132 132 132 128 127 129 128 127 127 128 129 131 132 133 134 133 134 134 134 134 136 131 131 131 131 130 129 130 130 126 135 136 137 138 140 141 141 141 141 141 141 141 139 141 145 146 149 147 146 145 144 143 145 148 152 149 149 148 148 148 149 148 147 0 0 0 0 0
    0 0 0 0 0 0 0 0 0 0 0 0 0 0 0 0 0 0 0 0 0 0 0 0 0 0 0 0 0 0 0 0 0 0 0 0 0 0 0 0 0 0 0 0 0 0 0 0 0 0 0 0 0 0 0 0 0 0 0 0 0 0 0 0 0 0 0 0 0 -209 -209 152 155 155 152 152 151 150 148 148 145 144 143 142 138 136 136 135 134 134 135 135 134 135 136 135 136 139 141 -193 137 135 -193 144 146 147 146 147 149 149 148 145 148 147 146 150 148 149 150 150 148 139 -193 136 135 133 134 133 134 135 135 135 134 135 138 138 140 139 142 141 141 143 146 139 139 139 138 137 136 136 138 135 134 135 133 132 133 132 132 127 130 132 -193 -209 -209 -209 -209 -209 -209 -209 -209 142 141 136 135 136 135 136 137 137 135 135 135 135 132 133 132 132 131 132 133 133 134 135 136 138 139 139 139 -209 -193 -193 -193 135 133 130 130 129 130 129 127 125 126 126 132 132 131 132 131 130 131 130 131 128 128 130 130 129 131 131 131 131 132 132 133 132 134 134 134 134 134 133 133 133 134 133 135 134 133 134 133 133 133 132 132 127 127 128 127 126 128 128 130 132 134 135 136 135 135 135 135 135 137 131 131 131 132 130 130 131 131 127 136 137 137 138 140 141 141 141 141 142 142 142 141 145 149 151 154 153 152 153 152 152 152 154 155 150 150 149 148 148 149 148 147 0 0 0 0 0
    0 0 0 0 0 0 0 0 0 0 0 0 0 0 0 0 0 0 0 0 0 0 0 0 0 0 0 0 0 0 0 0 0 0 0 0 0 0 0 0 0 0 0 0 0 0 0 0 0 0 0 0 0 0 0 0 0 0 0 0 0 0 0 0 0 0 0 0 0 -209 -209 152 154 153 152 153 151 151 149 149 148 147 146 146 141 139 139 137 136 136 137 137 136 137 138 138 139 143 147 -193 148 148 152 149 148 149 147 147 149 149 149 147 149 148 148 151 150 151 152 152 151 148 150 146 140 136 137 136 137 138 139 138 137 138 141 141 145 143 147 146 148 148 150 150 145 142 141 139 138 138 140 136 136 136 134 133 134 134 133 129 134 135 -209 -193 149 -209 149 -193 -209 -209 -209 -193 -193 146 142 142 144 141 146 143 139 138 138 137 135 135 134 133 134 135 136 136 137 138 -193 142 143 142 142 -209 -193 141 -193 137 134 131 130 128 130 128 127 124 127 127 134 133 132 133 133 132 132 132 132 130 130 133 133 132 134 133 132 132 133 132 133 133 134 134 135 135 135 135 134 134 136 135 136 135 135 135 134 134 134 133 132 128 128 128 128 127 129 129 131 133 134 135 136 134 135 135 136 136 138 132 131 131 132 131 130 131 132 128 136 138 138 139 140 141 142 142 141 143 142 143 142 146 151 152 155 155 155 154 155 156 155 155 155 151 151 150 149 149 149 149 149 0 0 0 0 0
    0 0 0 0 0 0 0 0 0 0 0 0 0 0 0 0 0 0 0 0 0 0 0 0 0 0 0 0 0 0 0 0 0 0 0 0 0 0 0 0 0 0 0 0 0 0 0 0 0 0 0 0 0 0 0 0 0 0 0 0 0 0 0 0 0 0 0 0 0 150 -209 152 153 152 151 152 150 150 149 149 148 148 148 148 144 144 143 143 139 139 140 139 138 139 140 140 142 147 149 147 151 152 153 151 150 150 148 148 149 150 149 147 150 149 149 151 151 152 152 153 152 151 153 153 150 145 141 139 140 141 142 139 140 139 144 144 148 148 150 149 151 151 152 153 152 149 147 144 142 140 143 137 138 138 135 135 135 136 136 134 138 140 -193 148 151 151 151 151 -209 -193 -193 -193 -209 149 150 149 149 145 149 147 144 140 140 139 138 137 135 135 137 138 140 139 142 143 -193 145 147 144 145 142 142 143 141 138 135 131 131 129 131 130 128 125 129 131 135 135 134 134 134 134 134 133 133 132 133 138 138 -193 140 142 140 137 136 136 135 135 136 136 136 137 137 137 136 136 137 136 136 136 135 135 134 134 134 133 133 129 129 128 128 128 131 131 133 134 134 136 137 134 135 135 136 136 139 132 132 132 132 131 130 132 132 128 136 138 139 139 141 141 142 141 141 143 142 144 143 146 151 152 155 156 156 155 156 157 157 156 155 152 151 150 149 149 149 150 150 0 0 0 0 0
    0 0 0 0 0 0 0 0 0 0 0 0 0 0 0 0 0 0 0 0 0 0 0 0 0 0 0 0 0 0 0 0 0 0 0 0 0 0 0 0 0 0 0 0 0 0 0 0 0 0 0 0 0 0 0 0 0 0 0 0 0 0 0 0 0 0 0 0 0 151 152 152 153 152 151 152 150 150 149 149 149 148 149 150 147 148 148 148 143 143 144 142 140 142 143 144 146 150 150 150 152 153 153 152 150 150 148 149 149 150 149 147 150 149 149 151 151 152 152 153 152 152 153 154 152 150 147 143 143 144 145 142 142 141 146 146 150 149 151 150 151 151 153 153 154 151 150 149 148 147 148 141 140 140 137 137 138 139 139 137 142 146 146 150 152 152 152 152 152 -209 152 151 -209 150 151 149 150 147 149 149 148 144 145 143 142 139 137 136 143 142 147 145 147 149 150 149 150 148 148 147 147 147 145 140 138 134 134 133 133 133 131 128 133 134 137 135 135 135 136 135 135 135 135 134 136 141 144 145 145 148 148 144 142 140 137 136 137 137 138 139 140 139 138 138 139 137 139 136 135 135 134 134 134 133 133 129 129 128 128 -209 132 132 137 -193 137 139 141 138 138 139 139 138 140 132 132 132 132 131 130 132 132 128 136 139 139 140 141 141 141 141 142 143 142 145 146 148 152 153 156 157 156 156 156 156 157 157 156 152 151 150 149 149 150 150 150 0 0 0 0 0
    0 0 0 0 0 0 0 0 0 0 0 0 0 0 0 0 0 0 0 0 0 0 0 0 0 0 0 0 0 0 0 0 0 0 0 0 0 0 0 0 0 0 0 0 0 0 0 0 0 0 0 0 0 0 0 0 0 0 0 0 0 0 0 0 0 0 0 0 0 151 152 152 153 151 151 152 150 150 150 149 149 149 150 150 148 149 150 149 147 147 147 145 142 144 146 147 149 151 151 151 153 154 153 152 151 151 149 150 150 150 150 148 151 150 150 151 151 152 152 -193 153 153 153 155 152 151 149 146 146 146 147 144 145 143 148 147 151 150 151 151 152 152 153 154 154 153 152 151 151 150 151 146 144 144 141 142 144 144 144 141 147 149 149 151 153 153 153 153 153 153 153 152 153 151 151 150 151 149 151 150 150 148 149 148 147 142 145 139 148 148 150 149 150 151 152 151 151 150 151 150 150 149 148 142 141 137 137 138 136 137 135 136 138 139 142 139 136 137 138 137 137 137 136 137 138 145 148 148 148 148 148 147 145 145 141 140 141 141 143 143 145 144 142 141 143 141 144 138 136 136 135 135 135 134 134 131 132 131 134 -193 146 144 147 149 147 147 148 149 148 146 141 141 141 133 132 132 132 131 131 132 133 128 137 140 139 140 141 141 141 141 142 144 144 147 149 152 154 156 157 157 157 156 156 156 155 156 155 152 151 150 150 149 150 151 151 0 0 0 0 0
    0 0 0 0 0 0 0 0 0 0 0 0 0 0 0 0 0 0 0 0 0 0 0 0 0 0 0 0 0 0 0 0 0 0 0 0 0 0 0 0 0 0 0 0 0 0 0 0 0 0 0 0 0 0 0 0 0 0 0 0 0 0 0 0 0 0 0 0 0 151 151 151 152 150 151 152 151 150 150 150 150 149 150 151 149 150 151 150 149 149 149 148 145 147 149 149 151 152 152 152 153 154 153 152 150 150 150 150 151 151 150 149 151 150 150 151 151 152 -193 -193 -193 153 154 155 153 151 150 148 148 148 149 147 147 146 149 149 152 152 153 153 153 153 154 154 155 154 153 152 152 151 152 148 147 147 146 147 148 148 148 145 149 150 150 152 153 154 154 154 154 154 154 153 154 152 152 152 152 151 151 151 151 150 151 151 150 147 150 146 151 150 151 151 151 152 153 152 152 151 152 152 152 151 150 146 147 144 142 147 141 140 139 142 145 144 146 148 140 141 141 140 140 140 139 141 142 148 150 149 149 149 149 149 147 148 146 144 147 146 148 148 149 149 149 147 148 146 148 142 138 138 136 136 136 134 135 134 135 135 139 147 150 152 151 152 -193 -193 151 152 152 151 147 147 143 133 133 132 132 132 131 133 133 129 137 141 140 141 142 142 142 142 144 146 146 149 151 153 155 156 157 157 157 156 156 157 155 156 154 152 151 150 150 149 150 150 150 0 0 0 0 0
    0 0 0 0 0 0 0 0 0 0 0 0 0 0 0 0 0 0 0 0 0 0 0 0 0 0 0 0 0 0 0 0 0 0 0 0 0 0 0 0 0 0 0 0 0 0 0 0 0 0 0 0 0 0 0 0 0 0 0 0 0 0 0 0 0 0 0 0 0 151 -193 151 152 150 151 152 150 150 150 150 150 149 150 151 149 150 150 150 150 149 150 148 146 148 -193 150 151 153 152 152 153 154 153 151 150 150 150 151 151 151 150 149 151 150 150 151 151 151 -193 -177 -193 -193 154 155 153 151 150 149 148 148 149 148 148 148 150 149 152 152 153 153 153 153 154 155 155 154 154 153 153 153 153 149 149 149 149 149 150 149 149 147 151 151 151 152 153 154 154 154 154 154 155 154 154 153 153 152 153 151 151 151 152 151 152 152 151 150 152 151 153 152 152 152 152 153 154 153 153 152 153 153 153 153 153 151 152 152 150 151 148 146 146 147 148 148 148 149 144 145 145 145 144 145 145 147 147 150 152 151 151 150 150 150 148 149 147 145 148 148 -193 -193 -193 151 151 150 151 149 151 148 142 142 139 138 138 136 137 136 137 139 145 150 151 153 152 -193 -193 -193 152 153 153 153 150 150 147 134 134 133 133 133 133 134 135 132 138 143 141 142 143 142 143 143 145 147 148 151 152 154 155 157 157 157 157 156 157 157 154 156 154 153 152 150 150 149 150 152 -193 0 0 0 0 0
    0 0 0 0 0 0 0 0 0 0 0 0 0 0 0 0 0 0 0 0 0 0 0 0 0 0 0 0 0 0 0 0 0 0 0 0 0 0 0 0 0 0 0 0 0 0 0 0 0 0 0 0 0 0 0 0 0 0 0 0 0 0 0 0 0 0 0 0 0 151 150 150 151 150 150 151 150 150 150 150 150 149 151 150 149 151 150 150 149 150 150 149 147 149 -193 151 152 153 152 152 153 154 152 151 150 150 150 151 151 151 150 149 151 150 149 150 150 151 -193 750 -193 -193 153 154 152 150 150 149 148 149 149 149 149 148 150 149 151 152 152 152 153 152 -193 154 155 154 154 153 154 154 154 150 150 150 150 151 151 150 150 149 152 152 152 152 153 154 154 154 154 154 155 154 154 153 153 153 153 152 152 152 153 152 153 153 152 151 153 152 154 153 153 153 153 153 154 153 153 153 153 153 154 154 154 153 153 153 153 153 151 149 149 149 150 149 150 150 147 148 148 148 147 149 148 150 149 152 153 152 152 151 151 151 150 150 149 146 149 148 -193 -193 -193 151 152 151 152 152 152 152 148 147 143 142 143 140 140 139 139 148 149 151 151 153 152 153 153 153 153 153 153 153 152 152 149 135 135 135 135 135 135 136 137 136 140 147 143 143 145 143 144 144 146 148 149 151 152 155 155 156 156 157 156 156 157 157 154 155 154 154 153 151 -193 151 152 154 156 0 0 0 0 0
    0 0 0 0 0 0 0 0 0 0 0 0 0 0 0 0 0 0 0 0 0 0 0 0 0 0 0 0 0 0 0 0 0 0 0 0 0 0 0 0 0 0 0 0 0 0 0 0 0 0 0 0 0 0 0 0 0 0 0 0 0 0 0 0 0 0 0 0 0 151 150 150 151 150 151 151 150 150 150 150 150 149 151 150 150 151 150 150 150 150 150 150 148 150 152 152 152 153 152 153 153 153 151 150 150 150 150 152 151 151 150 150 152 150 150 150 150 -193 -193 752 754 -177 -193 -193 -193 149 149 149 148 148 149 149 149 149 150 149 151 152 -193 -193 -193 -209 -193 154 155 154 154 154 155 154 154 151 151 151 151 151 151 150 150 149 152 152 151 152 153 153 154 154 154 154 154 154 154 153 154 153 154 153 153 153 154 153 155 154 154 153 154 153 155 153 153 153 153 153 153 153 153 152 153 154 154 154 154 153 153 153 153 154 152 150 150 150 150 150 150 149 148 149 150 150 149 150 150 151 151 152 153 152 152 152 151 152 151 151 150 147 150 149 150 -193 -193 151 151 151 152 152 152 153 151 151 150 150 151 -193 149 147 146 153 151 152 152 154 153 154 155 154 154 154 154 154 153 154 152 141 138 138 137 138 138 144 143 140 144 149 145 146 146 145 145 145 147 149 149 152 152 154 154 155 155 155 155 154 155 155 153 154 -193 154 155 155 156 154 155 157 162 0 0 0 0 0
    0 0 0 0 0 0 0 0 0 0 0 0 0 0 0 0 0 0 0 0 0 0 0 0 0 0 0 0 0 0 0 0 0 0 0 0 0 0 0 0 0 0 0 0 0 0 0 0 0 0 0 0 0 0 0 0 0 0 0 0 0 0 0 0 0 0 0 0 0 150 149 149 151 149 150 150 149 150 150 150 150 149 151 149 150 151 150 150 149 149 149 149 148 150 151 151 151 153 151 152 153 153 151 149 149 150 151 152 151 151 150 151 153 150 150 150 150 -193 -193 752 754 747 -193 -209 -209 150 150 150 148 148 149 149 149 149 150 150 151 152 -193 -193 -193 -209 -193 153 154 154 154 154 156 154 155 151 151 151 151 151 151 150 150 148 152 151 151 152 152 153 153 153 154 153 154 154 154 153 154 154 154 154 154 154 156 155 157 156 156 155 155 155 156 153 153 152 153 153 153 153 153 152 153 154 154 154 153 152 152 152 152 152 151 149 149 149 149 149 150 149 148 149 150 151 150 152 151 152 151 152 154 153 152 152 152 152 151 152 151 149 151 150 151 151 151 151 151 152 152 -193 153 154 154 154 154 154 155 155 153 153 151 154 153 152 152 155 154 155 156 155 155 155 155 155 154 154 153 149 148 148 146 149 150 150 149 147 148 150 146 147 148 146 146 146 148 149 150 152 152 154 154 155 155 155 154 154 154 155 152 154 153 155 156 157 160 156 158 158 162 0 0 0 0 0
    0 0 0 0 0 0 0 0 0 0 0 0 0 0 0 0 0 0 0 0 0 0 0 0 0 0 0 0 0 0 0 0 0 0 0 0 0 0 0 0 0 0 0 0 0 0 0 0 0 0 0 0 0 0 0 0 0 0 0 0 0 0 0 0 0 0 0 0 0 150 149 148 151 149 150 149 149 149 149 150 149 148 -177 -177 150 150 149 149 148 149 148 148 148 149 151 151 151 153 152 153 154 154 152 150 151 152 153 153 153 152 151 151 154 151 150 150 150 -193 -193 751 753 747 -193 -209 -209 149 149 150 148 148 148 149 149 149 -193 150 -193 -193 -193 -193 -193 -193 -209 153 154 153 154 153 155 153 154 151 151 151 151 151 151 149 150 147 151 151 151 151 152 153 153 153 154 154 154 154 154 153 154 154 155 155 155 155 158 158 159 157 158 156 155 155 157 153 153 152 153 153 153 153 153 151 153 154 154 153 152 151 151 151 151 151 150 149 149 149 149 149 150 149 148 149 150 151 150 152 151 152 152 152 154 153 152 152 152 152 151 152 151 149 151 151 151 151 151 151 151 151 152 -209 153 154 155 155 156 157 157 157 154 155 153 155 154 154 153 156 154 155 157 155 155 155 155 155 154 155 154 151 153 153 152 153 153 152 151 151 150 151 147 148 149 147 148 148 149 151 152 153 153 155 154 155 155 155 154 154 154 155 152 153 149 153 153 154 157 155 157 157 161 0 0 0 0 0
    0 0 0 0 0 0 0 0 0 0 0 0 0 0 0 0 0 0 0 0 0 0 0 0 0 0 0 0 0 0 0 0 0 0 0 0 0 0 0 0 0 0 0 0 0 0 0 0 0 0 0 0 0 0 0 0 0 0 0 0 0 0 0 0 0 0 0 0 0 151 149 148 151 149 150 149 149 150 150 150 150 148 150 148 150 150 148 148 148 148 148 148 148 148 150 151 151 -193 151 152 153 152 -193 150 151 151 152 153 152 152 152 151 154 151 151 151 -193 -193 -193 751 753 747 -193 -209 -193 148 149 150 148 148 148 149 149 149 -193 -193 -193 -193 -193 -193 -193 -193 -193 -193 153 153 153 152 154 152 154 150 151 150 151 150 150 149 149 146 150 150 150 151 151 153 153 153 154 154 155 154 154 154 154 154 155 156 155 155 158 158 159 157 158 156 154 155 157 153 153 153 153 153 153 153 153 152 153 154 154 153 152 151 151 151 151 151 151 149 150 150 150 151 151 150 149 150 151 151 151 152 151 152 152 152 154 153 153 153 152 153 151 152 152 150 151 151 151 151 151 151 150 151 151 -209 152 154 154 155 156 157 157 157 154 155 153 154 155 154 154 157 155 156 157 155 155 155 155 155 154 155 154 150 153 154 153 154 154 152 152 153 152 152 150 150 150 150 150 151 151 152 154 154 154 156 155 155 155 155 154 154 154 155 149 153 148 154 156 161 165 166 167 166 167 0 0 0 0 0
    0 0 0 0 0 0 0 0 0 0 0 0 0 0 0 0 0 0 0 0 0 0 0 0 0 0 0 0 0 0 0 0 0 0 0 0 0 0 0 0 0 0 0 0 0 0 0 0 0 0 0 0 0 0 0 0 0 0 0 0 0 0 0 0 0 0 0 0 0 151 149 148 152 150 151 150 150 150 150 150 150 149 150 147 150 150 148 148 148 148 148 148 149 149 150 150 150 -193 150 151 151 150 -193 149 150 151 152 152 152 152 152 152 155 151 151 151 -193 -193 -193 752 754 747 -193 -193 -193 148 149 150 148 147 147 148 148 149 -193 -193 -193 -193 -193 -193 -193 -193 -193 -193 154 153 153 152 154 152 153 150 150 150 150 150 150 148 149 145 150 149 149 149 150 151 153 152 154 154 155 155 155 154 155 155 155 156 155 155 157 157 158 156 157 155 155 155 158 153 153 153 153 153 -193 153 153 152 154 154 154 154 153 151 151 152 152 152 152 150 151 151 151 152 152 151 151 151 152 152 152 153 151 153 152 152 154 153 153 153 153 153 152 153 153 150 151 151 151 151 151 151 150 151 151 151 151 153 154 155 155 156 156 156 154 155 153 155 156 156 155 157 155 156 158 156 155 155 155 155 154 154 153 150 152 153 154 154 154 152 153 154 153 154 152 152 153 154 154 154 154 155 155 156 154 156 155 155 155 155 155 154 154 155 150 153 151 155 158 163 166 169 170 169 169 0 0 0 0 0
    0 0 0 0 0 0 0 0 0 0 0 0 0 0 0 0 0 0 0 0 0 0 0 0 0 0 0 0 0 0 0 0 0 0 0 0 0 0 0 0 0 0 0 0 0 0 0 0 0 0 0 0 0 0 0 0 0 0 0 0 0 0 0 0 0 0 0 0 0 152 150 149 152 151 152 150 150 150 150 150 150 149 150 147 151 150 148 148 148 149 148 149 150 150 150 151 150 150 149 150 150 149 149 148 150 151 152 152 152 152 152 152 156 152 152 152 -193 -193 -193 754 755 -193 -193 -193 -209 149 149 150 149 147 146 147 148 148 -193 -193 -193 -193 -193 -193 -193 154 -193 -193 153 153 153 152 154 152 154 150 150 150 150 150 150 148 149 144 150 148 148 149 150 150 151 151 153 153 154 154 154 154 155 155 156 156 155 155 157 157 157 156 157 156 155 156 159 153 153 153 153 153 -193 153 153 151 153 153 153 153 152 151 151 152 153 153 152 151 152 152 152 152 152 151 151 152 152 152 152 152 151 153 152 152 155 154 154 154 153 154 153 154 153 151 151 151 151 151 151 151 151 151 151 152 152 154 154 155 156 156 156 156 155 155 155 157 158 157 157 158 156 156 159 156 155 155 154 154 153 154 153 150 151 153 154 154 154 153 153 155 153 154 152 153 154 155 155 156 155 156 155 156 154 156 154 155 154 155 154 154 154 155 152 154 154 156 162 166 167 170 172 171 170 0 0 0 0 0
    0 0 0 0 0 0 0 0 0 0 0 0 0 0 0 0 0 0 0 0 0 0 0 0 0 0 0 0 0 0 0 0 0 0 0 0 0 0 0 0 0 0 0 0 0 0 0 0 0 0 0 0 0 0 0 0 0 0 0 0 0 0 0 0 0 0 0 0 0 154 152 151 154 152 152 149 150 151 150 150 150 150 150 148 153 151 148 149 149 150 150 150 151 151 151 151 150 151 150 150 150 150 149 149 151 151 151 153 153 152 152 152 157 152 152 152 152 152 152 152 -193 144 153 153 151 150 150 151 149 147 146 146 147 147 -193 149 149 150 -193 153 -193 153 153 153 152 152 153 151 154 152 154 150 151 150 151 150 150 148 149 144 150 149 149 148 149 150 151 150 152 152 153 154 154 154 155 156 156 157 155 155 157 156 157 155 156 156 155 156 159 153 154 153 153 153 -193 153 153 151 153 153 153 153 153 152 152 153 153 153 153 152 153 152 152 153 152 152 151 152 152 152 152 152 151 152 151 153 155 154 154 154 154 154 154 155 154 152 152 152 151 151 151 151 151 151 151 153 152 154 155 155 156 156 157 156 155 156 156 159 161 158 158 159 157 157 159 156 156 155 155 154 153 154 153 150 151 153 154 154 154 154 153 155 153 155 153 155 155 156 156 156 155 156 155 157 154 155 154 155 154 154 154 154 154 155 153 155 155 159 166 167 168 171 172 171 170 0 0 0 0 0
    0 0 0 0 0 0 0 0 0 0 0 0 0 0 0 0 0 0 0 0 0 0 0 0 0 0 0 0 0 0 0 0 0 0 0 0 0 0 0 0 0 0 0 0 0 0 0 0 0 0 0 0 0 0 0 0 0 0 0 0 0 0 0 0 0 0 0 0 0 156 154 153 157 154 154 149 150 151 150 150 150 150 150 148 153 152 149 150 150 151 151 151 151 151 151 151 150 152 150 150 151 -193 -193 151 152 -209 -209 -209 -209 -193 -193 152 157 153 153 153 153 153 152 153 153 145 153 152 151 150 150 151 149 147 144 144 146 146 148 149 148 149 -193 153 154 154 153 153 152 152 153 151 154 152 154 151 151 151 151 150 150 149 150 145 150 150 149 148 150 150 151 150 151 152 151 153 154 154 156 156 156 157 156 156 157 156 157 155 156 155 155 155 160 153 154 153 153 153 -193 153 153 151 153 153 153 -193 152 -193 151 153 153 154 153 153 154 154 153 154 153 152 152 152 152 152 152 153 152 153 151 153 155 154 154 154 155 155 155 156 155 153 153 152 151 151 151 151 150 151 151 152 152 154 155 155 156 157 157 157 156 157 157 159 161 158 159 159 157 158 160 157 156 155 155 154 154 154 153 151 150 153 154 154 153 153 152 154 152 155 153 154 155 156 156 157 156 158 155 158 154 155 154 155 154 155 154 154 154 155 155 157 156 161 167 168 168 171 171 170 170 0 0 0 0 0
    0 0 0 0 0 0 0 0 0 0 0 0 0 0 0 0 0 0 0 0 0 0 0 0 0 0 0 0 0 0 0 0 0 0 0 0 0 0 0 0 0 0 0 0 0 0 0 0 0 0 0 0 0 0 0 0 0 0 0 0 0 0 0 0 0 0 0 0 0 159 157 156 160 157 158 150 151 151 151 151 151 150 150 148 153 152 150 150 150 151 151 151 152 151 151 151 150 152 151 -193 -209 -209 -209 -209 -209 -209 -209 -193 276 275 272 -193 158 154 154 153 154 154 153 153 153 147 152 152 152 150 149 150 150 146 143 142 143 144 -193 -209 -209 -209 -209 -209 -209 -193 -209 -209 -209 -209 154 152 153 152 155 151 152 152 152 151 151 150 150 146 150 149 149 148 150 150 150 149 151 152 -193 153 153 154 156 156 155 157 156 156 156 156 156 154 155 155 154 154 159 153 154 153 153 153 153 153 -193 151 153 153 153 -193 153 152 151 154 153 154 154 154 155 154 154 154 153 153 152 152 152 152 152 153 152 153 152 153 154 154 154 154 155 155 155 156 154 153 153 152 151 150 151 151 150 151 151 151 152 153 154 154 155 156 155 156 156 157 158 159 161 158 160 159 157 159 160 157 156 155 155 154 154 155 153 151 151 152 153 153 152 152 151 153 151 153 152 153 155 157 157 158 158 159 156 161 155 155 154 155 155 155 155 155 154 156 157 158 158 -193 167 167 168 170 171 170 170 0 0 0 0 0
    0 0 0 0 0 0 0 0 0 0 0 0 0 0 0 0 0 0 0 0 0 0 0 0 0 0 0 0 0 0 0 0 0 0 0 0 0 0 0 0 0 0 0 0 0 0 0 0 0 0 0 0 0 0 0 0 0 0 0 0 0 0 0 0 0 0 0 0 0 164 160 159 162 159 160 150 151 151 151 151 151 150 150 149 153 152 150 150 150 151 152 151 152 151 151 150 150 151 151 -209 -209 -209 -209 -193 -177 -209 -209 282 275 273 272 -193 159 155 154 154 154 154 154 153 153 148 153 153 153 151 150 151 152 -193 143 141 143 -193 -193 -209 -209 -209 -209 -209 -193 -209 -209 -209 -209 -209 -209 151 153 152 156 152 152 152 152 151 151 150 150 146 150 149 149 149 150 149 150 149 150 -193 -193 -209 -209 153 155 155 154 156 155 154 155 155 156 155 155 155 154 154 159 154 154 153 153 153 153 153 153 152 153 153 153 153 153 152 151 154 154 154 154 154 154 154 153 153 153 153 152 152 152 152 152 153 152 153 152 153 154 154 154 154 154 155 154 155 154 153 153 152 151 150 150 151 151 151 151 151 152 153 153 153 154 154 154 155 155 156 157 158 161 158 160 159 157 159 159 157 156 155 155 155 155 155 154 152 151 153 154 153 152 152 150 151 151 152 151 152 154 157 158 158 159 160 157 163 156 156 155 157 156 156 156 156 155 159 161 161 -209 -209 167 168 169 170 171 171 170 0 0 0 0 0
    0 0 0 0 0 0 0 0 0 0 0 0 0 0 0 0 0 0 0 0 0 0 0 0 0 0 0 0 0 0 0 0 0 0 0 0 0 0 0 0 0 0 0 0 0 0 0 0 0 0 0 0 0 0 0 0 0 0 0 0 0 0 0 0 0 0 0 0 0 173 166 163 163 162 163 151 151 152 151 151 151 151 151 150 154 153 151 151 152 153 153 152 153 152 -193 -193 150 -193 -209 -209 -209 -209 265 273 281 -209 -193 282 270 270 269 -193 160 155 154 154 154 154 154 153 154 148 153 153 153 151 150 151 152 148 144 140 143 -193 -193 -209 -209 -193 -209 -209 -209 -209 -209 -209 -209 -177 -209 151 152 151 155 152 152 152 152 152 151 151 151 147 150 150 149 149 150 150 151 -193 -193 -209 -177 -193 -209 -209 154 154 153 155 154 153 154 155 156 156 155 154 154 153 158 154 154 153 153 153 153 154 153 152 153 153 153 154 154 153 153 156 156 156 156 156 155 155 154 154 153 153 153 153 152 152 153 154 153 153 152 153 153 153 153 154 154 154 153 154 153 153 153 152 151 151 151 151 151 151 151 151 152 152 153 152 152 153 153 154 154 155 156 157 160 158 159 159 157 159 159 156 156 155 155 155 155 155 154 153 152 153 154 154 152 153 151 152 151 152 152 153 154 157 158 158 159 161 157 163 156 156 156 157 157 157 157 157 155 159 161 162 -193 -209 -193 169 169 171 172 171 171 0 0 0 0 0
    0 0 0 0 0 0 0 0 0 0 0 0 0 0 0 0 0 0 0 0 0 0 0 0 0 0 0 0 0 0 0 0 0 0 0 0 0 0 0 0 0 0 0 0 0 0 0 0 0 0 0 0 0 0 0 0 0 0 0 0 0 0 0 0 0 0 0 0 0 179 167 164 164 165 166 153 153 154 152 152 152 152 151 151 155 155 -193 -193 -193 -193 -209 -209 -209 -209 293 -209 -209 -209 -209 -209 -209 -209 261 265 266 267 267 269 265 267 268 -193 -193 155 155 155 155 155 155 154 154 148 153 154 154 152 150 152 152 148 143 139 142 142 -209 -193 -177 302 -209 -209 -209 -209 -209 -209 -209 -209 -209 152 153 152 157 153 153 152 153 152 152 151 151 147 151 151 150 150 -193 -193 -193 -193 -193 -209 -193 0 -193 152 153 153 152 154 153 152 153 154 156 156 154 154 153 153 157 153 154 153 153 153 153 154 153 152 154 153 154 154 154 155 155 160 158 157 156 156 155 155 154 154 153 153 153 153 153 153 154 155 154 154 153 154 154 153 153 153 153 153 152 154 152 153 152 152 151 150 150 151 151 151 150 151 151 151 152 151 151 153 153 154 154 154 155 156 158 158 158 157 156 159 158 156 156 155 155 155 155 155 153 153 153 154 155 155 153 154 152 153 152 153 154 154 155 157 157 159 160 162 158 164 157 156 156 157 157 157 157 157 155 159 161 162 163 165 169 170 171 172 173 172 172 0 0 0 0 0
    0 0 0 0 0 0 0 0 0 0 0 0 0 0 0 0 0 0 0 0 0 0 0 0 0 0 0 0 0 0 0 0 0 0 0 0 0 0 0 0 0 0 0 0 0 0 0 0 0 0 0 0 0 0 0 0 0 0 0 0 0 0 0 0 0 0 0 0 0 185 -193 167 165 166 168 156 155 155 154 154 154 153 153 153 158 159 -193 -209 -209 -209 -209 -209 -209 -209 293 298 296 -209 -209 -209 -209 258 254 258 259 253 259 263 263 265 -193 -193 -193 157 156 155 155 155 156 154 154 148 153 154 155 153 -193 -193 -193 149 145 -209 142 -193 -209 -209 -209 -193 -209 -209 -193 -193 -209 -209 -209 -209 -193 153 154 154 162 155 154 154 153 153 152 151 151 148 151 151 150 151 -209 -209 -209 -193 -193 -193 0 0 -193 151 153 152 152 153 153 151 -177 153 155 155 154 153 153 153 157 153 154 153 152 153 153 153 153 151 153 153 154 154 155 155 155 162 158 157 156 155 155 154 153 153 152 153 153 153 153 153 154 155 155 154 153 155 154 153 153 152 153 153 152 153 151 152 152 151 150 150 150 151 151 152 150 151 152 152 152 151 151 152 153 154 155 154 155 156 158 157 157 156 154 158 156 156 155 155 155 155 155 155 153 154 154 154 156 156 153 155 154 155 153 154 154 154 155 159 158 160 162 163 160 165 157 156 156 157 157 157 157 157 156 159 161 163 164 166 169 170 172 173 174 174 173 0 0 0 0 0
    0 0 0 0 0 0 0 0 0 0 0 0 0 0 0 0 0 0 0 0 0 0 0 0 0 0 0 0 0 0 0 0 0 0 0 0 0 0 0 0 0 0 0 0 0 0 0 0 0 0 0 0 0 0 0 0 0 0 0 0 0 0 0 0 0 0 0 0 0 186 172 172 167 168 170 156 156 155 155 155 156 155 155 156 162 163 165 -209 -209 -209 -209 -193 -209 -177 294 297 297 299 -193 -209 -209 251 249 250 -193 243 249 253 -209 -209 178 172 174 160 157 156 155 155 157 155 156 146 153 156 -193 -209 -209 -193 -209 -209 -209 -209 -209 -209 293 -193 -209 -209 -209 -209 -209 -209 -209 -193 -209 -209 -209 153 155 157 165 157 156 155 155 154 -193 152 152 148 151 -209 151 152 -209 -193 -193 -177 0 0 0 0 -193 -193 153 151 150 152 -177 -177 -177 152 154 155 -193 152 -209 -193 156 153 154 152 152 153 153 153 153 151 153 153 154 154 155 155 156 162 158 156 155 155 154 154 -209 152 152 152 153 152 152 152 153 155 155 154 153 156 153 153 152 151 151 152 151 152 150 151 151 151 150 150 149 151 151 152 151 151 153 153 152 152 152 153 154 155 155 154 154 156 157 155 155 154 153 156 156 155 155 155 155 155 155 156 154 154 154 155 155 156 153 154 152 154 153 153 153 154 154 158 159 161 163 164 161 165 156 156 155 156 156 156 156 156 156 161 163 164 166 167 169 171 172 173 173 173 173 0 0 0 0 0
    0 0 0 0 0 0 0 0 0 0 0 0 0 0 0 0 0 0 0 0 0 0 0 0 0 0 0 0 0 0 0 0 0 0 0 0 0 0 0 0 0 0 0 0 0 0 0 0 0 0 0 0 0 0 0 0 0 0 0 0 0 0 0 0 0 0 0 0 0 183 179 175 169 173 172 -193 162 159 159 162 163 163 163 163 166 167 170 -209 -209 -209 -209 -209 -209 -209 294 297 299 -209 -209 -209 -209 -209 -193 242 -209 -193 -209 -193 184 184 184 182 182 174 166 160 158 158 164 161 -209 -209 -209 -209 -209 -209 -209 -209 172 187 180 -209 -209 -209 -209 -209 -209 -209 -209 -193 420 -193 -193 -193 -209 -209 -209 154 161 -209 -193 161 159 158 157 156 155 153 153 150 152 -209 -209 -209 -193 -193 -193 0 0 -177 0 0 -193 -209 -193 92 -193 -177 -177 -177 -209 -209 -193 -209 -209 -177 -177 -177 155 153 154 152 152 153 153 153 153 152 153 153 155 -193 155 156 157 165 160 155 154 154 154 -193 -209 152 151 152 152 152 151 152 153 154 155 154 154 157 152 152 151 151 150 151 150 150 149 150 150 149 149 148 148 150 149 150 149 150 152 152 152 151 152 153 153 155 155 154 153 155 156 155 154 153 152 156 155 155 155 155 155 155 156 156 154 155 156 -193 -193 -209 -209 -193 -193 -209 152 152 153 154 155 158 159 161 163 165 162 164 156 155 155 156 156 156 156 156 156 160 163 165 166 167 169 171 172 173 172 172 172 0 0 0 0 0
    0 0 0 0 0 0 0 0 0 0 0 0 0 0 0 0 0 0 0 0 0 0 0 0 0 0 0 0 0 0 0 0 0 0 0 0 0 0 0 0 0 0 0 0 0 0 0 0 0 0 0 0 0 0 0 0 0 0 0 0 0 0 0 0 0 0 0 0 0 183 182 180 176 180 177 176 171 169 167 168 168 169 169 169 170 178 180 186 187 194 -209 -209 -193 -209 -209 -209 -209 -209 -209 -209 -209 -209 -209 -193 200 203 190 189 185 184 185 183 183 182 176 -209 176 -209 180 178 -209 -209 -209 -209 -209 -209 -193 -209 181 186 -193 -209 -209 -209 -209 -209 -209 -209 -209 418 421 424 421 -209 -209 -209 -209 161 169 -209 -209 167 167 165 164 164 165 156 155 152 153 154 -209 -209 -193 -209 -209 0 -177 -193 -193 -193 -209 -193 91 91 92 -209 -209 -209 -209 39 44 -209 42 -177 -177 -177 -193 -209 153 151 152 153 153 154 154 152 153 153 155 -193 -209 158 161 169 164 -209 155 154 154 154 -193 151 151 152 153 152 152 152 153 155 156 154 155 159 152 152 151 151 150 151 150 150 149 150 149 148 147 147 147 149 148 148 148 149 151 151 -193 151 151 152 153 155 154 153 152 154 154 -193 153 148 150 154 154 154 155 155 155 156 156 157 155 156 -193 -209 -209 -209 -209 -209 -209 -209 -209 -193 151 154 155 159 162 164 165 166 164 164 156 156 156 156 156 156 155 155 155 159 162 164 166 167 169 171 172 173 173 173 172 0 0 0 0 0
    0 0 0 0 0 0 0 0 0 0 0 0 0 0 0 0 0 0 0 0 0 0 0 0 0 0 0 0 0 0 0 0 0 0 0 0 0 0 0 0 0 0 0 0 0 0 0 0 0 0 0 0 0 0 0 0 0 0 0 0 0 0 0 0 0 0 0 0 0 183 183 182 181 182 181 180 179 174 172 172 171 171 171 172 173 179 181 185 185 188 -193 -209 -193 -193 -209 -209 -209 -193 -209 -193 -177 -209 -193 188 194 196 187 187 185 184 185 184 184 182 182 184 182 183 183 183 -193 -209 -209 -209 -209 -193 -209 -209 182 184 -193 -193 -193 -209 -209 -209 -209 -209 -193 421 423 426 -193 -209 -209 -209 -209 167 175 184 -193 179 179 -209 -209 -209 -193 -209 160 154 -209 155 -209 -209 -209 -209 -209 -209 -193 -193 93 -193 -193 -193 -209 -209 -209 -209 -209 -209 40 39 42 -193 40 -177 -177 -177 -209 -193 153 151 152 155 154 155 154 -193 154 -193 -193 117 -193 -209 167 170 -209 -209 160 157 156 153 151 150 151 152 155 153 152 152 155 158 161 159 162 169 158 156 152 152 151 152 150 150 149 149 148 147 147 146 146 149 148 148 149 150 -193 -209 -177 -193 -193 -193 154 155 155 153 152 154 154 -209 152 143 149 154 153 154 155 155 155 156 157 158 155 157 -209 37 -209 -209 -209 -209 -209 -209 -209 -209 -193 -209 156 162 166 167 168 167 166 165 157 157 156 156 156 156 156 155 155 159 161 163 166 167 169 171 172 173 174 174 172 0 0 0 0 0
    0 0 0 0 0 0 0 0 0 0 0 0 0 0 0 0 0 0 0 0 0 0 0 0 0 0 0 0 0 0 0 0 0 0 0 0 0 0 0 0 0 0 0 0 0 0 0 0 0 0 0 0 0 0 0 0 0 0 0 0 0 0 0 0 0 0 0 0 0 184 183 182 182 183 182 181 180 176 174 174 172 172 172 175 175 180 182 185 184 186 187 186 -209 -209 -209 -209 183 184 184 -209 -193 -193 185 185 189 188 185 185 184 184 184 183 183 182 183 184 183 184 185 184 184 186 186 186 185 186 185 184 183 184 181 181 -193 179 -193 -209 -209 -209 -209 423 425 -193 -209 -209 -209 -193 182 174 179 185 184 182 182 183 -193 -193 -193 -193 -193 179 184 179 180 -209 -209 -209 519 -209 -209 -209 -209 -209 -193 -209 -209 -193 -193 -193 -209 -209 38 38 39 38 -177 -177 -193 -209 -209 -177 152 152 153 157 159 165 163 -209 160 -209 -193 -193 -209 174 170 173 -193 -209 -209 -209 166 -209 -209 -209 -209 154 166 171 -209 -209 -193 165 169 169 171 174 -209 -193 166 -193 -193 153 -193 151 150 150 149 148 148 146 147 149 148 148 150 151 153 -209 -209 -209 -193 -193 -209 -193 -193 -193 154 156 -209 -209 -209 -209 149 155 153 153 155 156 155 156 157 159 156 -193 34 32 -209 -209 -209 -209 -209 -209 -193 -209 -209 -209 164 168 171 171 172 172 -193 -209 158 158 157 155 156 156 156 156 155 159 161 163 165 166 169 172 172 173 174 174 173 0 0 0 0 0
    0 0 0 0 0 0 0 0 0 0 0 0 0 0 0 0 0 0 0 0 0 0 0 0 0 0 0 0 0 0 0 0 0 0 0 0 0 0 0 0 0 0 0 0 0 0 0 0 0 0 0 0 0 0 0 0 0 0 0 0 0 0 0 0 0 0 0 0 0 184 182 182 182 182 182 181 180 178 175 176 174 173 173 176 177 181 183 185 185 185 186 186 -193 185 -209 184 183 184 184 -193 -193 184 185 185 187 186 184 184 183 183 183 183 183 180 182 183 182 183 184 184 184 185 185 185 185 186 185 184 183 183 181 180 180 179 180 181 179 179 -193 -193 179 181 183 182 181 183 183 179 181 186 184 183 183 183 -193 185 -193 -193 176 184 183 183 183 183 -209 -209 -209 186 -193 189 190 189 190 187 188 189 189 -193 187 188 38 40 39 -193 -209 -209 -209 -209 -209 -209 161 159 159 170 176 183 182 -209 -193 -193 -193 -193 185 185 -209 184 182 -209 -209 -209 171 171 -209 -209 -209 -193 170 178 184 -193 -193 180 180 182 183 182 183 181 179 174 173 172 179 -209 -209 -209 -193 -209 -209 -209 -193 -209 -209 -209 -209 182 183 -209 -209 -209 160 -193 -193 -193 -209 -209 -209 -209 -209 -209 -209 -209 -209 -209 -209 154 154 156 154 154 157 -193 -209 -193 31 29 -193 -209 -209 -209 -209 -193 -193 -209 -209 173 169 171 174 175 175 176 -193 -193 161 159 159 155 155 156 156 156 155 161 163 165 167 168 169 173 172 173 173 173 172 0 0 0 0 0
    0 0 0 0 0 0 0 0 0 0 0 0 0 0 0 0 0 0 0 0 0 0 0 0 0 0 0 0 0 0 0 0 0 0 0 0 0 0 0 0 0 0 0 0 0 0 0 0 0 0 0 0 0 0 0 0 0 0 0 0 0 0 0 0 0 0 0 0 0 184 182 181 182 183 182 181 181 179 178 179 176 175 175 178 179 182 183 185 184 185 186 186 -193 185 185 184 183 184 184 -193 -193 184 185 185 187 185 184 184 183 183 183 182 182 179 182 182 182 183 184 184 183 185 185 185 185 185 -193 183 182 183 180 180 180 179 180 181 179 179 179 181 179 181 183 183 182 184 183 182 182 187 184 183 183 183 -193 185 185 -193 178 184 184 184 184 184 185 184 183 185 187 188 191 190 191 188 188 190 190 188 187 188 -193 -193 187 187 -209 -193 -193 -209 172 172 173 177 179 178 182 185 184 186 186 186 186 186 187 187 186 187 186 -209 -193 -209 178 -193 -193 -193 -193 -209 174 182 186 188 188 188 186 186 186 185 185 185 185 184 183 184 184 187 188 188 -193 186 188 187 188 188 185 186 185 186 186 185 185 184 183 -209 -193 -193 184 191 194 -209 -209 -209 -209 -209 -209 -209 -209 -209 152 161 -193 -209 -209 -209 -209 -209 30 29 -209 -209 -193 -209 -209 -209 -177 -209 -209 176 171 172 175 176 176 176 174 173 165 163 163 154 155 157 157 157 156 163 165 166 168 169 170 173 172 172 173 173 172 0 0 0 0 0
    0 0 0 0 0 0 0 0 0 0 0 0 0 0 0 0 0 0 0 0 0 0 0 0 0 0 0 0 0 0 0 0 0 0 0 0 0 0 0 0 0 0 0 0 0 0 0 0 0 0 0 0 0 0 0 0 0 0 0 0 0 0 0 0 0 0 0 0 0 184 182 182 183 183 182 182 181 180 179 180 179 178 178 180 181 183 184 186 185 185 186 186 186 185 185 184 183 184 184 184 184 184 185 185 186 184 183 183 183 182 182 182 182 178 182 182 182 182 183 184 183 185 185 185 185 185 184 183 182 183 181 180 180 180 181 181 179 180 179 181 179 181 183 183 183 185 184 183 183 187 184 183 183 183 183 184 184 185 179 184 185 184 184 184 185 185 184 186 187 188 190 190 191 188 188 189 190 187 186 187 188 186 187 186 185 -193 -193 -193 178 176 179 181 182 180 183 185 183 187 187 186 187 187 187 187 186 187 186 184 183 183 181 180 179 178 180 179 182 185 187 188 189 189 187 188 188 187 186 186 186 186 186 186 186 187 190 191 188 191 189 189 191 189 186 187 186 187 186 186 186 185 185 186 184 186 185 190 190 -193 -209 -209 -209 -209 -209 -209 -209 -209 -209 -209 -209 -209 -193 -209 -209 -209 30 31 -193 -209 -193 -209 -209 -209 -193 -209 -177 180 175 175 178 178 178 178 177 176 173 171 171 159 157 162 161 161 160 165 167 167 168 169 170 173 172 172 173 173 173 0 0 0 0 0
    0 0 0 0 0 0 0 0 0 0 0 0 0 0 0 0 0 0 0 0 0 0 0 0 0 0 0 0 0 0 0 0 0 0 0 0 0 0 0 0 0 0 0 0 0 0 0 0 0 0 0 0 0 0 0 0 0 0 0 0 0 0 0 0 0 0 0 0 0 184 182 182 183 183 182 182 182 181 180 181 180 180 181 182 183 184 185 186 185 185 186 186 186 185 185 184 183 184 184 184 184 183 184 184 185 183 182 183 182 182 182 182 182 176 182 181 181 182 183 184 183 185 185 185 185 186 185 183 182 183 181 180 180 180 181 182 180 180 179 181 180 181 183 183 183 185 184 183 183 187 184 183 183 183 182 184 184 184 180 184 184 184 184 184 185 184 184 186 186 187 189 189 191 187 188 189 189 187 186 186 186 185 186 185 184 181 183 -193 178 177 179 180 180 180 182 185 183 186 186 186 186 186 187 187 186 187 185 183 183 183 182 181 180 179 181 181 184 186 187 188 189 190 188 188 189 187 187 186 186 186 186 186 186 186 189 190 188 191 190 190 192 190 187 188 186 187 186 186 185 185 184 184 183 185 184 187 187 188 188 188 187 -193 -209 -209 174 177 175 179 -209 186 190 188 191 -209 31 34 -209 -193 -193 -209 -209 -209 -209 180 183 181 180 177 179 179 180 180 180 179 180 180 180 183 -209 172 171 171 171 169 170 168 168 170 171 175 172 171 172 173 172 0 0 0 0 0
    0 0 0 0 0 0 0 0 0 0 0 0 0 0 0 0 0 0 0 0 0 0 0 0 0 0 0 0 0 0 0 0 0 0 0 0 0 0 0 0 0 0 0 0 0 0 0 0 0 0 0 0 0 0 0 0 0 0 0 0 0 0 0 0 0 0 0 0 0 185 183 183 184 183 183 182 182 181 181 182 181 181 182 183 184 185 186 187 186 -193 186 -193 186 186 -193 -193 183 184 184 184 183 182 183 183 184 182 182 182 182 182 182 182 181 175 182 181 181 181 183 184 184 185 186 186 186 186 185 184 182 183 181 180 180 180 181 182 180 180 180 181 181 182 183 183 184 185 183 184 184 186 183 183 182 182 181 183 183 183 179 184 184 184 183 184 184 184 183 185 186 186 188 189 190 187 188 188 189 187 185 185 185 184 184 184 182 180 181 181 178 178 179 180 180 179 182 186 183 186 186 186 186 186 187 187 186 187 185 184 183 183 183 181 180 179 180 180 183 185 186 187 188 189 188 188 188 186 186 186 186 186 185 185 186 186 187 188 187 190 189 189 191 190 187 187 186 187 186 185 185 185 184 183 182 185 184 186 186 187 187 186 187 185 186 -193 181 181 181 182 185 187 190 188 190 192 -193 -193 -209 -209 -209 -209 -209 -209 -209 182 183 182 181 179 181 181 181 181 181 180 182 183 184 186 187 181 182 -209 -209 -209 -209 -177 -209 170 174 176 172 171 173 173 172 0 0 0 0 0
    0 0 0 0 0 0 0 0 0 0 0 0 0 0 0 0 0 0 0 0 0 0 0 0 0 0 0 0 0 0 0 0 0 0 0 0 0 0 0 0 0 0 0 0 0 0 0 0 0 0 0 0 0 0 0 0 0 0 0 0 0 0 0 0 0 0 0 0 0 186 184 184 184 184 183 183 182 181 181 182 182 182 183 184 185 186 186 187 186 185 186 186 186 185 -193 -193 183 184 183 183 183 182 183 183 184 182 181 182 182 182 181 182 181 175 182 182 182 181 183 184 183 184 185 185 186 186 185 184 182 182 181 180 180 180 181 181 180 180 179 181 181 182 183 183 184 185 183 184 184 186 182 182 182 181 181 182 183 182 179 183 183 183 183 183 183 183 182 184 185 185 187 188 190 187 188 188 188 186 185 185 185 184 184 183 182 180 182 182 180 179 180 180 180 179 182 186 184 186 186 186 186 186 187 188 186 187 185 185 184 184 184 183 181 180 180 181 184 186 187 188 189 189 188 188 188 186 186 186 185 185 185 186 186 186 188 188 187 189 188 189 190 189 186 187 186 186 185 186 185 185 184 183 182 185 184 186 185 186 187 186 186 185 186 -193 182 183 184 184 187 188 191 189 190 191 193 191 192 -193 189 188 -193 187 185 183 184 183 183 181 182 182 182 182 182 182 183 184 185 187 188 184 184 -209 -209 -209 -209 -177 -209 174 180 181 180 176 178 179 178 0 0 0 0 0
    0 0 0 0 0 0 0 0 0 0 0 0 0 0 0 0 0 0 0 0 0 0 0 0 0 0 0 0 0 0 0 0 0 0 0 0 0 0 0 0 0 0 0 0 0 0 0 0 0 0 0 0 0 0 0 0 0 0 0 0 0 0 0 0 0 0 0 0 0 186 183 183 184 184 183 183 182 181 181 182 182 182 183 184 186 186 186 186 186 185 185 185 185 184 183 183 182 183 183 183 183 182 183 183 184 182 181 181 182 181 181 182 181 175 183 182 182 182 183 185 183 185 185 185 186 186 186 185 184 183 183 181 182 180 181 181 179 179 180 181 181 182 183 184 185 186 184 184 184 186 182 182 182 181 180 182 182 182 179 183 183 183 182 182 182 182 182 183 183 184 186 187 189 187 187 187 188 185 184 184 184 183 183 183 182 180 181 181 180 180 180 180 180 179 182 185 184 186 186 187 187 186 187 188 186 187 185 185 184 184 184 184 182 181 181 182 185 187 188 189 190 190 189 189 189 186 186 186 185 185 185 186 186 186 187 188 187 189 188 188 189 189 186 186 186 186 185 186 185 185 183 183 182 185 184 186 185 186 186 186 186 185 186 185 183 184 184 185 187 188 192 189 191 191 192 190 191 188 189 187 187 187 186 184 185 184 184 183 183 183 184 184 184 184 185 185 186 188 189 186 185 184 186 -193 -193 -209 -193 179 183 183 183 180 181 180 180 0 0 0 0 0
    0 0 0 0 0 0 0 0 0 0 0 0 0 0 0 0 0 0 0 0 0 0 0 0 0 0 0 0 0 0 0 0 0 0 0 0 0 0 0 0 0 0 0 0 0 0 0 0 0 0 0 0 0 0 0 0 0 0 0 0 0 0 0 0 0 0 0 0 0 186 183 183 183 183 183 183 182 181 181 183 183 183 184 185 186 186 186 186 186 185 185 184 184 182 181 182 181 182 183 183 182 183 183 183 184 181 181 181 182 181 181 181 181 175 183 183 183 183 184 185 185 185 186 186 186 187 186 186 186 185 184 -193 -209 -209 182 182 180 179 180 180 181 182 183 183 -193 185 184 184 184 186 182 182 182 181 180 182 182 182 179 183 182 183 182 182 183 182 182 183 183 184 186 187 188 186 187 187 187 185 184 184 183 182 183 182 182 180 181 181 180 180 180 180 180 179 181 185 184 186 186 187 187 186 187 188 186 187 185 185 184 184 185 184 183 183 182 184 187 188 189 190 191 190 189 189 189 186 186 186 185 185 185 186 186 186 187 187 187 188 187 188 188 -193 186 186 185 186 185 186 185 185 183 183 183 185 185 186 186 186 186 186 187 186 187 185 184 184 185 186 188 188 192 190 191 191 191 189 190 188 189 187 187 187 187 187 188 186 186 185 185 185 185 186 186 185 186 186 186 189 189 187 187 185 187 186 185 -193 -193 183 184 183 184 182 182 181 181 0 0 0 0 0
    0 0 0 0 0 0 0 0 0 0 0 0 0 0 0 0 0 0 0 0 0 0 0 0 0 0 0 0 0 0 0 0 0 0 0 0 0 0 0 0 0 0 0 0 0 0 0 0 0 0 0 0 0 0 0 0 0 0 0 0 0 0 0 0 0 0 0 0 0 185 183 183 183 184 183 183 183 181 182 183 183 184 -193 185 -193 186 -209 186 185 185 184 183 183 181 180 182 181 183 183 183 183 184 184 184 185 182 181 181 182 181 181 182 181 176 183 183 183 -209 184 185 185 186 186 186 185 186 185 185 186 -209 -209 -209 -209 -209 183 182 180 179 181 181 181 182 183 184 185 186 185 185 185 186 183 183 182 181 181 182 182 181 179 183 182 182 182 182 183 182 182 183 182 183 185 185 186 185 186 186 187 184 183 183 183 182 182 182 182 180 181 181 181 181 181 181 181 179 182 187 185 187 186 187 187 186 187 188 185 186 185 185 184 184 185 184 183 183 183 185 187 189 189 189 191 190 189 188 188 186 186 186 185 186 186 186 186 186 187 187 187 188 186 187 187 -193 186 186 186 186 186 186 186 185 184 185 184 186 186 186 186 186 186 185 187 186 187 185 185 185 186 187 188 188 192 190 191 190 190 188 188 188 189 187 187 186 187 188 189 188 188 187 186 186 187 187 187 186 187 187 187 188 188 187 187 186 187 187 187 187 188 186 186 185 185 184 184 182 182 0 0 0 0 0
    0 0 0 0 0 0 0 0 0 0 0 0 0 0 0 0 0 0 0 0 0 0 0 0 0 0 0 0 0 0 0 0 0 0 0 0 0 0 0 0 0 0 0 0 0 0 0 0 0 0 0 0 0 0 0 0 0 0 0 0 0 0 0 0 0 0 0 0 0 184 183 183 183 184 183 184 183 181 182 182 183 183 184 185 185 -193 -193 185 185 184 184 182 182 181 181 183 182 183 183 183 183 184 183 184 185 181 181 181 182 181 181 181 181 176 182 183 183 183 184 185 184 185 186 -193 185 -193 -193 185 -193 -209 -209 -209 -193 -209 -209 184 -193 180 182 182 182 183 184 185 186 186 186 186 186 187 183 183 183 182 181 182 182 181 178 182 182 182 182 182 182 181 181 182 181 182 184 184 185 184 185 185 186 184 183 182 182 181 182 182 182 180 181 182 182 182 182 181 182 180 182 188 185 187 186 187 187 186 187 187 185 186 185 185 184 184 185 184 183 184 184 185 187 188 188 189 189 189 188 188 187 186 185 186 185 186 186 186 186 186 187 187 187 188 186 186 187 188 186 186 186 186 186 186 187 186 185 186 185 187 188 187 187 186 186 185 186 185 186 185 185 -193 186 187 188 188 191 190 191 190 189 188 187 187 187 186 186 185 186 188 189 188 189 188 187 187 188 188 187 187 188 187 187 188 188 187 187 186 188 187 188 189 191 188 187 186 186 185 185 183 184 0 0 0 0 0
    0 0 0 0 0 0 0 0 0 0 0 0 0 0 0 0 0 0 0 0 0 0 0 0 0 0 0 0 0 0 0 0 0 0 0 0 0 0 0 0 0 0 0 0 0 0 0 0 0 0 0 0 0 0 0 0 0 0 0 0 0 0 0 0 0 0 0 0 0 -193 184 183 184 184 183 184 183 181 181 181 182 182 183 184 184 183 183 184 184 183 183 181 181 180 181 182 182 182 183 182 183 183 182 183 184 181 180 181 182 181 181 181 181 176 182 183 183 182 183 185 185 185 186 -193 185 -193 185 186 -193 -209 -209 -209 -209 -209 -209 -209 -209 180 182 182 183 185 185 186 187 187 187 186 186 188 184 184 183 182 181 182 182 181 178 182 180 181 181 181 181 181 181 181 179 181 183 183 183 183 184 184 185 183 182 181 181 181 182 182 182 180 181 182 182 182 182 181 181 180 182 189 185 186 186 187 187 186 186 187 184 185 184 185 184 184 185 185 184 184 184 185 186 187 187 187 188 187 187 186 186 185 185 186 185 186 186 187 187 187 187 187 187 188 186 186 187 187 186 186 186 186 186 186 187 186 185 186 185 187 188 187 187 186 186 185 185 185 185 -193 -193 -193 -193 187 188 189 192 191 191 191 189 188 187 188 187 186 185 185 186 188 189 188 189 188 188 188 188 189 188 187 188 187 187 188 188 187 187 187 187 187 189 189 190 188 187 186 186 185 185 184 184 0 0 0 0 0
    0 0 0 0 0 0 0 0 0 0 0 0 0 0 0 0 0 0 0 0 0 0 0 0 0 0 0 0 0 0 0 0 0 0 0 0 0 0 0 0 0 0 0 0 0 0 0 0 0 0 0 0 0 0 0 0 0 0 0 0 0 0 0 0 0 0 0 0 0 -193 184 183 184 184 183 184 183 181 181 179 181 181 181 182 182 181 182 182 183 182 182 180 181 179 181 182 182 182 182 182 183 184 182 183 184 181 180 181 181 181 181 181 181 177 182 183 183 183 183 185 185 186 186 -193 185 185 185 186 -193 -209 -209 -209 -209 -209 -209 -209 -209 -193 -193 -193 -193 -209 185 186 187 187 187 186 186 187 184 184 183 182 181 182 182 181 178 181 180 181 181 181 181 180 180 179 178 180 183 183 183 182 183 184 185 183 183 181 182 182 183 183 183 181 182 182 182 182 182 181 181 180 182 189 186 187 186 187 187 186 187 187 184 185 185 185 185 185 185 185 184 185 185 185 186 186 187 187 187 187 186 186 186 185 185 186 185 186 186 187 187 187 187 188 187 187 185 186 187 188 186 186 186 186 186 187 187 186 185 186 186 187 189 188 188 186 187 185 185 185 185 -193 -193 -193 -193 188 188 190 192 192 191 191 189 188 188 188 187 186 185 185 186 187 188 188 189 188 188 188 188 189 188 188 188 187 187 188 188 187 187 186 187 187 189 189 190 188 187 186 187 186 186 184 185 0 0 0 0 0
    0 0 0 0 0 0 0 0 0 0 0 0 0 0 0 0 0 0 0 0 0 0 0 0 0 0 0 0 0 0 0 0 0 0 0 0 0 0 0 0 0 0 0 0 0 0 0 0 0 0 0 0 0 0 0 0 0 0 0 0 0 0 0 0 0 0 0 0 0 -193 184 183 184 185 184 184 183 181 181 178 180 179 180 181 181 180 181 181 183 182 182 180 181 179 180 181 182 181 182 182 184 185 183 183 184 181 180 181 181 181 181 181 181 177 183 184 183 183 183 185 185 186 186 -209 184 185 184 185 186 186 189 -209 -209 -209 -209 -209 -209 178 182 -193 -209 -209 186 -193 188 188 187 186 185 187 183 184 183 182 181 181 182 181 178 181 180 180 180 180 181 180 179 178 178 180 183 183 183 183 184 185 186 184 184 182 183 183 184 184 183 182 182 183 183 183 182 182 182 181 183 190 187 187 186 187 187 186 187 188 184 186 185 186 185 185 186 186 184 185 185 185 186 186 186 186 187 187 186 185 185 185 185 186 185 186 186 187 187 187 187 188 187 187 185 186 187 188 186 186 186 186 186 187 187 186 185 186 186 187 189 187 188 186 187 185 185 185 -193 -193 -193 -193 188 188 189 190 193 192 192 191 189 188 187 188 187 186 185 185 186 188 189 188 190 189 188 188 188 189 188 188 188 187 187 188 187 187 187 186 186 186 189 189 189 188 187 186 187 187 186 185 185 0 0 0 0 0</data></disparity>
</opencv_storage>
