<?xml version="1.0"?>
<opencv_storage>
<gps_time_stamp>34092</gps_time_stamp>
<gps_x>-1.1235333442687988e+001</gps_x>
<gps_y>1.0897819995880127e+000</gps_y>
<gps_z>-2.8268876075744629e+000</gps_z>
<image_time_stamp>21968</image_time_stamp>
<disparity type_id="opencv-matrix">
  <rows>91</rows>
  <cols>320</cols>
  <dt>s</dt>
  <data>
    0 0 0 0 0 0 0 0 0 0 0 0 0 0 0 0 0 0 0 0 0 0 0 0 0 0 0 0 0 0 0 0 0 0 0 0 0 0 0 0 0 0 0 0 0 0 0 0 0 0 0 0 0 0 0 0 0 0 0 0 0 0 0 0 0 0 0 0 0 9 10 10 9 -225 -225 -225 -225 -225 -225 -225 -225 -225 -225 -225 -225 -225 -225 -225 -225 -225 -225 0 0 0 0 0 0 0 0 0 0 0 0 0 0 0 0 0 0 0 0 0 0 0 10 9 0 10 0 0 0 0 0 0 0 0 0 0 0 9 9 10 9 9 9 9 9 9 0 0 -209 9 12 11 10 10 9 8 0 0 0 0 0 0 0 0 0 0 0 0 0 11 11 13 15 15 14 14 13 12 11 11 10 9 9 9 10 10 10 0 9 20 11 11 0 0 0 0 -193 0 0 0 0 10 11 9 0 0 0 0 0 0 9 -193 9 19 15 16 16 19 15 14 14 14 12 16 13 13 11 12 13 13 12 19 13 17 17 17 17 17 17 17 -225 -225 -225 -225 -225 -225 -225 -225 -225 -225 -225 -225 -225 17 15 14 13 12 12 13 15 16 15 17 18 21 22 22 22 22 22 21 21 21 20 20 21 20 20 21 22 22 23 23 24 24 26 27 27 27 28 28 29 28 29 30 31 29 31 31 34 32 32 33 32 34 37 36 38 37 40 41 43 42 41 42 41 42 42 42 42 41 42 0 0 0 0 0
    0 0 0 0 0 0 0 0 0 0 0 0 0 0 0 0 0 0 0 0 0 0 0 0 0 0 0 0 0 0 0 0 0 0 0 0 0 0 0 0 0 0 0 0 0 0 0 0 0 0 0 0 0 0 0 0 0 0 0 0 0 0 0 0 0 0 0 0 0 9 9 9 9 10 -225 -225 -225 -225 -225 -225 -225 -225 -225 -225 -225 -225 -225 -225 -225 -225 -225 0 0 0 0 0 0 0 0 0 0 0 0 0 0 0 0 0 0 0 0 0 0 9 11 9 0 9 0 0 0 0 0 0 0 0 0 0 0 9 9 10 9 9 9 0 9 9 0 0 -209 9 12 11 10 10 9 9 0 9 0 0 0 0 0 0 0 0 0 0 0 11 11 13 15 16 15 15 14 12 12 11 11 10 10 10 11 10 11 0 14 21 12 11 0 0 0 0 -193 0 0 0 0 10 10 9 0 0 0 0 0 0 10 -193 11 20 16 16 16 19 15 14 14 15 12 16 13 13 11 12 13 13 12 19 13 17 17 17 17 17 17 17 -225 -225 -225 -225 -225 -225 -225 -225 -225 -225 -225 -225 -225 17 15 16 14 14 15 15 16 17 16 18 19 21 22 22 22 22 22 21 21 20 20 20 20 20 19 21 22 22 23 23 25 25 26 28 27 27 28 28 28 28 29 30 31 29 32 32 34 33 34 34 34 35 38 37 39 38 40 41 42 42 41 41 41 42 43 43 43 42 42 0 0 0 0 0
    0 0 0 0 0 0 0 0 0 0 0 0 0 0 0 0 0 0 0 0 0 0 0 0 0 0 0 0 0 0 0 0 0 0 0 0 0 0 0 0 0 0 0 0 0 0 0 0 0 0 0 0 0 0 0 0 0 0 0 0 0 0 0 0 0 0 0 0 0 0 9 9 9 9 9 -225 -225 -225 -225 -225 -225 -225 -225 -225 -225 -225 -225 -225 -225 -225 -225 0 0 0 0 0 0 0 0 0 0 0 0 0 0 0 0 0 0 0 0 0 0 9 12 9 -193 9 0 0 0 0 0 0 0 0 0 0 0 9 9 10 9 9 9 0 0 0 0 0 -209 -209 11 11 10 10 9 9 0 9 0 0 8 0 0 0 0 0 0 0 0 10 11 12 15 17 16 16 14 12 12 12 12 11 11 11 12 11 13 -193 -209 22 13 12 0 0 0 0 -193 0 0 0 0 9 10 9 0 0 0 0 0 0 10 9 10 20 16 16 16 19 15 14 15 15 12 17 13 13 11 12 13 13 12 19 13 16 16 16 16 16 16 16 -225 -225 -225 -225 -225 -225 -225 -225 -225 -225 -225 -225 17 17 16 17 16 16 16 16 18 18 18 19 19 21 21 21 22 22 22 21 21 21 22 21 21 21 20 22 22 23 24 24 25 26 27 28 28 28 29 28 28 28 28 29 31 29 33 33 35 35 35 34 34 36 38 38 40 38 40 41 42 42 41 41 41 42 43 43 43 42 42 0 0 0 0 0
    0 0 0 0 0 0 0 0 0 0 0 0 0 0 0 0 0 0 0 0 0 0 0 0 0 0 0 0 0 0 0 0 0 0 0 0 0 0 0 0 0 0 0 0 0 0 0 0 0 0 0 0 0 0 0 0 0 0 0 0 0 0 0 0 0 0 0 0 0 0 0 0 9 9 0 0 -225 -225 -225 -225 -225 -225 -225 -225 -225 -225 -225 -225 -225 -225 -225 0 0 0 0 0 0 0 0 0 0 0 0 0 0 0 0 0 0 0 0 0 0 9 12 9 -193 -193 0 0 0 0 0 0 0 0 0 0 0 9 9 10 9 0 0 0 0 0 0 0 -209 -209 12 13 11 12 10 9 9 9 9 9 9 0 0 0 0 0 0 0 0 10 11 12 16 17 16 17 15 12 13 13 12 11 12 12 13 12 16 -193 -209 22 14 13 0 0 0 0 -193 0 0 0 0 9 10 9 0 0 0 0 0 0 9 0 -177 18 15 15 15 19 14 14 15 15 12 17 13 13 11 13 13 13 12 19 13 16 16 16 16 16 16 16 -225 -225 -225 -225 -225 -225 -225 -225 -225 -225 -225 17 17 17 17 18 17 16 17 17 18 18 18 19 19 20 20 21 22 21 22 21 20 21 21 21 21 20 20 21 22 23 23 24 26 26 27 28 28 28 28 28 28 28 29 30 32 31 35 35 36 36 36 35 35 37 39 38 40 40 41 42 43 43 42 42 42 42 43 42 43 42 42 0 0 0 0 0
    0 0 0 0 0 0 0 0 0 0 0 0 0 0 0 0 0 0 0 0 0 0 0 0 0 0 0 0 0 0 0 0 0 0 0 0 0 0 0 0 0 0 0 0 0 0 0 0 0 0 0 0 0 0 0 0 0 0 0 0 0 0 0 0 0 0 0 0 0 0 9 9 9 9 0 0 0 -225 -225 -225 -225 -225 -225 -225 -225 -225 -225 -225 -225 -225 -225 0 0 0 0 0 0 0 0 0 0 0 0 0 0 0 0 0 0 0 0 0 0 9 11 0 -193 -193 0 0 0 0 0 0 0 0 0 0 0 9 9 10 0 0 0 0 0 0 0 0 -209 9 12 13 12 12 10 10 9 10 9 9 9 9 0 0 0 0 0 0 0 9 10 12 15 17 15 16 14 12 13 12 12 11 12 12 12 11 16 -193 -209 22 14 14 0 0 9 0 -193 9 0 0 0 9 10 9 0 0 0 0 0 0 0 0 -177 17 13 13 13 19 14 13 15 15 12 17 13 13 11 13 13 13 12 19 13 16 16 16 16 16 16 16 -225 -225 -225 -225 -225 -225 -225 -225 -225 -225 16 16 16 17 17 18 17 17 18 17 18 18 18 18 18 19 19 19 21 21 21 20 20 21 21 20 21 20 20 21 22 22 23 24 25 26 27 28 28 28 29 28 28 29 30 32 34 33 37 37 37 37 37 37 37 38 40 40 42 41 42 42 43 43 43 42 42 42 43 42 43 42 42 0 0 0 0 0
    0 0 0 0 0 0 0 0 0 0 0 0 0 0 0 0 0 0 0 0 0 0 0 0 0 0 0 0 0 0 0 0 0 0 0 0 0 0 0 0 0 0 0 0 0 0 0 0 0 0 0 0 0 0 0 0 0 0 0 0 0 0 0 0 0 0 0 0 0 9 9 9 10 9 9 0 0 -225 -225 -225 -225 -225 -225 -225 -225 -225 -225 -225 -225 -225 -225 0 0 0 0 0 0 0 0 0 0 0 0 0 0 0 0 0 0 0 0 0 0 9 11 0 -193 -193 0 0 0 0 0 0 0 0 0 0 0 9 9 10 0 0 0 0 0 0 0 0 -209 0 11 11 11 10 9 0 0 9 0 9 0 0 0 0 0 0 0 0 0 9 9 10 14 14 13 14 13 12 13 12 12 11 11 11 11 11 15 -193 -209 22 14 15 0 0 9 9 -193 9 0 0 0 9 10 9 0 0 0 0 0 0 0 0 0 15 12 12 12 18 14 13 15 15 12 17 14 14 11 13 14 13 13 20 13 16 16 16 16 16 16 16 -225 -225 -225 -225 -225 -225 -225 -225 -225 -225 16 15 16 16 17 18 17 17 18 17 17 17 19 18 18 19 19 19 21 20 20 19 20 22 21 21 21 20 21 22 22 23 22 24 25 25 27 28 28 28 28 29 29 30 30 33 36 35 39 38 38 39 38 38 38 39 41 40 42 42 42 43 43 44 43 42 43 42 43 43 43 42 42 0 0 0 0 0
    0 0 0 0 0 0 0 0 0 0 0 0 0 0 0 0 0 0 0 0 0 0 0 0 0 0 0 0 0 0 0 0 0 0 0 0 0 0 0 0 0 0 0 0 0 0 0 0 0 0 0 0 0 0 0 0 0 0 0 0 0 0 0 0 0 0 0 0 0 9 9 9 9 9 0 9 0 0 -225 -225 -225 -225 -225 -225 -225 -225 -225 -225 -225 -225 -225 0 0 0 0 0 0 0 0 0 0 0 0 0 0 0 0 0 0 0 0 0 0 0 9 0 -177 -177 -193 0 0 0 0 0 0 0 0 0 0 9 9 10 0 0 0 0 0 0 0 0 0 0 10 9 10 10 9 0 0 9 9 9 9 0 0 0 0 0 0 0 0 0 0 9 13 13 13 14 13 12 12 12 11 10 11 11 11 11 15 -193 -193 23 15 16 10 9 10 9 -193 9 0 0 0 9 10 0 0 0 0 0 0 0 0 0 0 14 11 11 12 18 14 13 15 15 12 17 13 13 11 13 14 13 13 20 13 16 16 16 16 16 16 16 -225 -225 -225 -225 -225 -225 -225 -225 -225 15 16 16 15 16 17 18 17 17 19 17 17 18 19 18 18 19 19 19 20 20 20 19 20 21 20 20 21 21 21 21 22 22 22 24 24 25 26 27 27 28 28 28 28 29 30 35 37 38 40 39 39 40 39 39 39 40 41 41 43 42 42 42 43 43 43 42 42 41 42 42 42 41 42 0 0 0 0 0
    0 0 0 0 0 0 0 0 0 0 0 0 0 0 0 0 0 0 0 0 0 0 0 0 0 0 0 0 0 0 0 0 0 0 0 0 0 0 0 0 0 0 0 0 0 0 0 0 0 0 0 0 0 0 0 0 0 0 0 0 0 0 0 0 0 0 0 0 0 9 9 9 9 9 9 9 0 0 8 -225 -225 -225 -225 -225 -225 -225 -225 -225 -225 -225 -225 0 0 0 0 0 0 0 0 0 0 0 0 0 0 0 0 0 0 0 0 0 0 0 0 0 -177 -177 -193 0 0 0 0 0 0 0 0 0 0 0 0 9 0 0 0 0 0 0 0 0 0 0 11 10 10 10 9 9 0 9 9 9 9 0 9 0 0 0 0 0 0 0 0 0 13 13 14 16 15 13 13 12 12 11 11 11 11 11 14 -209 -193 23 16 17 10 9 10 9 -193 9 0 0 0 9 9 0 0 0 8 0 0 0 0 0 0 13 11 10 11 18 14 13 15 15 12 17 14 14 11 13 13 13 13 19 13 16 16 16 16 16 16 16 -225 -225 -225 -225 -225 -225 -225 -225 15 15 15 15 14 15 15 18 17 17 19 17 17 19 18 18 17 18 18 17 19 20 19 19 20 21 20 20 21 21 21 22 22 23 23 24 25 25 26 27 27 27 27 27 28 29 32 36 39 40 41 41 40 41 40 40 39 40 41 41 43 42 41 42 42 43 43 42 42 41 41 42 42 42 42 0 0 0 0 0
    0 0 0 0 0 0 0 0 0 0 0 0 0 0 0 0 0 0 0 0 0 0 0 0 0 0 0 0 0 0 0 0 0 0 0 0 0 0 0 0 0 0 0 0 0 0 0 0 0 0 0 0 0 0 0 0 0 0 0 0 0 0 0 0 0 0 0 0 0 10 9 9 9 9 0 9 0 0 9 9 -225 -225 -225 -225 -225 -225 -225 -225 -225 -225 -225 0 0 0 0 0 0 0 0 0 0 0 0 0 0 0 0 0 0 0 0 0 0 0 0 0 -177 -177 -193 0 0 0 0 0 0 0 0 0 0 0 0 9 0 0 0 0 0 0 0 0 0 0 11 10 11 11 10 9 9 9 9 9 9 9 9 9 9 0 0 0 0 0 0 0 10 12 14 15 16 13 14 13 12 11 11 11 11 10 13 -209 -177 23 16 17 11 10 11 10 -193 9 0 0 0 9 9 0 0 8 9 0 0 0 0 0 0 11 9 9 11 17 13 13 15 15 12 16 13 13 11 13 13 13 13 19 13 16 16 16 16 16 16 16 -225 -225 -225 -225 -225 -225 -225 14 14 14 15 13 13 14 15 19 16 17 19 16 17 19 18 18 17 19 18 17 20 20 19 19 20 20 20 20 21 21 21 22 22 23 23 24 25 25 26 27 27 27 27 27 27 29 32 38 40 41 42 42 41 42 41 41 40 40 41 41 43 42 41 42 42 43 43 42 42 41 42 42 42 42 42 0 0 0 0 0
    0 0 0 0 0 0 0 0 0 0 0 0 0 0 0 0 0 0 0 0 0 0 0 0 0 0 0 0 0 0 0 0 0 0 0 0 0 0 0 0 0 0 0 0 0 0 0 0 0 0 0 0 0 0 0 0 0 0 0 0 0 0 0 0 0 0 0 0 0 10 0 9 9 0 0 0 0 0 9 9 9 -225 -225 -225 -225 -225 -225 -225 -225 -225 -225 0 0 0 0 0 0 0 0 0 0 0 0 0 0 0 0 0 0 0 0 0 0 0 0 0 -177 -177 -193 0 0 0 0 0 0 0 0 0 0 0 0 9 0 0 0 0 0 0 0 0 0 0 12 11 11 11 10 10 9 10 10 9 10 10 10 10 10 0 0 0 0 0 0 0 -193 -193 11 14 15 13 14 13 12 12 11 11 11 10 -193 -209 -177 22 15 17 11 10 11 10 -193 9 0 0 0 0 9 0 0 9 10 0 0 0 0 0 0 10 9 9 10 17 13 13 15 15 12 15 13 13 11 12 12 12 12 19 13 16 16 16 16 16 16 16 -225 -225 -225 -225 -225 -225 -225 14 14 14 14 13 12 13 14 19 16 17 19 16 17 19 18 18 17 19 18 16 20 20 18 19 20 20 20 21 22 21 21 22 22 23 23 24 25 25 26 27 27 27 27 27 27 28 30 37 40 41 41 42 41 43 42 42 41 41 42 42 44 43 42 43 42 43 43 42 43 41 42 42 42 42 42 0 0 0 0 0
    0 0 0 0 0 0 0 0 0 0 0 0 0 0 0 0 0 0 0 0 0 0 0 0 0 0 0 0 0 0 0 0 0 0 0 0 0 0 0 0 0 0 0 0 0 0 0 0 0 0 0 0 0 0 0 0 0 0 0 0 0 0 0 0 0 0 0 0 0 10 0 0 0 0 0 0 0 0 9 9 9 9 -225 -225 -225 -225 -225 -225 -225 -225 -225 0 0 0 0 0 0 0 0 0 0 0 0 0 0 0 0 0 0 0 0 0 0 0 0 0 -177 -177 -193 0 0 0 0 0 0 0 0 0 0 0 0 0 0 0 0 0 0 0 0 0 0 0 14 11 11 12 11 10 10 10 10 10 10 10 9 10 9 9 0 -193 -193 -193 -193 -193 -193 -193 10 15 15 13 15 13 13 12 12 12 11 10 -193 -209 -177 22 15 16 11 10 11 10 -193 9 0 0 0 0 9 0 9 9 10 9 0 9 0 0 0 9 9 9 10 16 12 12 14 15 11 15 12 12 10 12 12 12 12 18 13 15 15 15 15 15 15 15 -225 -225 -225 -225 -225 -225 14 14 14 14 14 13 12 13 15 20 16 17 19 16 17 19 18 18 17 18 18 16 20 19 18 19 20 21 21 21 22 21 21 22 22 23 23 24 24 25 26 26 27 27 26 27 26 27 30 37 39 41 41 42 41 43 42 42 41 41 42 42 43 43 42 43 43 43 43 42 43 42 42 42 42 42 42 0 0 0 0 0
    0 0 0 0 0 0 0 0 0 0 0 0 0 0 0 0 0 0 0 0 0 0 0 0 0 0 0 0 0 0 0 0 0 0 0 0 0 0 0 0 0 0 0 0 0 0 0 0 0 0 0 0 0 0 0 0 0 0 0 0 0 0 0 0 0 0 0 0 0 10 0 0 0 0 0 0 0 0 0 9 9 9 -225 -225 -225 -225 -225 -225 -225 -225 -225 0 0 0 0 0 0 0 0 0 0 0 0 9 0 0 0 0 0 0 0 0 0 0 0 0 -177 -177 -193 0 0 0 0 0 9 0 0 9 0 0 0 0 0 0 0 0 0 0 0 0 0 9 15 12 12 13 11 10 10 10 10 10 10 10 9 10 10 10 0 -193 -193 -193 -193 -193 -193 -193 11 16 16 14 15 14 13 13 12 12 11 10 11 -209 -193 21 15 16 11 10 10 10 -193 9 0 0 0 0 9 0 9 10 11 11 10 10 10 0 0 10 10 9 10 16 12 12 13 14 11 14 12 12 10 11 11 11 11 18 13 15 15 15 15 15 15 15 -225 -225 -225 -225 -225 15 14 15 14 14 14 13 13 14 16 21 18 19 21 17 18 19 19 18 17 18 18 16 20 19 18 19 20 21 21 21 22 21 22 22 22 23 22 24 24 24 26 27 28 28 27 28 27 28 31 36 39 41 42 43 42 43 42 43 41 42 42 42 43 43 42 43 42 43 43 42 43 42 42 42 42 43 42 0 0 0 0 0
    0 0 0 0 0 0 0 0 0 0 0 0 0 0 0 0 0 0 0 0 0 0 0 0 0 0 0 0 0 0 0 0 0 0 0 0 0 0 0 0 0 0 0 0 0 0 0 0 0 0 0 0 0 0 0 0 0 0 0 0 0 0 0 0 0 0 0 0 0 10 9 9 9 0 0 0 0 0 0 9 9 9 9 -225 -225 -225 -225 -225 -225 -225 -225 0 0 0 0 0 0 0 0 0 0 0 0 9 0 0 0 0 0 0 0 0 0 0 0 0 -177 -177 -193 0 0 0 0 0 0 0 9 9 0 0 0 0 0 0 0 0 0 0 0 0 -193 9 15 12 12 13 11 10 10 9 10 9 10 10 9 10 10 11 9 -193 -193 -193 -193 -193 -193 -193 10 16 15 14 14 13 13 12 12 12 11 10 11 10 -193 21 14 16 11 10 10 9 -193 9 0 0 0 9 10 9 10 10 12 12 11 11 11 0 9 11 10 10 10 16 11 11 13 13 10 13 11 11 9 10 11 11 11 18 12 15 15 15 15 15 15 15 -225 -225 -225 -225 15 14 14 15 14 14 14 13 13 14 17 21 18 19 20 17 18 19 19 18 17 18 18 16 20 19 18 19 21 22 22 22 23 22 23 23 23 24 23 24 24 24 25 26 27 28 27 28 28 29 31 36 38 40 41 42 41 43 42 43 41 42 42 42 43 43 42 42 42 43 43 42 43 41 43 42 42 43 42 0 0 0 0 0
    0 0 0 0 0 0 0 0 0 0 0 0 0 0 0 0 0 0 0 0 0 0 0 0 0 0 0 0 0 0 0 0 0 0 0 0 0 0 0 0 0 0 0 0 0 0 0 0 0 0 0 0 0 0 0 0 0 0 0 0 0 0 0 0 0 0 0 0 0 10 9 9 10 0 0 0 0 0 9 9 9 9 9 9 -225 -225 -225 -225 -225 -225 -225 0 0 0 0 0 0 0 0 0 0 0 0 0 0 0 0 0 0 0 0 0 0 9 9 0 -177 -177 -193 0 0 0 0 0 0 0 9 9 0 0 0 0 0 0 0 0 0 0 0 0 -209 9 15 12 11 12 10 10 9 9 9 9 10 10 9 11 10 11 11 -193 -193 -193 -193 0 -193 -193 10 16 16 14 13 13 12 12 12 11 11 10 11 10 -193 21 14 15 10 10 10 9 -193 9 0 0 0 9 10 9 10 10 12 12 11 12 11 9 10 11 11 10 10 15 10 10 12 12 10 12 11 11 9 10 10 11 11 18 12 15 15 15 15 15 15 15 -225 -225 -225 -225 14 14 14 14 14 15 14 14 14 16 17 20 18 18 20 17 18 19 18 18 17 19 19 17 20 20 18 20 21 22 22 23 23 23 24 24 24 25 24 24 24 24 25 26 27 27 27 28 29 29 31 36 37 39 40 41 40 42 42 43 41 42 42 42 42 42 41 42 41 42 42 41 42 41 42 42 42 43 42 0 0 0 0 0
    0 0 0 0 0 0 0 0 0 0 0 0 0 0 0 0 0 0 0 0 0 0 0 0 0 0 0 0 0 0 0 0 0 0 0 0 0 0 0 0 0 0 0 0 0 0 0 0 0 0 0 0 0 0 0 0 0 0 0 0 0 0 0 0 0 0 0 0 0 10 0 9 10 9 0 0 0 0 9 9 10 9 9 9 9 -225 -225 -225 -225 -225 -225 0 0 0 0 0 0 0 0 0 0 0 0 9 0 0 0 0 0 0 0 0 0 9 9 0 -193 -177 -193 0 0 0 0 0 0 0 9 9 0 0 0 0 0 0 0 0 0 0 0 0 -209 9 14 12 10 12 10 10 9 9 9 9 10 10 9 11 10 12 13 -193 -193 -209 -193 0 0 10 12 17 16 14 13 13 12 12 11 11 10 10 10 9 -193 20 14 15 10 9 9 9 -193 9 0 0 0 9 10 9 10 10 11 12 12 12 11 10 10 11 11 10 10 13 9 10 11 11 9 11 10 10 9 10 10 11 11 17 12 14 15 15 15 15 15 16 -225 -225 -225 14 14 15 15 15 15 15 15 15 16 16 17 20 18 18 20 17 18 19 18 18 17 19 18 17 20 20 19 21 22 22 22 23 23 23 23 23 23 25 24 24 24 24 25 26 27 27 27 28 29 29 31 35 36 39 39 40 40 41 42 43 42 42 42 42 42 42 41 41 41 41 41 40 41 41 42 42 42 43 42 0 0 0 0 0
    0 0 0 0 0 0 0 0 0 0 0 0 0 0 0 0 0 0 0 0 0 0 0 0 0 0 0 0 0 0 0 0 0 0 0 0 0 0 0 0 0 0 0 0 0 0 0 0 0 0 0 0 0 0 0 0 0 0 0 0 0 0 0 0 0 0 0 0 0 9 0 9 9 8 0 0 0 0 9 9 9 9 9 10 10 10 -225 -225 -225 -225 -225 0 0 0 0 0 0 0 0 0 0 0 0 9 0 0 0 0 0 0 0 9 0 9 9 0 -193 -193 -193 0 0 0 0 0 0 0 9 9 0 0 0 0 0 0 0 0 0 0 0 0 0 9 11 11 10 12 10 10 9 9 10 10 9 10 9 11 -225 12 -225 11 -193 -193 0 0 0 10 12 18 17 15 13 13 12 12 11 11 10 9 9 0 -209 19 13 14 9 9 9 9 -193 9 0 0 0 9 10 9 10 9 11 11 12 12 11 10 10 12 11 11 10 12 9 9 11 11 9 11 10 10 10 11 11 11 11 17 12 14 16 15 15 16 16 16 -225 -225 15 14 16 16 15 15 15 15 15 16 18 16 17 20 18 19 20 18 19 19 18 19 17 19 19 17 20 20 19 21 21 22 22 23 23 24 24 23 24 25 24 24 24 24 25 26 27 27 27 28 29 29 30 33 34 37 38 39 39 40 42 43 42 42 42 42 42 41 41 41 41 41 40 40 41 41 42 42 43 43 42 0 0 0 0 0
    0 0 0 0 0 0 0 0 0 0 0 0 0 0 0 0 0 0 0 0 0 0 0 0 0 0 0 0 0 0 0 0 0 0 0 0 0 0 0 0 0 0 0 0 0 0 0 0 0 0 0 0 0 0 0 0 0 0 0 0 0 0 0 0 0 0 0 0 0 9 0 9 9 9 0 0 0 0 9 10 10 9 10 10 10 10 10 -225 -225 -225 -225 0 0 0 0 0 0 0 0 0 0 0 0 10 0 0 0 0 9 9 9 9 0 9 10 0 -193 -193 -193 0 0 0 0 0 0 0 9 9 9 0 0 0 0 0 0 0 0 0 0 0 0 0 9 10 9 11 10 10 9 9 10 10 9 10 0 10 -225 -225 -225 10 0 10 9 0 0 10 10 17 16 16 12 13 12 12 11 11 10 9 9 0 -209 19 13 15 10 9 10 9 10 9 0 0 0 9 10 9 10 9 10 11 12 13 11 10 11 12 12 11 11 11 9 9 10 10 9 10 10 10 10 11 11 11 11 17 12 14 16 16 16 16 16 16 -225 15 14 15 16 16 15 14 15 15 15 17 18 16 18 20 18 18 20 18 18 18 19 18 17 18 19 18 20 20 20 20 21 22 22 22 23 24 24 24 24 25 24 24 24 24 25 26 27 27 27 28 29 29 29 31 31 33 35 38 38 39 42 43 42 42 43 42 42 41 41 41 41 41 40 40 41 41 43 42 43 44 43 0 0 0 0 0
    0 0 0 0 0 0 0 0 0 0 0 0 0 0 0 0 0 0 0 0 0 0 0 0 0 0 0 0 0 0 0 0 0 0 0 0 0 0 0 0 0 0 0 0 0 0 0 0 0 0 0 0 0 0 0 0 0 0 0 0 0 0 0 0 0 0 0 0 0 0 0 9 9 0 0 0 0 0 0 9 9 9 9 9 9 10 10 -225 -225 -225 -225 0 0 0 0 0 0 0 0 0 0 0 0 10 0 0 0 9 9 9 9 9 0 9 10 0 -193 -193 -193 0 0 0 0 0 0 0 10 9 9 0 0 0 0 0 0 0 0 0 0 0 0 0 0 10 9 11 9 10 9 9 10 10 9 -193 0 9 -225 -225 -225 -225 -225 -193 9 0 -193 -209 -193 19 -193 -193 13 13 12 12 11 11 10 10 9 -193 -209 19 13 15 11 10 10 10 10 10 0 0 0 9 10 9 10 9 10 11 12 13 11 10 11 13 13 12 11 11 0 9 10 10 0 10 9 9 9 10 10 10 10 17 12 14 16 16 16 16 16 16 -225 14 13 14 15 15 14 14 15 15 16 17 18 17 18 20 19 19 20 17 18 17 19 18 16 18 18 18 20 20 20 19 21 22 22 22 23 23 23 23 23 23 24 24 24 24 25 26 27 27 27 28 29 29 29 30 30 31 34 37 38 38 41 41 41 42 43 43 42 42 42 41 41 42 40 40 41 41 42 42 43 44 43 0 0 0 0 0
    0 0 0 0 0 0 0 0 0 0 0 0 0 0 0 0 0 0 0 0 0 0 0 0 0 0 0 0 0 0 0 0 0 0 0 0 0 0 0 0 0 0 0 0 0 0 0 0 0 0 0 0 0 0 0 0 0 0 0 0 0 0 0 0 0 0 0 0 0 0 0 9 9 0 0 0 0 0 0 9 9 9 9 9 0 9 10 10 -225 -225 -225 0 0 0 0 0 0 0 0 0 0 0 0 10 0 0 0 9 9 9 9 9 0 9 11 0 -193 -193 -193 0 0 0 0 0 9 0 10 9 9 0 0 0 0 0 0 0 0 0 0 9 0 0 0 10 9 11 10 10 9 10 10 10 -209 -193 0 9 -225 -225 -225 -225 -225 -193 -225 -225 -225 -225 -193 19 -193 -193 12 13 12 12 11 11 10 10 9 -193 -209 20 13 16 12 11 11 11 11 10 0 0 0 9 9 9 9 9 9 11 12 12 11 10 11 13 13 13 11 10 0 9 10 9 0 9 9 9 9 10 10 9 10 16 12 14 16 16 16 17 16 16 10 14 15 14 15 15 14 14 15 16 17 17 18 17 19 20 19 19 19 17 17 17 19 17 17 18 19 18 20 20 20 19 22 22 22 22 23 23 23 23 23 23 23 24 23 24 25 26 27 27 27 28 29 29 29 29 29 30 33 36 36 38 40 41 41 42 43 42 41 42 42 41 41 42 41 40 41 41 42 42 43 45 43 0 0 0 0 0
    0 0 0 0 0 0 0 0 0 0 0 0 0 0 0 0 0 0 0 0 0 0 0 0 0 0 0 0 0 0 0 0 0 0 0 0 0 0 0 0 0 0 0 0 0 0 0 0 0 0 0 0 0 0 0 0 0 0 0 0 0 0 0 0 0 0 0 0 0 9 9 9 9 9 0 9 8 0 0 9 9 9 9 9 9 9 10 10 9 -225 -225 0 0 0 0 0 0 0 0 0 0 0 0 10 0 0 0 9 9 9 9 9 0 9 11 0 -193 -193 -193 0 0 0 0 0 9 0 10 9 9 0 0 0 0 0 0 0 0 0 9 10 0 0 0 10 9 11 10 10 10 10 10 11 -193 -193 9 10 0 11 14 12 11 12 12 10 12 -225 10 16 -193 -193 11 12 11 11 10 11 10 9 9 -193 -209 20 14 17 12 12 12 11 11 11 0 0 0 9 9 0 9 9 9 11 12 12 11 10 11 13 12 12 11 0 0 0 9 9 0 9 9 9 9 10 10 10 10 17 12 14 16 16 17 17 16 16 11 15 15 15 16 15 15 15 16 16 16 17 18 17 19 19 19 18 19 17 17 18 20 18 19 19 19 19 20 20 20 19 22 21 22 22 23 23 23 23 23 22 23 23 23 23 24 24 26 26 27 27 29 29 29 30 30 30 32 34 34 37 39 40 40 41 44 42 42 42 42 41 41 42 41 40 41 41 42 42 43 46 44 0 0 0 0 0
    0 0 0 0 0 0 0 0 0 0 0 0 0 0 0 0 0 0 0 0 0 0 0 0 0 0 0 0 0 0 0 0 0 0 0 0 0 0 0 0 0 0 0 0 0 0 0 0 0 0 0 0 0 0 0 0 0 0 0 0 0 0 0 0 0 0 0 0 0 0 9 10 10 9 0 9 9 9 9 9 9 9 9 9 9 10 10 10 11 11 -225 0 0 0 0 0 0 0 0 0 0 0 0 9 0 0 0 9 9 9 9 9 0 0 10 0 -193 -193 -193 0 0 0 0 0 9 0 10 9 9 0 0 0 0 0 0 0 0 0 9 10 0 0 0 9 9 10 10 10 9 10 10 -193 -193 -193 10 11 10 12 14 12 12 12 12 11 13 10 9 13 15 13 11 11 10 10 10 10 10 9 9 -193 -209 21 14 18 13 12 13 12 11 11 9 9 0 9 9 0 9 9 9 10 11 11 10 10 10 12 11 12 11 0 0 0 9 9 0 9 9 9 10 10 10 10 10 17 12 14 16 17 17 17 16 16 11 15 15 15 15 15 15 16 16 16 16 17 17 18 18 18 18 18 19 17 16 17 19 18 18 18 19 18 20 20 20 18 21 21 21 21 22 23 23 23 23 22 24 23 23 24 23 23 25 25 26 27 29 30 30 31 31 32 33 35 34 37 39 39 40 40 43 42 42 42 43 42 42 42 41 40 41 41 42 42 44 46 44 0 0 0 0 0
    0 0 0 0 0 0 0 0 0 0 0 0 0 0 0 0 0 0 0 0 0 0 0 0 0 0 0 0 0 0 0 0 0 0 0 0 0 0 0 0 0 0 0 0 0 0 0 0 0 0 0 0 0 0 0 0 0 0 0 0 0 0 0 0 0 0 0 0 0 9 9 9 9 9 0 9 9 9 9 9 0 9 9 9 9 10 10 11 11 12 12 0 0 0 0 0 0 0 0 0 0 0 0 9 0 0 0 0 9 9 0 0 0 0 9 0 -193 -193 -177 0 0 9 9 0 10 9 10 9 9 0 0 0 0 0 0 0 0 0 10 11 0 0 0 9 9 10 10 10 9 10 10 10 -193 10 10 10 9 11 13 12 11 12 12 11 14 12 11 14 14 13 11 11 10 10 10 10 10 9 9 -193 -209 21 14 18 13 12 13 12 11 11 9 9 0 9 9 0 0 0 0 9 10 10 0 0 9 12 11 12 12 0 0 0 0 0 0 9 9 9 10 11 11 11 11 17 12 14 17 17 16 16 16 16 11 14 14 15 15 15 16 16 16 16 17 17 18 18 18 19 19 18 19 17 17 17 19 18 18 18 19 18 20 20 20 18 21 20 20 20 22 23 23 22 22 22 24 24 23 24 23 23 25 25 25 26 28 29 30 31 32 33 34 36 36 38 39 40 40 40 42 42 42 42 43 41 41 42 41 40 41 42 42 42 44 46 45 0 0 0 0 0
    0 0 0 0 0 0 0 0 0 0 0 0 0 0 0 0 0 0 0 0 0 0 0 0 0 0 0 0 0 0 0 0 0 0 0 0 0 0 0 0 0 0 0 0 0 0 0 0 0 0 0 0 0 0 0 0 0 0 0 0 0 0 0 0 0 0 0 0 0 0 0 9 0 0 0 9 9 9 9 9 0 9 9 9 9 10 10 10 10 11 11 0 0 0 0 0 0 0 0 0 0 0 0 10 0 0 0 0 9 9 0 0 0 0 10 0 -193 -193 -177 -193 0 10 10 0 11 10 11 9 9 0 0 0 0 0 0 0 0 0 10 13 0 9 10 10 10 10 10 10 9 9 10 10 9 9 9 9 0 10 11 11 10 10 10 10 14 12 11 14 13 13 12 12 11 10 10 10 10 9 9 -193 -209 21 14 18 14 13 13 12 12 11 9 9 0 9 9 0 0 0 0 9 9 9 0 0 0 12 11 12 13 0 0 0 0 0 0 9 9 9 10 11 11 11 11 17 12 14 17 16 16 15 15 16 12 14 15 15 16 16 17 16 16 16 17 17 18 18 18 19 19 19 20 17 16 17 19 18 17 18 18 17 20 20 19 17 21 19 19 19 21 22 22 22 22 21 24 23 23 23 23 23 25 25 25 26 27 29 30 31 33 34 36 37 37 38 39 39 40 40 41 42 42 43 43 42 42 43 42 41 42 42 43 43 45 47 46 0 0 0 0 0
    0 0 0 0 0 0 0 0 0 0 0 0 0 0 0 0 0 0 0 0 0 0 0 0 0 0 0 0 0 0 0 0 0 0 0 0 0 0 0 0 0 0 0 0 0 0 0 0 0 0 0 0 0 0 0 0 0 0 0 0 0 0 0 0 0 0 0 0 0 0 0 0 0 0 0 10 10 9 9 10 9 9 9 9 9 9 9 10 10 10 10 0 0 0 0 0 0 0 0 0 0 9 9 11 9 9 0 9 9 9 9 9 0 0 11 0 -193 -177 -177 9 9 11 10 9 12 11 11 9 9 0 0 0 0 0 0 0 0 0 11 13 9 10 11 11 11 10 10 10 9 9 9 9 9 0 0 0 0 9 9 10 9 10 10 10 13 12 11 12 12 12 12 11 11 10 10 11 10 10 9 9 -193 21 15 19 14 13 14 13 12 11 9 10 0 9 9 0 0 9 0 9 9 9 0 0 0 13 11 13 14 0 0 0 0 0 0 0 0 0 10 11 11 11 11 17 12 15 17 16 15 15 16 16 12 15 15 15 16 16 17 15 15 16 17 17 17 18 18 20 20 19 20 17 17 18 20 19 17 18 18 16 20 20 19 16 20 18 19 18 21 21 21 22 22 20 24 23 23 23 23 23 25 25 25 26 27 30 31 32 34 36 37 39 39 40 40 40 41 41 41 43 43 43 43 43 43 43 44 43 43 43 44 44 45 47 46 0 0 0 0 0
    0 0 0 0 0 0 0 0 0 0 0 0 0 0 0 0 0 0 0 0 0 0 0 0 0 0 0 0 0 0 0 0 0 0 0 0 0 0 0 0 0 0 0 0 0 0 0 0 0 0 0 0 0 0 0 0 0 0 0 0 0 0 0 0 0 0 0 0 0 9 0 9 9 9 9 10 10 10 10 10 10 9 10 10 0 9 9 9 9 9 9 0 0 0 0 0 0 0 0 0 0 9 9 11 9 9 9 9 9 10 10 9 0 0 11 -193 -193 -177 -177 10 10 12 11 10 12 12 11 9 9 0 0 0 0 0 0 0 0 -193 11 13 9 11 12 11 11 11 10 10 9 9 9 9 9 0 0 0 0 9 9 10 10 10 10 10 12 12 11 12 12 12 12 12 11 11 11 11 11 10 11 11 16 22 16 20 15 14 15 14 13 12 10 11 0 10 10 0 0 9 0 9 9 9 0 0 0 12 10 13 15 0 0 0 0 0 0 0 0 0 10 11 11 10 11 17 12 15 17 16 15 16 16 16 12 15 16 15 15 17 16 15 16 17 17 16 17 18 18 20 19 19 20 17 17 18 20 18 17 18 18 15 20 20 19 17 21 18 19 18 21 21 21 21 21 20 24 24 23 23 23 23 25 25 25 26 27 30 31 32 35 38 39 40 40 41 41 41 42 42 42 43 43 43 44 43 44 44 45 44 44 44 44 45 45 46 46 0 0 0 0 0
    0 0 0 0 0 0 0 0 0 0 0 0 0 0 0 0 0 0 0 0 0 0 0 0 0 0 0 0 0 0 0 0 0 0 0 0 0 0 0 0 0 0 0 0 0 0 0 0 0 0 0 0 0 0 0 0 0 0 0 0 0 0 0 0 0 0 0 0 0 9 0 9 9 0 0 10 10 10 9 10 9 9 10 10 0 9 0 0 0 0 9 0 0 0 0 0 0 0 0 0 0 0 0 10 9 9 9 9 9 10 10 10 0 0 12 0 0 -193 -193 9 10 12 11 10 13 12 10 9 9 0 0 0 0 0 0 0 0 -193 11 14 9 13 15 12 12 11 10 10 9 9 9 9 9 9 9 9 9 10 10 11 11 11 11 11 13 13 12 14 13 12 12 12 12 11 11 11 11 11 11 11 16 21 15 20 15 14 15 14 13 12 10 11 8 10 10 0 9 10 9 9 9 9 0 0 0 12 10 12 15 0 0 0 0 0 0 0 0 0 10 10 11 10 11 18 12 16 16 16 16 16 16 15 12 16 17 15 15 17 16 16 17 17 17 16 17 18 18 20 19 19 20 17 18 18 19 18 17 18 18 15 21 21 20 18 21 18 19 19 21 21 21 22 21 21 25 24 24 24 24 24 25 25 25 26 27 30 31 33 36 38 39 40 41 41 41 41 42 42 42 44 43 43 43 43 44 43 45 44 44 44 44 45 45 46 46 0 0 0 0 0
    0 0 0 0 0 0 0 0 0 0 0 0 0 0 0 0 0 0 0 0 0 0 0 0 0 0 0 0 0 0 0 0 0 0 0 0 0 0 0 0 0 0 0 0 0 0 0 0 0 0 0 0 0 0 0 0 0 0 0 0 0 0 0 0 0 0 0 0 0 9 0 0 9 0 9 10 10 10 9 9 9 9 9 9 0 0 0 0 9 9 10 0 0 0 0 0 0 0 0 0 0 0 0 10 9 9 9 9 9 10 10 10 0 0 11 0 0 -193 -193 9 10 12 11 10 12 12 10 9 9 0 0 0 0 0 0 0 0 -193 11 14 9 14 16 11 12 11 10 9 9 9 8 9 10 9 10 10 10 11 11 12 12 12 12 12 14 13 13 14 14 12 13 12 12 11 11 11 11 10 10 9 14 20 14 19 15 14 15 14 13 12 10 12 9 10 10 8 9 11 10 10 9 9 0 9 0 12 10 11 14 0 0 0 0 0 0 0 0 0 10 11 11 11 12 19 13 16 16 16 16 16 16 16 13 16 17 16 16 17 16 17 17 17 16 16 17 18 18 19 19 18 21 18 18 18 19 18 17 17 18 13 21 21 21 19 21 19 20 20 21 21 22 22 21 21 24 24 23 23 23 23 24 24 23 25 26 29 30 32 36 38 39 40 41 41 42 42 43 43 42 44 44 43 44 43 44 43 44 44 44 44 44 46 45 45 46 0 0 0 0 0
    0 0 0 0 0 0 0 0 0 0 0 0 0 0 0 0 0 0 0 0 0 0 0 0 0 0 0 0 0 0 0 0 0 0 0 0 0 0 0 0 0 0 0 0 0 0 0 0 0 0 0 0 0 0 0 0 0 0 0 0 0 0 0 0 0 0 0 0 0 9 0 9 9 0 0 10 9 10 9 9 9 9 10 10 9 9 0 0 0 9 11 0 0 0 0 0 0 0 0 0 0 0 0 9 0 0 0 9 9 10 10 10 0 0 10 0 0 0 0 0 9 12 11 10 13 12 10 9 9 0 0 0 0 0 0 0 0 -193 11 13 9 13 14 11 11 10 9 9 0 9 0 9 10 9 10 11 11 12 12 13 13 13 12 12 14 13 13 14 13 12 13 12 12 11 11 10 10 10 10 9 12 19 14 19 14 14 14 14 12 11 10 12 9 10 10 9 9 11 11 10 9 9 9 10 9 13 10 11 14 0 0 0 0 0 0 0 0 0 11 11 12 12 12 19 13 15 15 16 16 16 15 15 13 16 16 16 16 17 17 17 17 16 17 17 17 18 18 19 19 18 21 18 17 18 18 18 17 17 18 12 21 21 21 20 21 20 20 20 22 22 22 22 22 22 24 24 23 22 22 23 23 24 23 25 26 29 30 32 36 -193 38 40 41 41 42 42 43 43 42 45 44 43 44 43 44 43 44 45 44 45 44 46 46 45 46 0 0 0 0 0
    0 0 0 0 0 0 0 0 0 0 0 0 0 0 0 0 0 0 0 0 0 0 0 0 0 0 0 0 0 0 0 0 0 0 0 0 0 0 0 0 0 0 0 0 0 0 0 0 0 0 0 0 0 0 0 0 0 0 0 0 0 0 0 0 0 0 0 0 0 9 9 9 9 0 9 9 9 9 9 9 9 9 9 9 9 9 0 0 0 9 11 0 0 0 0 0 0 0 0 0 0 0 0 9 0 0 0 9 10 11 11 10 0 0 10 0 0 0 0 0 0 12 11 11 13 12 10 9 9 0 0 0 0 0 0 0 0 0 11 13 9 13 14 9 9 0 0 0 0 0 0 0 9 9 10 11 11 12 11 12 12 13 12 11 12 12 13 13 13 12 13 12 12 11 11 10 10 10 10 9 10 18 13 18 14 13 14 13 12 11 10 12 9 10 10 9 9 11 12 11 9 10 9 10 10 14 11 11 14 0 0 0 0 0 0 0 0 0 10 11 12 12 13 18 13 15 16 16 16 16 16 15 14 16 16 16 16 17 17 17 17 16 17 17 17 18 17 19 19 19 21 17 18 18 18 18 15 16 17 11 20 21 21 20 21 20 21 21 22 22 22 23 23 23 25 24 23 23 23 24 24 25 23 25 26 29 30 31 36 38 39 40 41 41 42 41 42 42 42 44 44 43 44 43 44 43 44 45 44 45 44 47 46 44 46 0 0 0 0 0
    0 0 0 0 0 0 0 0 0 0 0 0 0 0 0 0 0 0 0 0 0 0 0 0 0 0 0 0 0 0 0 0 0 0 0 0 0 0 0 0 0 0 0 0 0 0 0 0 0 0 0 0 0 0 0 0 0 0 0 0 0 0 0 0 0 0 0 0 0 9 0 9 9 0 9 9 9 9 9 9 9 9 9 9 9 9 0 0 0 0 10 0 0 0 0 0 0 0 0 0 0 0 0 10 9 9 9 9 10 11 11 11 0 9 11 0 0 0 0 0 0 12 11 11 12 11 9 9 9 0 0 0 0 0 0 0 0 0 11 13 0 12 13 9 9 0 0 0 0 0 0 0 9 9 10 11 11 11 10 11 11 11 11 9 11 11 12 13 13 12 12 12 11 11 10 10 10 9 9 0 0 16 12 18 14 13 14 14 12 12 10 12 9 11 11 9 9 12 12 11 9 10 9 10 10 14 11 12 14 0 0 0 0 0 0 0 0 0 10 11 11 11 14 17 13 16 16 16 16 16 16 15 14 16 16 16 16 18 17 17 16 17 17 17 17 18 17 19 19 19 21 18 18 18 17 17 15 16 17 11 20 20 21 21 22 20 21 21 22 22 23 23 23 23 24 24 22 22 23 24 25 25 24 24 25 27 28 28 34 37 37 39 40 40 41 41 41 41 41 44 43 43 43 43 44 43 44 45 44 45 44 47 46 44 46 0 0 0 0 0
    0 0 0 0 0 0 0 0 0 0 0 0 0 0 0 0 0 0 0 0 0 0 0 0 0 0 0 0 0 0 0 0 0 0 0 0 0 0 0 0 0 0 0 0 0 0 0 0 0 0 0 0 0 0 0 0 0 0 0 0 0 0 0 0 0 0 0 0 0 9 0 9 9 9 9 9 9 9 9 9 9 0 9 9 0 0 0 0 0 0 10 0 0 0 0 0 0 0 0 0 0 0 0 10 9 9 9 10 10 12 12 12 0 9 11 9 0 0 0 0 0 12 11 10 12 11 9 9 9 0 0 0 0 0 0 0 0 0 11 12 0 11 12 9 9 0 0 0 0 9 0 9 9 9 11 11 12 11 10 10 10 11 11 9 9 10 11 12 12 12 12 11 11 10 10 9 10 9 9 0 0 16 12 18 14 13 14 14 12 12 10 13 9 11 11 10 9 12 13 12 10 10 10 10 11 15 12 12 14 0 0 0 0 0 0 0 0 0 10 10 10 10 13 15 12 14 14 14 15 15 15 14 15 16 16 17 16 18 17 16 17 17 17 18 17 18 17 19 19 19 21 18 18 18 18 18 15 17 18 11 20 20 21 21 22 21 21 21 22 22 23 23 23 23 24 23 22 22 23 23 25 25 24 24 25 27 27 27 33 36 36 38 39 39 39 40 40 40 40 43 43 43 43 44 45 44 45 45 44 46 44 47 45 44 46 0 0 0 0 0
    0 0 0 0 0 0 0 0 0 0 0 0 0 0 0 0 0 0 0 0 0 0 0 0 0 0 0 0 0 0 0 0 0 0 0 0 0 0 0 0 0 0 0 0 0 0 0 0 0 0 0 0 0 0 0 0 0 0 0 0 0 0 0 0 0 0 0 0 0 9 9 9 10 9 9 9 9 9 9 9 9 0 0 0 0 0 0 0 0 0 9 0 0 0 0 0 0 0 0 0 0 0 0 9 9 9 9 10 10 11 11 11 0 0 10 0 0 0 0 0 0 11 11 10 12 10 9 9 9 0 0 0 0 0 0 0 0 0 11 12 0 11 11 10 10 0 0 9 9 10 9 9 10 9 12 12 13 12 9 10 10 11 11 8 -193 10 11 12 -193 11 11 10 10 10 9 9 9 9 9 0 9 16 12 17 13 13 13 14 12 12 10 13 9 11 12 10 10 13 14 12 10 10 10 10 11 14 12 12 14 0 0 0 0 0 0 0 0 0 10 10 10 10 13 14 12 14 14 14 15 15 15 14 15 16 16 17 16 18 16 17 17 17 18 17 17 18 17 20 19 19 21 18 19 19 19 18 16 18 18 12 20 21 22 22 23 22 22 22 23 23 23 23 23 23 24 24 23 23 23 23 24 25 24 24 24 26 26 26 32 34 34 38 38 39 39 40 40 40 41 43 43 43 43 44 44 44 44 45 44 46 44 47 45 44 47 0 0 0 0 0
    0 0 0 0 0 0 0 0 0 0 0 0 0 0 0 0 0 0 0 0 0 0 0 0 0 0 0 0 0 0 0 0 0 0 0 0 0 0 0 0 0 0 0 0 0 0 0 0 0 0 0 0 0 0 0 0 0 0 0 0 0 0 0 0 0 0 0 0 0 10 9 9 9 9 9 9 0 9 0 0 0 0 0 0 0 0 0 0 0 0 9 0 0 0 0 0 0 0 0 0 0 0 0 0 0 0 0 9 10 11 11 11 0 0 0 0 0 0 0 0 0 11 10 10 11 10 0 9 9 0 0 0 0 0 0 0 0 0 11 13 0 11 12 10 10 9 9 9 10 11 10 10 10 10 13 13 13 12 10 10 11 11 11 0 -193 -193 11 -209 -209 10 10 10 10 9 9 9 9 10 9 9 9 17 12 17 13 12 13 13 12 11 10 12 9 11 12 10 10 13 14 12 9 10 10 10 11 13 11 11 13 0 9 9 0 0 0 0 0 0 10 10 10 10 13 13 13 14 14 14 15 16 15 14 15 15 17 17 16 17 16 17 17 17 18 17 17 18 18 19 18 18 21 18 18 18 18 17 17 18 18 12 21 21 22 22 23 22 22 22 23 23 23 24 23 23 24 23 22 22 22 23 23 23 23 24 25 26 26 26 31 32 31 36 36 38 38 39 39 39 40 42 42 42 42 43 44 44 44 44 44 46 44 47 45 44 47 0 0 0 0 0
    0 0 0 0 0 0 0 0 0 0 0 0 0 0 0 0 0 0 0 0 0 0 0 0 0 0 0 0 0 0 0 0 0 0 0 0 0 0 0 0 0 0 0 0 0 0 0 0 0 0 0 0 0 0 0 0 0 0 0 0 0 0 0 0 0 0 0 0 0 9 9 9 10 9 9 9 9 9 9 0 0 0 0 0 0 0 0 0 0 0 9 0 0 0 0 0 0 0 0 0 0 0 0 0 0 0 0 9 10 10 10 10 0 0 0 0 0 0 0 0 0 10 10 10 11 10 0 9 9 0 0 0 0 0 0 0 0 0 11 12 0 10 10 9 10 9 9 9 10 11 10 10 11 10 13 13 13 12 10 11 11 11 10 -193 -209 -193 11 -193 -209 9 10 10 10 9 9 9 9 10 10 9 9 17 12 17 13 12 13 13 12 11 10 12 9 11 11 10 10 12 13 12 9 9 9 9 11 12 10 11 13 9 9 9 0 0 0 0 0 0 10 11 11 11 13 13 13 13 14 14 16 15 15 14 15 15 17 17 17 17 17 17 18 17 17 17 16 17 18 18 18 18 21 18 18 18 19 18 17 18 19 13 21 22 22 22 22 22 22 23 23 23 24 24 24 23 24 23 22 22 22 22 23 23 23 23 25 26 26 26 31 30 30 35 35 36 37 37 37 37 39 41 40 42 41 42 43 44 44 44 44 46 44 47 45 44 47 0 0 0 0 0
    0 0 0 0 0 0 0 0 0 0 0 0 0 0 0 0 0 0 0 0 0 0 0 0 0 0 0 0 0 0 0 0 0 0 0 0 0 0 0 0 0 0 0 0 0 0 0 0 0 0 0 0 0 0 0 0 0 0 0 0 0 0 0 0 0 0 0 0 0 9 9 9 10 10 10 10 9 9 9 9 9 0 0 0 9 9 9 9 9 9 10 0 0 0 0 0 0 0 0 0 0 0 0 0 0 0 0 9 9 9 10 10 0 0 9 9 0 0 0 0 0 11 11 10 12 10 9 9 10 0 0 0 0 0 0 0 0 0 11 12 0 9 8 9 9 0 0 9 10 11 10 10 11 11 13 14 13 13 11 11 11 11 -193 -193 -193 -193 10 -193 -209 9 9 10 10 9 9 9 9 10 10 9 10 16 12 16 13 12 12 13 12 11 9 11 9 10 11 10 9 12 13 11 9 9 9 9 11 12 10 10 13 10 9 9 0 9 0 9 9 9 10 11 10 10 12 12 13 13 14 15 15 15 15 14 15 14 17 17 16 17 17 17 17 16 17 16 16 17 18 18 18 18 21 18 18 18 19 18 18 19 19 14 22 22 22 21 23 23 22 23 23 23 23 24 24 23 24 23 22 22 22 23 23 24 24 24 25 26 26 26 31 30 30 35 34 36 37 37 37 37 39 40 40 42 41 42 44 44 44 44 44 45 44 46 45 44 47 0 0 0 0 0
    0 0 0 0 0 0 0 0 0 0 0 0 0 0 0 0 0 0 0 0 0 0 0 0 0 0 0 0 0 0 0 0 0 0 0 0 0 0 0 0 0 0 0 0 0 0 0 0 0 0 0 0 0 0 0 0 0 0 0 0 0 0 0 0 0 0 0 0 0 9 9 9 9 10 10 10 9 10 10 10 9 9 9 10 9 10 10 9 9 9 10 0 0 0 0 0 0 0 0 0 0 0 0 0 0 0 0 0 9 9 9 10 9 0 10 9 9 0 0 0 0 11 11 10 12 10 9 9 10 0 0 0 0 0 0 0 0 0 11 12 0 9 9 9 9 9 9 10 10 11 11 11 11 10 13 14 13 12 10 11 11 11 -193 -193 -193 10 10 12 -193 0 9 10 10 10 9 9 9 10 11 9 10 17 12 16 13 12 12 13 12 11 9 11 9 10 11 10 9 11 12 11 9 0 9 0 10 12 10 10 13 10 9 10 9 10 8 9 9 9 10 11 10 10 12 10 14 13 14 15 15 15 15 14 16 15 18 17 16 17 17 17 16 16 17 16 16 17 18 18 18 19 21 18 18 19 19 18 18 18 19 15 21 22 21 21 23 23 22 23 23 23 23 24 24 24 24 24 23 24 25 24 25 25 25 25 26 27 26 27 33 30 31 35 35 36 37 37 37 36 39 39 39 41 41 42 44 45 45 44 45 45 44 46 45 44 46 0 0 0 0 0
    0 0 0 0 0 0 0 0 0 0 0 0 0 0 0 0 0 0 0 0 0 0 0 0 0 0 0 0 0 0 0 0 0 0 0 0 0 0 0 0 0 0 0 0 0 0 0 0 0 0 0 0 0 0 0 0 0 0 0 0 0 0 0 0 0 0 0 0 0 9 9 9 10 10 10 10 10 10 10 9 9 0 0 9 9 9 9 9 9 9 9 0 0 0 0 0 0 0 0 0 0 0 0 0 0 0 0 0 0 9 9 10 10 9 11 10 9 0 0 0 0 10 10 10 12 10 9 9 10 0 0 0 0 0 0 0 0 0 11 13 9 9 9 9 10 9 9 10 10 11 11 10 11 10 12 13 12 11 9 -193 -193 -193 -193 9 -193 11 10 12 -193 0 9 9 9 9 9 9 9 10 10 9 11 17 13 17 13 12 12 13 12 11 9 11 9 10 11 10 9 12 13 11 9 0 0 0 9 11 10 10 12 10 9 10 10 10 9 9 9 9 10 11 10 10 12 10 15 14 14 16 15 15 15 15 16 14 18 17 15 17 16 16 16 16 17 15 16 17 18 19 18 19 21 18 18 19 19 18 18 19 19 15 21 21 20 21 23 22 22 23 22 23 24 24 24 24 25 25 25 26 27 26 27 26 26 26 27 27 27 27 35 31 32 35 35 36 37 37 37 36 38 39 39 41 40 42 44 46 46 45 46 46 45 46 45 45 46 0 0 0 0 0
    0 0 0 0 0 0 0 0 0 0 0 0 0 0 0 0 0 0 0 0 0 0 0 0 0 0 0 0 0 0 0 0 0 0 0 0 0 0 0 0 0 0 0 0 0 0 0 0 0 0 0 0 0 0 0 0 0 0 0 0 0 0 0 0 0 0 0 0 0 9 9 0 9 10 10 10 10 10 10 10 10 9 9 9 9 9 9 9 9 9 9 0 0 0 0 0 0 0 0 0 0 0 0 0 0 0 0 0 0 0 9 10 11 11 11 10 9 0 0 0 0 10 10 10 12 10 9 10 10 0 0 0 0 0 0 0 0 0 11 13 9 9 10 10 10 10 9 10 10 11 11 11 11 10 12 13 12 11 10 11 10 12 11 10 10 11 11 12 0 0 9 9 9 9 9 9 9 10 10 9 11 17 13 17 13 12 12 13 12 11 10 11 9 10 11 10 9 12 14 11 9 0 0 0 0 10 9 9 11 9 9 10 9 10 9 9 9 9 10 11 10 10 10 9 17 14 15 16 15 16 15 15 16 14 18 16 15 16 16 16 16 16 16 14 16 17 18 19 18 19 21 18 18 19 19 18 18 19 19 16 21 21 20 21 22 22 22 22 23 23 24 24 25 25 25 25 26 26 27 26 26 25 25 26 29 30 28 29 36 32 34 36 36 36 37 37 37 36 38 39 38 40 40 41 43 47 47 47 47 47 46 46 45 45 45 0 0 0 0 0
    0 0 0 0 0 0 0 0 0 0 0 0 0 0 0 0 0 0 0 0 0 0 0 0 0 0 0 0 0 0 0 0 0 0 0 0 0 0 0 0 0 0 0 0 0 0 0 0 0 0 0 0 0 0 0 0 0 0 0 0 0 0 0 0 0 0 0 0 0 0 0 0 9 9 10 10 10 10 10 10 10 9 9 9 9 9 9 9 9 9 9 0 0 0 0 0 0 0 0 0 0 0 0 0 0 0 0 0 0 0 0 9 11 12 11 10 9 0 0 0 0 -193 10 10 12 10 9 9 10 0 0 0 0 0 0 0 0 0 11 13 9 9 10 10 11 11 10 10 11 11 11 11 11 10 12 14 12 12 12 13 12 13 12 11 11 12 11 12 0 0 0 9 9 9 0 9 9 10 10 9 12 17 13 17 13 12 13 13 12 11 10 11 9 11 11 10 9 12 14 11 9 0 0 0 0 9 0 0 10 0 0 9 9 10 9 9 9 9 10 11 10 10 9 -177 18 14 15 16 16 16 15 15 16 14 18 16 15 16 16 16 16 15 16 14 16 17 18 18 18 18 22 18 18 19 19 18 19 19 20 17 22 21 21 22 22 22 22 22 23 23 24 24 25 25 25 25 26 26 26 26 25 25 25 28 35 35 32 33 37 33 35 36 36 36 37 37 37 37 38 39 39 40 40 41 44 48 47 48 47 47 47 46 46 45 45 0 0 0 0 0
    0 0 0 0 0 0 0 0 0 0 0 0 0 0 0 0 0 0 0 0 0 0 0 0 0 0 0 0 0 0 0 0 0 0 0 0 0 0 0 0 0 0 0 0 0 0 0 0 0 0 0 0 0 0 0 0 0 0 0 0 0 0 0 0 0 0 0 0 0 0 0 0 9 9 10 11 10 10 10 10 10 9 9 10 9 9 9 9 9 9 9 0 0 0 0 0 0 0 0 0 0 0 0 0 0 0 0 0 0 0 0 9 11 12 11 10 9 0 0 0 0 9 9 10 13 10 9 9 10 0 0 0 0 0 0 0 0 0 11 13 9 9 10 10 11 11 10 10 10 11 10 11 11 11 12 14 12 14 15 15 14 14 12 12 11 12 11 11 0 0 0 9 9 9 0 9 9 10 10 9 12 16 12 17 13 12 13 13 12 11 10 12 9 10 11 10 9 12 13 11 9 0 0 0 0 0 0 0 9 0 0 0 0 9 9 9 9 9 9 11 10 10 9 9 20 15 17 18 17 16 16 16 17 14 19 16 15 16 16 16 16 15 16 13 15 16 18 17 17 18 21 18 18 19 19 18 19 20 20 17 22 21 21 22 22 22 23 23 23 23 24 24 25 25 25 25 26 26 27 26 25 25 25 28 37 36 33 34 37 34 36 37 37 37 38 38 38 37 39 39 39 39 40 39 43 47 47 48 47 46 47 46 46 45 44 0 0 0 0 0
    0 0 0 0 0 0 0 0 0 0 0 0 0 0 0 0 0 0 0 0 0 0 0 0 0 0 0 0 0 0 0 0 0 0 0 0 0 0 0 0 0 0 0 0 0 0 0 0 0 0 0 0 0 0 0 0 0 0 0 0 0 0 0 0 0 0 0 0 0 0 0 0 9 9 10 11 10 10 10 10 10 9 9 10 9 10 9 9 9 9 9 0 0 0 0 0 0 0 0 0 0 0 0 0 0 0 0 0 0 0 0 0 11 10 10 9 9 0 0 0 0 0 9 9 12 10 0 9 9 0 0 0 0 0 0 0 0 0 11 13 0 9 10 10 10 11 10 11 11 11 11 11 12 11 12 15 12 15 16 16 14 14 12 13 12 12 11 11 0 0 0 9 9 9 9 9 9 10 10 9 11 15 12 17 13 13 13 14 12 12 11 12 9 11 11 10 9 12 14 11 9 0 0 0 0 0 0 0 0 0 0 0 0 9 0 0 0 0 9 10 10 10 9 -177 20 16 17 18 17 16 16 16 17 14 19 16 15 16 16 15 16 15 15 12 15 17 18 16 17 16 21 18 18 19 19 18 19 20 20 18 22 21 21 21 22 22 22 22 22 23 23 24 25 25 25 25 26 26 27 26 25 26 26 29 37 36 34 35 38 35 37 38 38 37 39 38 38 37 38 38 39 38 39 38 43 46 46 48 47 46 47 46 46 45 44 0 0 0 0 0
    0 0 0 0 0 0 0 0 0 0 0 0 0 0 0 0 0 0 0 0 0 0 0 0 0 0 0 0 0 0 0 0 0 0 0 0 0 0 0 0 0 0 0 0 0 0 0 0 0 0 0 0 0 0 0 0 0 0 0 0 0 0 0 0 0 0 0 0 0 0 0 0 9 9 10 10 9 10 10 10 10 9 9 10 10 10 9 9 9 9 9 9 0 0 0 0 0 0 0 0 0 0 0 0 0 0 0 0 0 0 0 0 10 10 9 9 9 0 0 0 0 0 9 9 11 9 0 0 9 0 0 0 0 0 0 0 0 0 11 12 0 0 10 10 11 11 11 11 11 11 11 12 13 11 13 14 13 15 16 15 14 13 12 13 12 12 11 11 0 0 9 9 9 9 0 0 0 10 9 9 10 14 11 17 13 13 13 14 12 12 11 13 9 11 11 10 9 12 15 12 9 9 9 0 0 9 0 0 0 0 0 0 0 0 0 0 0 0 0 9 9 9 0 -177 20 16 17 17 16 16 16 16 17 14 19 16 15 16 15 15 15 14 14 11 15 17 17 17 17 17 21 18 18 19 19 18 20 20 20 18 22 21 20 21 22 22 22 22 22 22 23 23 23 24 24 25 26 27 27 27 27 27 27 29 38 37 35 36 39 36 38 39 39 38 40 39 38 37 38 38 39 38 39 39 42 45 45 47 46 45 46 45 46 45 44 0 0 0 0 0
    0 0 0 0 0 0 0 0 0 0 0 0 0 0 0 0 0 0 0 0 0 0 0 0 0 0 0 0 0 0 0 0 0 0 0 0 0 0 0 0 0 0 0 0 0 0 0 0 0 0 0 0 0 0 0 0 0 0 0 0 0 0 0 0 0 0 0 0 0 0 0 0 0 0 9 0 0 10 10 10 10 10 10 10 10 11 9 9 9 9 9 10 9 10 0 9 9 9 0 0 0 0 0 0 0 0 0 0 0 0 0 0 10 9 0 0 0 0 0 0 0 0 9 9 10 0 0 0 9 0 0 0 0 0 0 9 9 0 11 13 9 9 12 11 12 12 12 12 12 12 12 12 13 11 12 13 14 15 17 15 14 13 12 13 11 11 10 10 0 0 0 9 0 0 0 0 0 9 9 0 9 13 11 17 13 13 14 14 12 12 11 13 9 11 12 10 9 13 16 13 10 10 9 0 0 9 0 0 0 0 0 0 0 0 0 0 0 0 0 9 9 9 9 -177 19 15 16 17 16 16 16 16 17 14 18 16 15 16 15 15 15 14 15 11 15 17 17 17 16 18 21 18 19 20 19 18 20 19 20 18 21 20 20 21 21 22 22 21 22 23 23 23 23 24 24 25 26 27 27 26 26 27 27 29 38 37 35 37 40 38 39 40 41 39 41 41 39 38 39 39 39 39 40 39 42 44 44 46 45 44 45 45 45 45 44 0 0 0 0 0
    0 0 0 0 0 0 0 0 0 0 0 0 0 0 0 0 0 0 0 0 0 0 0 0 0 0 0 0 0 0 0 0 0 0 0 0 0 0 0 0 0 0 0 0 0 0 0 0 0 0 0 0 0 0 0 0 0 0 0 0 0 0 0 0 0 0 0 0 0 0 0 0 0 0 10 0 0 9 10 10 10 10 10 9 10 10 9 9 9 9 9 10 10 11 9 9 9 9 0 0 0 0 0 0 0 0 0 0 0 0 0 0 10 0 0 0 0 0 0 0 0 0 0 9 9 0 0 0 10 0 0 0 0 0 0 9 9 0 11 13 9 10 14 12 13 13 13 13 12 12 12 11 12 11 11 10 11 12 14 13 12 13 11 12 10 10 10 9 0 9 0 0 0 0 0 0 0 9 0 0 0 13 10 16 13 12 14 14 12 12 11 13 10 11 12 11 10 14 17 14 11 10 10 9 0 0 0 0 0 0 0 0 0 0 0 0 0 0 0 9 9 9 9 9 18 15 16 15 15 16 17 17 17 14 18 16 15 15 15 15 15 14 15 11 14 17 18 17 17 17 20 18 19 20 18 18 19 19 19 18 20 19 19 20 21 22 21 21 22 23 23 23 23 24 24 25 26 27 26 26 25 27 26 28 37 36 35 36 40 38 39 39 40 39 41 41 39 38 39 39 39 39 39 39 41 43 43 45 44 44 44 44 45 45 44 0 0 0 0 0
    0 0 0 0 0 0 0 0 0 0 0 0 0 0 0 0 0 0 0 0 0 0 0 0 0 0 0 0 0 0 0 0 0 0 0 0 0 0 0 0 0 0 0 0 0 0 0 0 0 0 0 0 0 0 0 0 0 0 0 0 0 0 0 0 0 0 0 0 0 0 0 0 0 9 11 0 0 9 9 9 9 9 9 9 9 10 0 9 9 9 9 11 10 11 9 9 10 10 0 0 0 0 0 0 0 0 0 0 0 0 0 0 9 0 0 0 0 0 0 0 0 0 0 9 0 0 0 0 10 0 0 0 0 0 0 9 10 0 10 12 9 10 13 12 12 12 13 13 11 12 12 11 11 10 9 0 9 9 11 10 11 12 10 11 10 10 9 0 0 0 0 0 0 0 0 0 0 9 0 0 0 12 10 16 13 12 13 13 12 12 11 13 9 11 12 11 11 14 18 15 12 11 10 9 9 9 0 0 0 0 0 0 0 0 0 0 0 0 0 10 9 9 9 9 17 14 15 14 15 16 17 17 17 13 18 16 15 15 14 14 15 13 15 12 13 17 18 17 17 16 20 18 19 20 19 18 20 20 19 18 20 19 19 20 21 22 21 21 22 23 23 23 23 24 23 25 25 26 25 24 24 26 24 27 36 35 35 36 40 38 39 39 40 39 41 40 39 38 38 38 39 39 39 39 40 42 42 44 43 43 43 44 44 44 44 0 0 0 0 0
    0 0 0 0 0 0 0 0 0 0 0 0 0 0 0 0 0 0 0 0 0 0 0 0 0 0 0 0 0 0 0 0 0 0 0 0 0 0 0 0 0 0 0 0 0 0 0 0 0 0 0 0 0 0 0 0 0 0 0 0 0 0 0 0 0 0 0 0 0 0 0 0 0 0 10 0 0 8 9 9 9 9 9 0 10 10 9 9 9 9 9 11 11 11 9 9 10 10 9 0 0 0 0 0 0 0 0 0 0 0 0 0 0 0 0 0 0 0 0 0 0 0 0 10 9 0 0 0 10 0 0 0 0 0 0 9 10 0 10 11 9 10 12 11 12 12 12 13 11 11 11 10 10 9 0 0 0 0 10 9 9 9 9 9 9 0 0 0 0 0 0 0 0 0 0 0 9 9 0 0 0 13 10 16 12 12 13 12 12 11 11 12 9 11 12 11 11 14 17 14 12 11 10 9 9 8 0 0 0 0 0 0 0 0 0 0 0 0 0 10 9 9 9 9 17 14 15 14 14 16 17 18 17 13 18 16 15 14 14 14 14 13 14 12 13 18 19 18 16 16 20 19 19 19 19 19 20 20 20 18 21 20 20 20 21 22 21 21 22 22 22 22 22 22 22 24 24 25 24 22 22 25 24 28 33 34 34 36 39 38 39 39 39 39 40 40 39 38 38 39 39 39 39 39 40 42 42 43 43 42 43 44 44 44 43 0 0 0 0 0
    0 0 0 0 0 0 0 0 0 0 0 0 0 0 0 0 0 0 0 0 0 0 0 0 0 0 0 0 0 0 0 0 0 0 0 0 0 0 0 0 0 0 0 0 0 0 0 0 0 0 0 0 0 0 0 0 0 0 0 0 0 0 0 0 0 0 0 0 0 0 0 0 0 0 11 0 0 9 9 9 9 9 9 0 10 10 9 9 9 10 10 12 10 11 9 9 10 10 9 9 0 0 0 0 0 0 0 0 0 0 0 0 0 0 0 0 0 0 0 0 0 0 0 10 9 0 0 0 10 0 0 9 0 9 9 10 10 0 10 11 9 10 12 11 13 12 13 13 12 12 12 11 11 9 9 0 0 0 9 0 9 0 0 0 0 0 0 0 0 0 0 0 0 0 0 9 9 9 9 9 0 13 10 15 12 12 13 12 12 11 10 12 9 11 11 10 10 13 15 13 11 11 10 9 9 9 0 0 0 0 0 0 0 0 0 0 0 0 0 10 9 9 9 9 17 14 15 13 14 16 17 18 17 13 18 16 14 14 14 14 14 14 14 12 14 19 20 18 16 16 20 19 20 19 19 17 19 19 19 17 20 19 20 20 22 22 21 20 22 22 22 22 21 21 21 23 24 25 23 22 23 26 26 28 30 31 33 35 39 38 38 39 40 40 41 40 38 38 39 39 40 39 39 39 40 41 41 42 42 41 42 43 43 44 43 0 0 0 0 0
    0 0 0 0 0 0 0 0 0 0 0 0 0 0 0 0 0 0 0 0 0 0 0 0 0 0 0 0 0 0 0 0 0 0 0 0 0 0 0 0 0 0 0 0 0 0 0 0 0 0 0 0 0 0 0 0 0 0 0 0 0 0 0 0 0 0 0 0 0 0 0 0 0 0 11 0 0 9 9 9 9 9 9 0 10 10 9 9 10 10 10 12 10 11 9 10 10 10 9 0 0 0 0 0 0 0 0 0 0 0 0 0 0 0 0 0 0 0 0 0 0 0 0 9 8 0 0 0 9 0 0 9 9 9 9 10 10 0 9 10 9 9 11 11 13 13 14 14 13 13 12 12 11 10 9 0 0 0 9 0 0 0 0 0 0 0 0 0 0 0 0 0 0 9 9 9 9 9 9 9 0 13 10 14 11 11 12 12 11 11 10 11 9 10 11 10 11 13 14 12 11 11 10 9 9 9 0 0 0 0 0 0 0 0 0 0 0 0 0 10 9 9 9 9 17 15 14 13 14 16 17 19 16 13 18 16 14 14 14 14 13 14 14 12 14 19 19 19 17 17 20 19 20 19 19 17 18 19 17 16 20 19 20 21 23 22 20 20 22 22 22 22 21 21 22 24 24 25 23 23 24 27 27 28 28 29 30 32 38 37 37 38 40 40 41 40 38 37 39 39 39 39 38 39 39 41 41 41 41 40 42 43 43 43 43 0 0 0 0 0
    0 0 0 0 0 0 0 0 0 0 0 0 0 0 0 0 0 0 0 0 0 0 0 0 0 0 0 0 0 0 0 0 0 0 0 0 0 0 0 0 0 0 0 0 0 0 0 0 0 0 0 0 0 0 0 0 0 0 0 0 0 0 0 0 0 0 0 0 0 0 0 0 0 0 10 0 0 9 9 9 9 9 9 0 10 11 0 9 10 10 10 12 10 12 10 10 10 10 0 0 0 0 0 0 0 0 0 0 0 0 0 0 0 0 0 0 0 0 0 0 0 0 9 10 9 0 0 0 9 9 0 9 0 9 9 9 10 0 0 9 0 0 10 10 13 13 14 15 13 13 13 13 12 10 10 0 0 0 9 0 0 0 0 0 0 0 0 0 0 0 0 9 9 9 9 10 10 10 10 10 9 13 11 14 11 11 12 11 11 11 9 10 0 10 11 11 11 13 14 13 11 11 11 10 10 10 9 0 0 0 0 0 0 0 0 0 0 0 0 10 9 9 9 9 17 14 14 13 14 15 17 18 16 13 18 16 14 14 14 14 13 14 14 12 14 19 18 20 18 18 20 18 18 18 18 16 17 17 15 14 19 19 19 20 23 21 20 19 21 22 22 21 21 20 22 25 25 26 23 22 24 28 28 28 27 27 29 32 37 36 36 37 40 40 41 39 38 37 39 39 39 39 38 39 39 40 41 40 40 40 41 42 43 43 42 0 0 0 0 0
    0 0 0 0 0 0 0 0 0 0 0 0 0 0 0 0 0 0 0 0 0 0 0 0 0 0 0 0 0 0 0 0 0 0 0 0 0 0 0 0 0 0 0 0 0 0 0 0 0 0 0 0 0 0 0 0 0 0 0 0 0 0 0 0 0 0 0 0 0 0 0 0 0 0 11 0 0 10 9 9 9 9 9 0 10 10 0 9 10 10 10 12 10 11 10 10 10 9 0 0 0 0 0 0 0 0 0 0 0 0 0 0 0 0 0 0 0 9 9 0 0 0 0 9 0 0 0 0 9 9 9 9 0 9 0 9 9 0 0 0 0 0 10 10 13 13 14 15 13 13 13 13 12 10 10 0 0 0 9 0 0 0 0 0 0 0 0 0 0 0 0 -193 9 9 10 10 10 10 10 10 9 14 11 14 11 10 11 11 10 10 9 10 0 9 10 10 11 12 13 12 11 11 11 11 10 10 9 0 9 0 0 0 0 0 0 0 0 0 9 11 10 9 9 9 17 14 14 12 13 15 15 19 16 12 18 16 14 14 14 15 13 14 14 13 14 19 18 20 18 19 19 17 17 17 17 15 16 16 14 14 19 18 19 21 23 20 19 19 21 22 22 22 21 21 23 25 25 26 23 22 24 26 27 28 27 27 29 31 36 34 34 34 37 38 39 38 37 36 38 39 39 39 38 38 39 40 40 40 40 40 40 41 42 42 42 0 0 0 0 0
    0 0 0 0 0 0 0 0 0 0 0 0 0 0 0 0 0 0 0 0 0 0 0 0 0 0 0 0 0 0 0 0 0 0 0 0 0 0 0 0 0 0 0 0 0 0 0 0 0 0 0 0 0 0 0 0 0 0 0 0 0 0 0 0 0 0 0 0 0 0 0 0 0 0 10 9 9 10 9 9 9 9 9 0 10 10 -209 9 10 10 10 12 9 11 10 10 10 9 0 0 0 0 0 0 0 0 0 0 0 0 0 0 0 0 0 0 9 10 10 0 0 0 0 9 0 0 0 0 9 9 9 0 0 0 0 0 0 0 0 0 0 0 9 10 12 13 14 15 14 13 13 13 12 10 10 8 0 0 9 0 0 0 0 0 0 0 0 0 0 0 0 -193 9 10 10 10 11 11 11 11 10 14 11 13 11 10 11 10 10 10 9 10 0 9 10 11 11 12 13 12 11 11 11 11 10 10 9 0 10 0 0 0 0 0 0 0 0 0 10 11 10 9 9 9 17 14 13 12 13 14 15 19 16 12 17 16 14 14 14 15 13 14 15 13 14 18 17 19 18 18 18 16 17 17 16 15 16 16 14 14 18 19 19 21 23 19 19 19 21 22 22 22 22 21 24 26 26 26 23 22 24 25 27 27 26 27 28 30 34 33 33 32 35 37 38 37 36 36 38 38 39 38 37 38 38 40 39 39 39 39 40 41 41 42 41 0 0 0 0 0
    0 0 0 0 0 0 0 0 0 0 0 0 0 0 0 0 0 0 0 0 0 0 0 0 0 0 0 0 0 0 0 0 0 0 0 0 0 0 0 0 0 0 0 0 0 0 0 0 0 0 0 0 0 0 0 0 0 0 0 0 0 0 0 0 0 0 0 0 0 0 0 0 0 0 10 9 9 10 9 9 9 9 9 0 10 10 -193 -193 -193 -193 -193 11 0 10 9 9 9 0 0 0 0 0 0 0 0 0 0 0 0 0 0 0 9 0 0 0 10 11 10 9 0 0 0 9 0 0 0 0 0 0 0 0 0 0 0 0 0 0 0 0 0 0 9 9 11 12 13 15 13 13 13 13 12 10 10 9 0 0 0 0 0 0 0 0 0 0 0 0 0 0 9 -193 10 10 11 11 11 11 11 11 9 12 11 12 10 10 10 10 10 10 9 10 0 9 9 10 10 12 13 12 11 11 11 11 10 10 9 0 9 0 0 0 0 0 9 0 0 0 10 11 10 9 9 9 16 13 13 12 12 13 14 19 16 12 17 17 15 15 15 15 13 14 14 14 14 17 17 20 19 20 19 18 18 18 17 16 16 16 14 13 20 20 20 22 23 18 18 18 21 21 22 22 21 21 25 26 25 26 24 23 25 26 27 28 27 27 28 29 31 31 31 30 32 35 37 35 36 36 37 38 39 38 37 37 38 39 39 39 39 38 39 40 40 41 41 0 0 0 0 0
    0 0 0 0 0 0 0 0 0 0 0 0 0 0 0 0 0 0 0 0 0 0 0 0 0 0 0 0 0 0 0 0 0 0 0 0 0 0 0 0 0 0 0 0 0 0 0 0 0 0 0 0 0 0 0 0 0 0 0 0 0 0 0 0 0 0 0 0 0 0 0 0 0 0 10 9 9 10 9 9 9 9 9 0 9 9 -193 -193 -193 -193 -193 9 0 9 0 0 0 0 0 0 0 0 0 0 0 0 0 0 0 0 0 0 9 9 0 0 11 11 10 9 0 0 0 9 0 0 0 0 0 0 0 0 0 0 0 0 0 0 0 0 0 0 9 9 11 11 12 13 12 12 12 12 11 9 9 9 0 0 9 0 0 0 0 0 0 0 0 0 0 0 9 -193 9 10 10 10 11 11 11 11 10 11 10 12 10 10 10 10 10 10 10 10 0 9 9 10 10 11 12 11 11 11 11 11 10 10 9 9 10 0 0 0 9 0 10 0 0 0 10 12 10 10 10 9 17 13 12 12 12 12 13 18 15 11 16 17 15 15 15 15 13 15 15 14 14 17 18 20 19 20 20 18 18 18 17 16 15 16 14 12 22 20 20 22 23 17 17 17 20 21 21 21 21 20 25 26 26 26 25 24 25 27 28 28 28 28 28 29 30 31 30 30 31 34 35 35 35 36 37 38 38 37 36 37 38 39 39 38 38 38 39 40 40 40 40 0 0 0 0 0
    0 0 0 0 0 0 0 0 0 0 0 0 0 0 0 0 0 0 0 0 0 0 0 0 0 0 0 0 0 0 0 0 0 0 0 0 0 0 0 0 0 0 0 0 0 0 0 0 0 0 0 0 0 0 0 0 0 0 0 0 0 0 0 0 0 0 0 0 0 0 0 0 0 0 9 0 9 10 10 10 9 9 9 9 9 9 0 -193 -193 -193 9 9 0 9 0 0 0 0 0 0 0 0 0 0 0 0 0 0 0 0 0 0 10 10 0 0 12 11 10 9 0 0 0 9 0 0 0 0 0 0 0 0 0 0 0 0 0 0 0 0 0 0 9 9 11 11 12 13 12 12 12 12 11 9 10 9 9 9 9 0 0 0 0 0 0 0 0 0 0 0 9 -193 10 10 11 11 10 10 11 10 10 10 9 11 10 10 11 11 11 10 10 11 9 10 10 10 10 11 11 11 10 10 11 11 10 10 9 9 10 0 0 0 9 0 10 0 0 0 10 12 11 10 10 9 16 12 12 11 11 12 13 17 14 11 16 17 16 15 15 15 13 15 15 14 14 16 17 20 19 20 19 17 17 17 17 16 14 16 14 12 21 20 20 22 23 18 17 17 20 21 21 21 20 19 25 26 26 26 25 25 26 28 28 28 29 28 28 30 30 31 30 30 31 33 35 34 34 35 36 37 38 36 36 35 38 38 38 38 38 37 39 40 40 40 40 0 0 0 0 0
    0 0 0 0 0 0 0 0 0 0 0 0 0 0 0 0 0 0 0 0 0 0 0 0 0 0 0 0 0 0 0 0 0 0 0 0 0 0 0 0 0 0 0 0 0 0 0 0 0 0 0 0 0 0 0 0 0 0 0 0 0 0 0 0 0 0 0 0 0 0 0 0 0 0 9 0 9 10 10 10 9 9 9 9 9 9 0 9 0 -193 9 9 0 9 0 0 0 0 0 0 0 0 0 0 0 0 0 0 0 0 0 0 10 11 0 0 12 11 10 9 0 0 0 9 0 0 0 0 9 0 0 0 0 0 0 0 0 0 0 0 0 0 9 9 12 10 12 13 13 12 12 13 12 10 10 9 9 9 9 0 0 -193 0 0 0 0 0 -193 -193 -193 -193 -193 10 11 11 11 10 10 10 10 10 9 0 11 10 10 11 11 12 11 12 12 10 10 10 10 10 11 11 11 11 11 11 11 10 10 10 10 10 0 0 0 9 0 10 9 9 0 10 11 10 9 9 0 14 11 10 10 10 11 12 16 13 11 16 17 16 15 16 15 13 15 15 14 14 15 16 20 19 20 19 17 17 17 17 16 14 15 14 12 21 20 20 21 22 17 17 17 20 20 21 21 20 19 25 25 26 26 25 25 26 27 28 28 29 28 28 30 30 31 30 30 31 32 35 33 33 35 34 36 36 35 34 33 37 37 37 38 38 38 40 40 40 41 40 0 0 0 0 0
    0 0 0 0 0 0 0 0 0 0 0 0 0 0 0 0 0 0 0 0 0 0 0 0 0 0 0 0 0 0 0 0 0 0 0 0 0 0 0 0 0 0 0 0 0 0 0 0 0 0 0 0 0 0 0 0 0 0 0 0 0 0 0 0 0 0 0 0 0 0 0 0 0 0 9 0 0 10 10 10 9 9 9 9 9 9 0 0 0 0 0 9 9 10 0 0 0 0 0 0 0 0 0 0 0 0 0 0 0 0 0 0 10 11 9 9 12 11 10 9 9 0 0 9 0 0 0 0 10 0 9 9 0 9 0 0 0 0 0 0 0 0 0 8 11 10 11 12 12 11 12 12 11 9 9 9 9 0 0 0 -193 -193 -193 0 0 -193 0 -209 -209 -193 -193 -193 11 12 12 11 10 10 10 10 9 -193 -193 11 10 10 11 12 12 11 12 12 10 11 10 11 10 11 12 12 11 11 11 12 11 11 10 10 11 0 0 0 9 9 10 9 9 9 10 11 10 9 9 0 12 9 9 10 10 10 11 14 13 10 15 18 16 16 16 16 14 15 15 14 14 14 15 19 19 19 20 17 17 17 17 15 14 16 15 12 21 20 20 21 22 16 16 16 19 19 20 20 20 19 24 24 25 25 25 24 25 26 27 27 28 27 27 29 30 31 30 30 30 31 33 31 32 33 32 33 34 33 32 31 36 36 38 39 40 40 41 41 41 41 41 0 0 0 0 0
    0 0 0 0 0 0 0 0 0 0 0 0 0 0 0 0 0 0 0 0 0 0 0 0 0 0 0 0 0 0 0 0 0 0 0 0 0 0 0 0 0 0 0 0 0 0 0 0 0 0 0 0 0 0 0 0 0 0 0 0 0 0 0 0 0 0 0 0 0 0 0 0 0 0 9 0 9 10 10 10 10 9 9 9 9 9 0 0 0 0 0 9 9 11 9 9 0 0 0 0 0 0 0 0 0 0 0 0 0 0 0 0 10 11 0 0 12 11 10 9 9 0 0 10 0 0 0 0 11 9 9 9 0 9 0 0 9 0 0 0 0 0 0 9 10 9 11 11 11 10 11 11 10 0 9 0 0 -177 0 -193 -193 -193 -193 -193 -193 131 -193 -193 -193 -193 -193 -193 -193 12 12 11 10 10 10 10 -193 -193 500 11 11 11 12 12 13 12 12 13 10 11 10 10 10 10 12 12 11 12 12 12 11 11 10 10 11 0 0 0 10 9 10 10 9 9 10 11 9 0 8 0 11 0 0 10 9 10 11 13 12 10 14 18 16 16 17 16 14 15 16 15 13 14 17 18 18 19 20 17 17 17 17 15 14 16 16 12 22 20 20 21 22 16 16 16 19 18 19 19 19 18 23 23 24 23 25 23 24 25 26 26 27 26 27 28 29 31 29 30 30 30 33 31 32 32 30 33 32 31 31 31 37 37 41 42 42 41 42 42 42 41 41 0 0 0 0 0
    0 0 0 0 0 0 0 0 0 0 0 0 0 0 0 0 0 0 0 0 0 0 0 0 0 0 0 0 0 0 0 0 0 0 0 0 0 0 0 0 0 0 0 0 0 0 0 0 0 0 0 0 0 0 0 0 0 0 0 0 0 0 0 0 0 0 0 0 0 0 0 0 0 0 9 9 10 11 11 11 10 9 9 9 9 0 0 0 0 0 0 10 10 11 9 9 9 9 9 0 0 0 0 0 0 0 0 0 0 0 0 0 10 11 0 0 12 11 10 9 0 0 0 10 0 0 0 0 11 9 9 9 9 9 9 9 10 0 0 0 0 0 9 9 10 9 11 10 11 10 11 10 -193 -177 0 0 -177 -177 -177 -193 126 128 -193 -193 130 130 130 133 -193 -209 -209 -193 -193 12 13 -193 -193 10 10 -193 -193 -193 500 11 11 11 12 12 13 12 12 13 10 11 11 10 10 10 12 13 12 11 11 11 11 11 10 10 10 0 9 0 11 9 10 10 10 9 10 11 10 9 9 0 11 9 9 10 9 10 11 13 12 11 14 18 16 16 17 16 15 15 16 15 13 14 18 18 18 19 20 17 17 17 17 15 15 17 17 11 22 20 20 21 22 16 16 16 19 17 18 19 18 16 22 22 22 21 24 23 23 25 25 26 27 26 26 28 29 30 28 29 29 30 32 30 31 32 30 33 33 32 31 31 37 38 41 41 41 41 42 42 42 41 41 0 0 0 0 0
    0 0 0 0 0 0 0 0 0 0 0 0 0 0 0 0 0 0 0 0 0 0 0 0 0 0 0 0 0 0 0 0 0 0 0 0 0 0 0 0 0 0 0 0 0 0 0 0 0 0 0 0 0 0 0 0 0 0 0 0 0 0 0 0 0 0 0 0 0 0 0 0 0 0 9 9 9 10 10 11 10 9 9 0 0 0 0 0 0 0 0 10 10 11 9 9 9 9 9 0 0 0 0 0 0 0 0 0 0 0 0 0 10 11 0 0 12 11 10 9 9 9 9 10 9 0 0 0 11 9 9 9 9 9 9 9 10 0 0 0 0 9 9 9 10 -193 11 10 10 10 10 10 -193 0 -193 -193 -193 -193 -193 -209 -193 -193 -193 -193 129 130 130 133 129 133 -193 -193 -193 12 13 -193 -193 -193 -193 -193 -193 -193 -193 11 11 11 12 12 12 11 12 12 9 11 10 10 10 10 12 13 12 11 10 10 10 9 9 9 9 0 0 0 10 9 10 10 10 9 10 11 10 9 9 9 11 9 10 11 10 11 12 13 13 11 14 18 16 15 17 16 15 15 16 15 13 13 19 18 18 18 20 17 17 17 17 16 15 17 17 11 22 20 20 21 21 16 16 16 19 17 17 18 17 16 21 22 22 20 24 23 23 25 25 26 27 26 26 27 28 29 28 29 29 29 31 30 31 32 30 33 34 33 32 32 39 40 42 42 42 42 42 42 42 42 42 0 0 0 0 0
    0 0 0 0 0 0 0 0 0 0 0 0 0 0 0 0 0 0 0 0 0 0 0 0 0 0 0 0 0 0 0 0 0 0 0 0 0 0 0 0 0 0 0 0 0 0 0 0 0 0 0 0 0 0 0 0 0 0 0 0 0 0 0 0 0 0 0 0 0 0 0 0 0 0 10 0 9 10 10 10 10 9 9 0 0 0 0 0 0 0 0 9 10 11 9 9 9 9 0 0 0 0 0 0 0 0 0 0 0 0 0 0 10 9 0 0 12 11 10 10 9 9 9 10 9 0 0 0 11 9 10 10 9 10 9 10 11 0 0 0 0 9 9 10 10 -193 11 10 10 10 10 10 -209 -193 -193 -193 -193 -193 -193 -209 -193 -193 126 128 129 130 130 132 128 -193 -193 -193 -193 12 12 -193 -193 -193 -193 -193 -193 -193 -209 11 11 11 12 11 12 11 12 12 9 10 10 9 10 9 11 12 11 11 10 10 10 9 9 9 0 0 0 0 10 9 10 9 9 9 10 11 10 9 9 9 11 9 10 11 10 11 12 12 13 11 14 17 16 15 17 16 16 15 17 14 13 15 20 18 18 18 21 17 17 17 17 16 16 18 17 11 21 20 20 21 21 16 16 16 19 16 17 17 16 16 21 22 22 21 24 24 23 25 25 26 27 26 26 27 28 29 28 28 29 29 30 30 30 32 30 33 35 33 34 35 40 41 43 44 44 43 43 42 43 42 42 0 0 0 0 0
    0 0 0 0 0 0 0 0 0 0 0 0 0 0 0 0 0 0 0 0 0 0 0 0 0 0 0 0 0 0 0 0 0 0 0 0 0 0 0 0 0 0 0 0 0 0 0 0 0 0 0 0 0 0 0 0 0 0 0 0 0 0 0 0 0 0 0 0 0 0 0 0 0 0 10 0 9 10 11 11 10 9 9 0 0 0 0 0 0 0 0 10 10 12 9 9 9 9 0 0 0 0 0 0 0 0 0 0 0 0 0 0 0 0 0 0 11 11 10 9 9 9 9 10 9 0 0 0 12 10 11 11 10 11 11 10 12 0 0 9 9 9 9 10 11 -193 11 11 11 10 11 10 -193 -193 -193 -193 -193 -193 -177 -209 -193 -193 126 128 129 130 130 132 128 -193 -193 -193 -193 12 12 -193 -193 -193 -193 -193 -193 -209 -209 11 11 11 12 12 13 11 12 12 9 11 10 10 10 9 11 12 11 11 10 10 10 9 9 9 0 0 0 0 10 9 9 9 9 9 10 11 10 9 9 9 10 9 9 11 10 11 13 12 14 12 15 17 16 16 17 16 16 15 17 13 14 15 20 17 16 17 21 16 16 16 16 15 15 17 17 10 21 21 20 21 21 16 16 16 19 16 16 16 16 15 20 21 22 21 24 24 24 26 26 26 26 26 26 27 28 29 27 28 28 29 30 29 30 31 30 33 34 34 35 35 40 42 43 44 45 44 44 43 43 43 43 0 0 0 0 0
    0 0 0 0 0 0 0 0 0 0 0 0 0 0 0 0 0 0 0 0 0 0 0 0 0 0 0 0 0 0 0 0 0 0 0 0 0 0 0 0 0 0 0 0 0 0 0 0 0 0 0 0 0 0 0 0 0 0 0 0 0 0 0 0 0 0 0 0 0 0 0 0 0 0 12 9 9 12 11 11 11 10 10 0 0 0 0 0 0 0 0 10 10 12 10 10 10 10 8 0 0 0 0 0 0 0 0 0 0 0 0 0 0 0 0 0 11 10 10 9 9 9 9 10 9 0 0 0 11 10 11 11 10 11 11 11 12 0 0 0 0 9 9 10 11 10 11 11 11 10 11 11 -193 0 0 0 -177 -177 -177 -193 -193 -193 -193 -193 129 129 130 132 128 -193 132 -193 -193 12 12 -193 -193 10 -193 -193 10 -209 -193 11 11 11 11 11 12 11 12 12 9 10 10 10 11 10 12 12 12 11 10 10 10 0 0 0 0 0 0 0 10 9 10 9 9 9 9 11 10 0 9 9 10 9 9 11 10 12 13 13 15 13 16 16 16 16 17 16 17 14 17 12 13 16 21 16 16 16 21 16 16 16 16 14 15 17 17 10 21 21 20 20 21 16 15 15 19 16 16 16 16 15 20 21 22 20 23 24 24 25 25 26 26 25 25 27 27 28 27 27 28 28 29 29 28 29 29 32 34 34 36 36 41 42 44 44 45 44 44 43 43 43 43 0 0 0 0 0
    0 0 0 0 0 0 0 0 0 0 0 0 0 0 0 0 0 0 0 0 0 0 0 0 0 0 0 0 0 0 0 0 0 0 0 0 0 0 0 0 0 0 0 0 0 0 0 0 0 0 0 0 0 0 0 0 0 0 0 0 0 0 0 0 0 0 0 0 0 10 0 0 0 0 15 10 10 13 12 12 12 11 11 9 9 9 0 0 0 0 0 10 11 12 10 10 10 11 9 9 0 0 0 0 0 0 0 0 0 0 0 0 0 0 0 0 10 10 10 9 9 9 9 10 9 0 0 0 10 9 10 10 10 11 10 10 11 0 0 0 0 0 9 10 10 10 11 11 11 10 11 11 0 0 0 0 -177 -177 0 -177 -193 -193 -193 -193 128 128 -193 132 128 -193 131 132 -193 11 12 -193 -209 10 -193 -193 10 -209 0 12 11 11 11 11 -193 11 11 11 9 10 10 11 11 11 13 13 13 12 11 10 9 0 0 0 0 0 0 0 10 9 10 10 10 10 9 11 10 9 9 9 10 9 10 12 11 12 13 13 16 13 17 16 15 16 16 16 17 14 18 11 12 18 22 16 16 15 21 16 16 16 16 14 16 17 17 10 21 21 19 20 21 16 15 15 19 16 16 16 16 15 20 21 21 20 23 24 24 25 25 25 25 25 25 26 27 27 27 26 27 27 28 28 28 28 28 31 34 35 36 36 41 42 44 44 45 44 45 43 43 43 43 0 0 0 0 0
    0 0 0 0 0 0 0 0 0 0 0 0 0 0 0 0 0 0 0 0 0 0 0 0 0 0 0 0 0 0 0 0 0 0 0 0 0 0 0 0 0 0 0 0 0 0 0 0 0 0 0 0 0 0 0 0 0 0 0 0 0 0 0 0 0 0 0 0 0 11 11 10 11 10 19 12 12 15 13 13 13 12 12 9 9 9 0 0 0 0 0 9 11 12 11 11 11 11 9 9 0 0 0 0 0 0 0 0 0 0 0 0 0 0 0 0 9 10 9 9 0 0 0 9 9 0 0 0 9 9 10 10 9 10 9 10 10 0 0 0 0 0 9 10 11 10 11 11 10 10 10 9 0 0 0 0 0 0 0 -177 -177 0 -193 -193 -193 -193 -193 131 127 -193 130 -193 10 10 12 -193 -193 10 -193 -193 10 10 9 13 11 11 11 11 -193 10 11 11 0 10 10 11 11 11 13 14 13 12 10 9 9 0 0 0 0 0 0 0 9 9 10 10 10 10 10 11 11 9 10 10 10 10 10 13 11 13 14 14 18 14 17 16 15 16 15 15 16 13 16 10 11 21 22 15 15 15 20 16 16 16 16 14 17 17 17 10 22 22 20 21 21 16 16 15 19 16 16 16 16 15 20 21 21 20 23 25 24 24 25 25 24 24 24 25 25 26 26 25 26 26 27 27 27 27 27 29 33 34 36 37 41 41 43 44 44 45 44 44 43 43 43 0 0 0 0 0
    0 0 0 0 0 0 0 0 0 0 0 0 0 0 0 0 0 0 0 0 0 0 0 0 0 0 0 0 0 0 0 0 0 0 0 0 0 0 0 0 0 0 0 0 0 0 0 0 0 0 0 0 0 0 0 0 0 0 0 0 0 0 0 0 0 0 0 0 0 13 13 13 13 11 20 13 13 16 14 13 13 13 12 9 9 9 0 0 0 0 0 0 11 12 11 11 11 11 9 0 0 0 0 0 0 0 0 0 0 0 0 0 0 0 0 0 9 10 9 0 0 0 0 9 0 0 0 0 0 0 9 9 9 9 0 9 10 9 9 0 9 9 10 11 11 11 11 10 10 9 9 9 0 0 0 0 0 0 0 0 0 0 0 0 -193 -193 0 -193 0 0 0 0 0 9 10 10 9 11 10 10 12 11 10 14 12 12 11 11 -193 10 11 11 0 10 10 10 10 10 12 13 12 11 9 0 0 0 0 0 0 0 0 0 9 0 9 9 9 9 10 11 11 10 11 11 11 12 13 13 12 15 15 15 19 15 17 15 14 15 14 14 14 12 14 0 10 24 22 15 15 14 20 15 16 16 15 14 17 17 17 10 22 21 20 20 21 16 16 15 18 16 16 16 16 15 20 21 21 20 22 25 24 24 24 24 24 24 24 24 25 26 26 25 26 26 28 27 28 28 27 30 34 34 37 -193 -209 -193 40 41 42 43 43 42 42 43 43 0 0 0 0 0
    0 0 0 0 0 0 0 0 0 0 0 0 0 0 0 0 0 0 0 0 0 0 0 0 0 0 0 0 0 0 0 0 0 0 0 0 0 0 0 0 0 0 0 0 0 0 0 0 0 0 0 0 0 0 0 0 0 0 0 0 0 0 0 0 0 0 0 0 0 16 16 15 15 13 20 14 14 17 14 14 14 13 13 9 10 10 0 0 0 0 0 9 12 12 10 10 11 11 0 0 0 0 0 0 0 0 0 0 0 0 0 0 0 0 0 0 0 9 0 0 0 0 0 0 0 0 0 0 0 0 0 0 0 8 0 0 9 9 10 0 9 9 10 11 12 11 10 10 9 9 9 0 0 0 0 0 0 0 0 0 0 0 0 0 0 0 0 0 0 0 0 0 0 0 9 9 9 10 9 9 13 11 10 15 12 12 11 11 -193 10 10 11 0 9 9 9 9 9 10 11 10 9 0 0 0 0 0 0 0 0 0 0 9 0 9 9 9 9 11 12 12 11 12 12 12 15 15 14 13 16 16 18 20 15 18 15 14 15 14 13 14 12 14 0 10 25 22 15 15 14 20 15 16 15 15 14 16 17 17 10 20 20 18 19 20 16 16 15 18 17 16 17 16 15 20 21 21 21 23 25 25 24 25 24 25 24 24 25 25 26 26 25 27 26 27 27 28 28 27 30 33 33 36 -193 36 34 34 37 38 40 42 41 41 42 42 0 0 0 0 0
    0 0 0 0 0 0 0 0 0 0 0 0 0 0 0 0 0 0 0 0 0 0 0 0 0 0 0 0 0 0 0 0 0 0 0 0 0 0 0 0 0 0 0 0 0 0 0 0 0 0 0 0 0 0 0 0 0 0 0 0 0 0 0 0 0 0 0 0 0 17 18 16 17 16 21 15 14 17 14 14 14 13 13 10 10 11 0 0 0 0 9 9 12 11 10 9 10 10 0 0 0 0 0 0 0 0 0 0 0 0 0 0 0 0 0 0 0 9 0 0 0 0 0 0 0 0 0 0 0 0 0 0 0 0 0 0 0 9 10 0 0 0 0 9 10 9 9 9 0 0 0 0 0 0 0 0 0 0 0 0 0 0 0 0 0 0 0 -193 0 0 0 0 0 0 0 0 9 10 9 9 14 11 11 16 12 12 12 11 -193 10 11 11 0 9 9 9 9 9 10 10 9 0 0 0 0 0 0 0 0 0 0 0 0 0 9 9 9 9 10 12 12 11 11 11 12 16 15 14 15 17 17 20 21 16 18 15 15 14 14 13 13 11 14 0 10 25 21 14 14 13 20 15 15 15 15 14 16 17 17 10 19 19 17 19 20 16 16 15 18 17 17 17 17 16 21 21 22 21 23 26 26 25 25 24 25 24 24 24 25 26 25 25 27 26 27 27 27 28 27 30 33 32 35 -193 34 31 31 36 36 39 42 41 41 42 43 0 0 0 0 0
    0 0 0 0 0 0 0 0 0 0 0 0 0 0 0 0 0 0 0 0 0 0 0 0 0 0 0 0 0 0 0 0 0 0 0 0 0 0 0 0 0 0 0 0 0 0 0 0 0 0 0 0 0 0 0 0 0 0 0 0 0 0 0 0 0 0 0 0 0 18 19 18 19 17 22 16 15 18 15 14 14 14 14 10 11 12 0 0 0 9 10 10 12 11 9 9 10 10 0 0 0 0 0 0 0 0 0 0 0 0 0 0 0 0 0 0 0 0 0 0 0 0 0 0 0 0 0 0 0 0 0 0 0 0 0 0 0 9 10 0 0 0 0 0 0 0 0 0 0 0 0 0 0 0 0 0 0 0 0 0 -193 -193 0 -209 0 0 -193 -193 -193 -193 -193 -193 -193 -193 -193 0 9 10 9 0 14 -193 11 17 13 12 13 12 -193 10 11 11 0 9 9 9 9 9 10 10 9 9 0 0 0 0 0 0 0 0 0 0 0 0 9 9 9 9 9 10 10 11 11 11 12 15 14 13 15 16 17 20 21 16 19 16 15 14 14 13 13 11 14 0 0 -177 21 13 13 13 20 15 15 15 15 14 16 17 17 10 19 19 17 19 20 16 16 15 18 18 17 18 17 16 21 21 22 22 24 27 27 25 25 24 25 24 23 24 25 25 25 25 27 25 26 27 27 27 27 30 31 30 34 33 31 30 28 31 31 37 42 41 41 43 43 0 0 0 0 0
    0 0 0 0 0 0 0 0 0 0 0 0 0 0 0 0 0 0 0 0 0 0 0 0 0 0 0 0 0 0 0 0 0 0 0 0 0 0 0 0 0 0 0 0 0 0 0 0 0 0 0 0 0 0 0 0 0 0 0 0 0 0 0 0 0 0 0 0 0 18 20 19 20 18 22 16 16 18 15 15 15 14 14 10 12 12 0 0 9 10 11 10 12 10 9 9 9 9 9 0 0 0 0 0 0 0 0 0 9 9 9 0 0 0 0 0 0 0 0 0 0 0 0 0 0 0 0 0 0 0 0 0 0 0 0 0 0 9 10 0 0 0 0 0 -177 0 -177 -177 -177 0 0 0 0 0 0 0 0 0 9 0 -193 -193 -193 13 0 0 -193 371 -193 370 372 370 -193 -193 -193 -193 9 9 0 0 14 -193 10 17 13 13 13 12 11 10 11 11 9 10 10 9 9 10 10 10 10 9 0 0 0 0 0 0 0 0 0 0 0 0 9 9 9 9 9 10 10 11 11 11 12 16 14 13 15 16 17 20 20 15 18 15 15 14 14 13 12 11 14 0 0 -193 21 13 13 12 20 15 15 15 15 14 17 17 17 10 20 20 17 19 20 16 16 15 18 17 17 18 17 16 21 21 21 21 24 27 27 25 25 24 24 24 23 23 25 25 25 25 26 25 26 27 27 27 27 29 30 28 31 31 29 28 26 27 28 34 40 41 41 43 44 0 0 0 0 0
    0 0 0 0 0 0 0 0 0 0 0 0 0 0 0 0 0 0 0 0 0 0 0 0 0 0 0 0 0 0 0 0 0 0 0 0 0 0 0 0 0 0 0 0 0 0 0 0 0 0 0 0 0 0 0 0 0 0 0 0 0 0 0 0 0 0 0 0 0 18 21 20 21 19 22 17 16 18 15 15 15 15 15 11 13 14 9 9 11 11 12 10 12 9 0 0 0 0 0 0 0 0 9 0 0 0 0 0 9 9 9 0 0 0 0 0 0 0 0 0 0 0 0 0 0 0 0 0 0 0 0 0 0 0 0 0 0 10 11 0 0 0 0 0 9 -177 -177 -177 -177 0 0 0 0 0 0 0 0 0 10 9 -193 -209 -193 12 0 0 -193 371 369 370 371 370 -193 -193 -193 0 0 0 0 0 13 -193 10 17 13 13 13 12 12 10 11 12 9 10 10 9 9 10 10 10 10 9 0 0 0 0 0 0 0 0 0 0 0 0 9 9 9 9 10 11 11 12 12 11 13 17 14 14 15 16 16 20 19 15 17 15 14 13 13 13 12 12 14 0 0 -193 21 13 13 12 20 15 15 15 15 14 17 17 18 11 21 20 19 20 20 16 16 15 18 17 17 18 17 16 21 21 20 19 23 26 25 24 24 23 23 24 22 23 25 25 25 25 27 26 26 27 27 27 27 29 30 28 31 31 29 28 27 28 29 34 40 41 41 43 44 0 0 0 0 0
    0 0 0 0 0 0 0 0 0 0 0 0 0 0 0 0 0 0 0 0 0 0 0 0 0 0 0 0 0 0 0 0 0 0 0 0 0 0 0 0 0 0 0 0 0 0 0 0 0 0 0 0 0 0 0 0 0 0 0 0 0 0 0 0 0 0 0 0 0 18 21 20 22 19 22 17 16 18 15 15 15 15 15 11 14 14 9 10 12 11 13 10 10 0 0 0 0 0 0 0 0 0 0 0 0 0 0 0 9 9 9 0 9 9 0 0 9 9 0 0 9 9 9 10 0 0 0 0 0 0 0 0 0 0 0 0 0 10 12 0 0 0 9 0 9 -177 -177 -177 -177 0 0 0 0 0 0 0 0 0 10 0 -193 -209 -209 10 0 0 -193 371 369 370 371 370 -193 -193 -193 0 0 0 0 0 12 -193 -193 17 13 12 13 12 12 10 11 12 9 9 10 9 9 10 10 10 10 9 0 0 0 0 9 0 0 0 0 0 0 0 9 9 9 9 11 13 12 13 12 12 13 18 15 14 15 15 16 20 18 15 16 14 14 13 13 13 11 12 14 0 0 -177 21 13 13 13 20 15 15 15 15 14 18 18 18 12 22 22 20 21 21 16 16 15 18 17 17 18 17 16 21 21 20 19 22 24 24 23 22 22 22 23 22 23 26 25 25 25 27 26 27 27 27 27 27 29 30 28 31 31 29 29 27 30 30 33 39 40 40 43 43 0 0 0 0 0
    0 0 0 0 0 0 0 0 0 0 0 0 0 0 0 0 0 0 0 0 0 0 0 0 0 0 0 0 0 0 0 0 0 0 0 0 0 0 0 0 0 0 0 0 0 0 0 0 0 0 0 0 0 0 0 0 0 0 0 0 0 0 0 0 0 0 0 0 0 17 21 20 22 19 22 17 16 18 15 14 15 14 15 11 14 14 9 9 11 10 12 9 9 0 0 0 0 0 0 0 0 0 0 0 0 0 0 0 9 9 9 0 9 10 9 0 9 9 0 9 10 9 9 10 0 0 0 0 0 0 0 0 0 0 0 0 0 11 13 0 0 10 9 8 9 0 0 -177 0 0 0 0 0 0 0 0 0 -177 0 -193 -193 65 -209 -209 0 0 0 -193 -193 -193 371 -193 -193 -193 -193 0 9 0 0 0 12 -193 9 17 13 -193 -193 12 11 10 11 11 8 9 9 9 0 10 10 10 10 9 0 0 8 9 9 9 0 0 0 9 0 0 10 9 9 9 11 13 11 12 12 11 13 18 14 13 14 15 16 20 17 15 16 14 14 13 13 12 11 12 14 0 10 23 21 13 13 13 19 15 15 15 15 14 18 18 19 12 22 22 21 21 21 16 15 14 18 17 17 17 17 17 21 21 20 18 21 23 23 22 20 21 21 22 21 22 26 24 25 25 28 26 26 27 27 27 27 29 29 27 30 31 29 29 27 31 29 31 37 38 39 42 42 0 0 0 0 0
    0 0 0 0 0 0 0 0 0 0 0 0 0 0 0 0 0 0 0 0 0 0 0 0 0 0 0 0 0 0 0 0 0 0 0 0 0 0 0 0 0 0 0 0 0 0 0 0 0 0 0 0 0 0 0 0 0 0 0 0 0 0 0 0 0 0 0 0 0 16 22 19 21 16 22 15 15 17 14 14 14 14 15 12 14 14 9 9 11 11 12 9 9 0 0 0 0 0 0 0 0 0 0 0 0 0 0 0 0 0 0 0 0 10 9 0 9 9 9 9 10 9 9 10 0 0 0 0 0 0 0 0 -193 0 0 0 0 11 14 0 9 11 10 9 9 0 0 0 0 0 0 0 0 0 0 0 0 -177 0 -209 -193 65 -209 -209 0 0 0 -193 -193 -193 -193 0 0 -193 -193 0 8 0 0 0 13 9 9 17 12 -193 -193 12 -193 9 10 11 0 9 9 0 0 10 10 11 10 9 0 0 9 9 9 9 0 10 9 11 10 9 11 10 10 10 11 13 11 12 12 11 13 17 14 13 14 16 17 20 17 15 16 15 15 14 14 13 11 14 16 0 12 -193 21 12 12 12 19 14 14 15 15 14 18 18 19 12 22 22 21 21 21 15 15 14 18 17 17 17 18 17 22 22 21 18 22 24 24 23 22 22 21 22 22 23 28 25 25 25 28 26 27 28 28 27 27 29 29 27 30 31 28 29 27 31 28 27 31 34 36 40 40 0 0 0 0 0
    0 0 0 0 0 0 0 0 0 0 0 0 0 0 0 0 0 0 0 0 0 0 0 0 0 0 0 0 0 0 0 0 0 0 0 0 0 0 0 0 0 0 0 0 0 0 0 0 0 0 0 0 0 0 0 0 0 0 0 0 0 0 0 0 0 0 0 0 0 15 21 16 19 11 21 14 14 16 14 14 14 15 15 12 15 15 10 -193 11 10 12 0 0 0 0 0 0 0 0 0 0 0 0 -193 -193 0 -193 0 0 0 0 0 0 9 9 0 9 9 9 10 11 10 10 10 0 -193 0 0 0 0 0 0 -193 0 0 0 0 11 14 0 11 14 15 13 -209 0 0 0 0 0 0 0 0 0 0 0 -177 -193 -209 -209 59 68 -209 -209 0 0 0 0 0 -193 0 0 0 0 -193 0 0 -193 -209 0 -193 9 8 16 12 -193 -193 11 -193 9 10 10 0 0 9 0 0 10 10 11 11 9 0 0 10 10 9 9 0 10 10 12 10 9 11 10 10 10 12 13 12 12 12 12 14 18 14 13 14 16 18 -193 17 15 17 16 16 15 16 15 12 15 17 9 -193 -209 -209 11 10 11 18 14 14 14 14 14 18 18 19 12 22 23 22 21 21 15 15 -193 19 16 16 17 18 17 22 22 22 19 24 25 26 26 24 24 22 24 24 24 29 24 24 25 28 26 -193 -193 27 -193 28 29 29 27 30 31 28 29 27 31 28 27 29 32 35 39 39 0 0 0 0 0
    0 0 0 0 0 0 0 0 0 0 0 0 0 0 0 0 0 0 0 0 0 0 0 0 0 0 0 0 0 0 0 0 0 0 0 0 0 0 0 0 0 0 0 0 0 0 0 0 0 0 0 0 0 0 0 0 0 0 0 0 0 0 0 0 0 0 0 0 0 12 19 11 12 -177 20 13 12 15 13 14 14 15 16 13 16 16 -209 -209 -209 -209 -209 -193 -209 0 0 0 0 0 0 0 0 0 -209 -193 -193 -193 -193 -193 0 0 0 0 0 9 9 0 9 9 10 11 12 11 11 11 0 -193 0 0 0 0 -193 -193 -193 -193 0 0 -209 11 15 0 13 18 -193 18 -209 -209 0 0 0 -193 -193 -193 -209 0 -193 -177 -209 -209 -209 58 62 -209 102 -209 -209 0 0 0 0 0 0 0 0 0 0 0 0 -209 -209 -193 -209 -209 0 16 12 -193 -193 11 -193 9 10 10 0 0 9 0 9 10 10 12 11 10 -193 -209 -209 -209 10 11 -193 12 11 13 9 -193 10 10 10 10 12 14 12 13 13 12 15 19 14 14 15 16 17 20 17 16 17 16 16 15 17 15 13 16 18 9 -193 -209 -209 9 0 10 17 13 14 14 15 15 19 19 19 13 22 24 23 22 21 16 15 -193 -193 16 16 17 18 17 22 22 22 20 24 24 25 27 25 24 22 23 23 25 30 25 24 25 28 26 -193 -193 27 -193 28 29 29 27 29 31 28 29 27 31 28 27 28 32 35 38 38 0 0 0 0 0
    0 0 0 0 0 0 0 0 0 0 0 0 0 0 0 0 0 0 0 0 0 0 0 0 0 0 0 0 0 0 0 0 0 0 0 0 0 0 0 0 0 0 0 0 0 0 0 0 0 0 0 0 0 0 0 0 0 0 0 0 0 0 0 0 0 0 0 0 0 10 17 9 0 0 -177 12 12 15 13 13 15 16 17 -193 -193 -193 -209 -209 -193 -209 -209 -209 -209 0 0 0 0 0 0 0 0 0 -209 -193 -193 -209 -177 -193 0 0 0 0 0 0 9 0 9 10 11 12 13 11 12 12 -193 -177 -193 0 0 0 -193 -193 -193 -209 -209 -209 -209 11 -193 -209 -193 -193 -193 19 -209 -209 -209 -209 -209 -209 272 -193 -193 -209 -209 -209 -209 -209 -209 -209 -209 -193 -209 -193 141 -209 -209 0 0 0 0 0 0 0 0 0 0 -209 -193 -193 -209 -209 -209 -193 11 12 11 -193 -193 9 10 9 0 0 -209 -209 9 10 -209 -193 -193 -209 -209 -209 745 757 -209 13 -193 -209 12 -209 -209 -209 -209 9 9 10 12 14 12 13 13 13 16 19 15 14 14 16 18 -193 17 16 18 17 16 16 17 16 13 17 18 0 -193 -193 -209 0 -193 -193 -193 13 13 14 14 15 19 19 20 14 23 24 24 22 22 16 15 -193 19 16 16 17 18 18 22 23 22 20 23 24 25 27 26 25 23 25 25 26 31 25 25 25 28 27 27 28 27 26 28 29 29 26 29 30 28 30 27 32 29 27 28 33 35 38 37 0 0 0 0 0
    0 0 0 0 0 0 0 0 0 0 0 0 0 0 0 0 0 0 0 0 0 0 0 0 0 0 0 0 0 0 0 0 0 0 0 0 0 0 0 0 0 0 0 0 0 0 0 0 0 0 0 0 0 0 0 0 0 0 0 0 0 0 0 0 0 0 0 0 0 0 0 0 0 0 15 11 11 14 13 13 15 16 18 287 289 291 -193 -209 -209 -209 -209 -209 -209 -209 0 0 0 0 0 0 0 -209 -193 620 -193 -209 -177 -209 -209 0 0 0 0 10 10 11 12 13 13 16 15 13 13 14 -193 -177 -193 -193 0 0 -209 -193 -193 -209 -209 -209 -209 -209 -209 -209 -209 -193 -193 22 -209 -193 -209 -209 -209 -193 271 271 -193 -209 -193 -193 -209 -209 -193 -209 147 149 -193 144 148 -193 -209 -209 -193 0 0 0 0 0 -193 0 0 -209 397 -193 -209 -209 -209 -193 11 12 11 -193 -193 9 10 9 0 0 -209 -209 -193 -193 153 -177 -209 -209 -209 -209 -193 757 771 775 -209 -209 -193 -209 -209 -209 -193 0 9 9 12 14 12 13 13 13 17 19 15 14 14 17 -193 -193 17 16 18 17 15 16 16 16 -193 18 18 0 0 -193 0 -193 -193 -209 -193 -193 12 13 14 15 19 19 19 14 23 25 26 23 22 17 -193 -193 19 16 16 17 18 18 22 22 22 19 22 23 24 25 25 24 23 24 25 25 30 26 25 25 29 27 27 28 28 27 28 29 29 26 29 30 29 31 28 34 29 28 29 -193 34 35 34 0 0 0 0 0
    0 0 0 0 0 0 0 0 0 0 0 0 0 0 0 0 0 0 0 0 0 0 0 0 0 0 0 0 0 0 0 0 0 0 0 0 0 0 0 0 0 0 0 0 0 0 0 0 0 0 0 0 0 0 0 0 0 0 0 0 0 0 0 0 0 0 0 0 0 -193 -193 0 0 0 -209 10 11 -193 13 14 15 18 20 286 -177 290 -209 -209 -209 -177 -209 -209 -209 -209 -193 -193 0 0 -193 0 -209 -209 -209 621 -209 -209 -209 -177 -209 0 0 0 0 0 9 11 12 17 18 20 19 16 18 -193 -177 -177 -209 -209 -209 0 -193 -193 -193 -193 -193 153 152 155 -193 -209 -209 568 571 -209 -209 988 -209 -193 156 -209 -193 270 -193 -193 -193 -193 -193 153 153 153 150 151 151 149 150 -193 -209 153 -177 -193 -193 -193 -193 -193 -193 -193 -193 -193 -177 -177 -209 -209 58 58 -209 -209 -209 -209 -209 -177 -177 -193 0 -209 152 150 150 152 154 156 155 151 -193 -193 -193 -193 773 -193 -209 154 156 157 156 156 -209 0 0 9 -193 -193 12 13 13 13 17 20 16 15 15 18 -193 21 18 18 18 18 16 17 18 -193 164 -193 20 -193 -193 11 -193 -209 -209 -209 -193 -193 11 12 13 14 18 18 18 14 23 25 27 24 24 20 -193 -193 19 18 16 17 19 18 22 22 22 19 21 22 23 23 24 23 20 22 23 24 29 25 25 25 29 27 27 28 28 27 28 30 30 26 29 31 30 33 31 36 32 29 31 845 -209 30 28 0 0 0 0 0
    0 0 0 0 0 0 0 0 0 0 0 0 0 0 0 0 0 0 0 0 0 0 0 0 0 0 0 0 0 0 0 0 0 0 0 0 0 0 0 0 0 0 0 0 0 0 0 0 0 0 0 0 0 0 0 0 0 0 0 0 0 0 0 0 0 0 0 0 0 -193 -209 -209 -209 -209 -209 -209 -209 -209 -193 14 17 19 -193 -209 -209 -209 -209 -209 -209 -209 -177 -209 -209 -209 -209 -209 -209 -193 155 155 -209 -209 -209 -193 815 -193 -193 530 -209 -209 -193 0 0 0 0 9 -177 18 21 23 22 20 -209 -209 -209 147 -209 -209 -209 -209 -193 -193 -193 152 153 153 153 155 155 -193 -209 -193 -209 -209 -209 -193 -193 154 156 -193 -193 -193 155 155 155 155 154 154 154 154 151 152 152 150 151 -193 152 153 158 158 156 -193 -193 -193 -193 -193 -209 -209 405 409 -209 -209 58 58 -209 258 -193 -209 -177 -209 -209 -193 -193 -193 151 151 151 153 155 156 156 153 153 153 155 -193 -193 -209 153 154 156 156 156 155 155 -193 -193 -193 -193 -193 12 13 13 14 18 20 16 15 15 19 20 21 19 18 19 18 16 17 18 -193 -177 -193 -209 -209 -209 13 -193 -209 -193 -209 -193 -193 11 12 12 13 17 16 17 14 23 -193 27 24 25 21 -193 -209 20 19 18 18 20 20 23 24 23 -209 -209 -209 -209 22 23 21 17 18 21 23 27 24 24 24 28 27 27 28 27 26 28 30 30 25 28 31 32 36 35 37 -193 -193 -209 847 -193 -209 -209 0 0 0 0 0
    0 0 0 0 0 0 0 0 0 0 0 0 0 0 0 0 0 0 0 0 0 0 0 0 0 0 0 0 0 0 0 0 0 0 0 0 0 0 0 0 0 0 0 0 0 0 0 0 0 0 0 0 0 0 0 0 0 0 0 0 0 0 0 0 0 0 0 0 0 -193 151 152 156 -193 -209 -209 -209 -209 -193 -209 155 153 152 151 151 149 -193 -209 -209 -209 1008 -209 -209 -193 158 158 157 155 155 155 154 -193 151 150 815 -193 -193 524 -177 -209 -209 0 0 -209 -193 -209 -209 -193 -209 -209 -209 -209 -193 -193 -193 154 -193 153 153 -209 152 153 152 153 153 154 154 155 155 155 156 156 155 155 -193 -193 154 155 155 154 153 157 154 154 155 154 154 154 154 154 151 152 151 150 151 151 152 153 158 157 155 156 158 158 158 158 157 -209 -209 -209 -209 -209 -193 -193 155 -193 -193 154 154 154 153 152 153 152 151 151 153 154 157 157 157 155 154 155 156 156 -193 156 154 155 156 155 155 155 155 155 155 156 155 -209 -193 12 13 13 18 20 16 16 17 20 21 21 20 19 19 -193 -193 17 -209 -193 164 166 -177 -209 -209 -209 -209 -209 -209 -209 -209 -193 10 11 -193 13 16 15 16 13 -193 -209 -209 23 -193 -193 -193 -193 21 20 19 19 21 -193 -209 -209 -209 -209 -177 -193 -209 -209 -193 -193 -193 -193 -193 -193 -193 -193 24 24 28 27 27 27 28 26 28 30 31 25 28 32 35 39 -209 -209 338 -177 -177 -209 -193 -177 -193 0 0 0 0 0
    0 0 0 0 0 0 0 0 0 0 0 0 0 0 0 0 0 0 0 0 0 0 0 0 0 0 0 0 0 0 0 0 0 0 0 0 0 0 0 0 0 0 0 0 0 0 0 0 0 0 0 0 0 0 0 0 0 0 0 0 0 0 0 0 0 0 0 0 0 151 152 153 156 156 157 155 156 153 154 155 155 154 152 151 151 150 152 152 153 153 -193 153 155 156 155 155 155 154 154 154 154 153 153 152 153 153 154 -209 -209 -209 152 -193 -193 152 151 -193 -193 -193 -193 155 155 156 155 155 155 155 154 154 155 154 153 154 153 153 153 154 154 154 154 156 156 157 156 156 156 155 154 155 154 153 153 156 154 154 154 154 153 154 154 154 151 152 152 151 151 152 152 153 157 156 155 156 157 157 157 157 157 153 155 155 154 155 155 155 155 155 155 154 154 154 154 153 153 152 152 153 154 156 159 158 158 157 156 157 157 157 159 157 155 156 156 155 155 155 156 155 155 156 155 154 156 -193 15 15 20 -209 -193 -193 -193 -193 -209 -209 -209 -209 -193 -193 -209 -209 -193 161 164 165 164 157 -209 -193 -209 -209 -209 -209 -209 -209 -193 -193 -193 -193 -193 -193 -193 160 160 159 161 -193 -209 -209 -209 -209 22 -177 19 20 22 -209 -209 -209 -193 165 163 -193 -193 -177 166 162 162 162 162 162 161 161 -193 24 27 26 27 28 28 27 29 33 33 -193 27 33 37 44 -177 -209 339 -209 -177 -209 -209 218 -193 0 0 0 0 0
    0 0 0 0 0 0 0 0 0 0 0 0 0 0 0 0 0 0 0 0 0 0 0 0 0 0 0 0 0 0 0 0 0 0 0 0 0 0 0 0 0 0 0 0 0 0 0 0 0 0 0 0 0 0 0 0 0 0 0 0 0 0 0 0 0 0 0 0 0 152 153 153 156 155 155 154 155 153 154 154 155 154 153 152 152 151 153 153 153 153 152 153 154 155 155 155 155 154 154 154 154 154 153 153 153 153 154 153 153 152 152 152 153 153 152 152 154 155 155 155 154 156 155 154 154 154 154 154 155 154 153 154 153 153 153 153 153 154 154 155 156 157 156 158 157 157 155 155 154 153 153 155 153 153 153 153 153 154 154 154 152 152 152 151 151 152 152 153 156 155 155 155 156 157 157 156 157 154 157 156 156 156 156 156 156 155 155 154 155 154 154 153 153 151 152 154 155 156 160 158 159 159 158 158 158 157 158 157 155 156 156 155 156 156 156 156 155 156 155 154 156 155 153 -193 152 153 152 151 152 152 153 154 153 156 -193 158 160 160 160 159 161 162 159 158 155 161 -193 156 157 155 156 155 156 156 155 156 157 157 159 159 159 158 160 161 158 159 158 158 -193 -209 -193 -193 -193 -193 -209 -193 162 163 162 164 164 163 165 161 162 162 161 161 161 160 161 -193 -193 26 27 29 30 29 31 36 -193 -209 -209 -193 39 49 -209 -209 -209 166 167 167 -209 -193 166 0 0 0 0 0
    0 0 0 0 0 0 0 0 0 0 0 0 0 0 0 0 0 0 0 0 0 0 0 0 0 0 0 0 0 0 0 0 0 0 0 0 0 0 0 0 0 0 0 0 0 0 0 0 0 0 0 0 0 0 0 0 0 0 0 0 0 0 0 0 0 0 0 0 0 152 152 153 155 155 155 155 155 154 154 154 155 154 153 152 152 151 153 152 152 152 152 153 154 154 155 154 155 154 155 155 155 154 154 154 154 154 154 153 153 152 152 152 153 153 153 152 154 154 154 154 154 155 154 154 154 153 153 154 154 154 153 153 153 152 152 153 153 153 153 154 155 157 157 160 159 159 156 156 155 154 154 156 154 154 153 153 154 154 154 154 153 153 153 151 152 151 152 152 155 154 155 155 156 156 157 156 157 154 157 156 157 157 157 156 156 155 155 154 154 154 153 153 153 151 152 154 155 156 159 158 158 159 158 158 157 156 157 156 155 155 156 155 155 156 156 156 155 156 156 155 156 156 155 156 155 156 155 154 155 155 156 156 155 158 156 158 158 158 159 158 159 159 156 157 155 161 158 157 157 156 156 156 157 157 155 157 156 157 158 158 159 157 159 160 158 159 158 158 156 157 157 158 156 157 162 160 160 163 162 163 164 162 164 161 162 162 161 161 160 159 160 156 158 162 -193 160 160 161 -193 162 163 159 156 158 -209 -209 -209 165 167 166 165 166 167 165 166 0 0 0 0 0
    0 0 0 0 0 0 0 0 0 0 0 0 0 0 0 0 0 0 0 0 0 0 0 0 0 0 0 0 0 0 0 0 0 0 0 0 0 0 0 0 0 0 0 0 0 0 0 0 0 0 0 0 0 0 0 0 0 0 0 0 0 0 0 0 0 0 0 0 0 151 152 153 154 154 154 154 155 153 154 154 155 153 153 152 152 151 153 152 152 152 152 153 154 154 154 154 155 155 155 155 155 155 155 154 154 154 154 153 153 152 152 152 153 153 152 -193 154 154 154 154 153 155 154 154 153 152 153 153 154 153 153 153 152 152 152 153 153 153 153 154 155 156 157 160 159 160 157 156 156 155 156 157 154 154 154 154 154 155 155 154 153 153 153 152 152 151 152 152 154 154 154 155 155 156 157 156 157 154 158 157 158 157 157 156 157 156 155 154 154 153 153 153 153 151 152 154 155 157 159 158 159 159 158 158 157 156 156 156 154 155 155 155 155 156 156 156 155 157 156 155 156 157 157 157 156 157 156 156 157 156 157 157 156 159 156 157 157 156 157 156 157 156 155 156 155 161 158 157 157 156 157 156 157 157 155 157 156 157 158 158 158 157 158 160 157 159 158 158 156 157 157 158 156 158 163 159 160 163 162 162 163 161 164 160 162 161 161 161 160 159 160 156 157 160 159 160 160 160 161 161 163 161 158 160 159 161 166 165 167 165 164 165 166 165 166 0 0 0 0 0
    0 0 0 0 0 0 0 0 0 0 0 0 0 0 0 0 0 0 0 0 0 0 0 0 0 0 0 0 0 0 0 0 0 0 0 0 0 0 0 0 0 0 0 0 0 0 0 0 0 0 0 0 0 0 0 0 0 0 0 0 0 0 0 0 0 0 0 0 0 152 153 153 154 154 153 154 154 153 154 153 154 153 152 152 152 151 153 153 153 152 153 153 154 154 155 154 155 155 156 155 155 155 155 154 154 154 154 153 153 152 152 152 153 153 152 -209 154 153 154 -193 -193 155 154 154 153 152 152 153 153 153 153 153 152 153 153 153 153 153 153 154 155 157 158 161 160 161 157 157 157 156 156 157 155 155 154 155 155 155 155 154 153 153 153 152 152 151 152 152 154 154 154 154 155 156 156 155 157 154 159 157 158 157 156 156 156 155 155 154 154 153 153 153 153 151 152 154 156 157 159 159 159 159 158 158 157 156 156 156 154 155 156 155 155 156 157 156 155 157 157 156 156 157 157 157 157 157 157 156 157 157 158 157 157 159 157 156 156 156 156 156 156 156 155 156 155 160 158 157 157 156 157 156 157 158 156 157 157 157 158 158 159 157 158 160 158 159 158 158 157 157 158 159 157 159 163 159 160 162 161 161 163 160 163 160 161 161 160 160 160 158 160 156 158 161 159 160 159 159 160 161 161 160 158 159 159 161 165 164 166 164 163 165 166 164 165 0 0 0 0 0
    0 0 0 0 0 0 0 0 0 0 0 0 0 0 0 0 0 0 0 0 0 0 0 0 0 0 0 0 0 0 0 0 0 0 0 0 0 0 0 0 0 0 0 0 0 0 0 0 0 0 0 0 0 0 0 0 0 0 0 0 0 0 0 0 0 0 0 0 0 153 153 153 154 154 153 153 154 152 153 152 153 152 151 151 152 151 153 153 154 153 -193 153 -193 -193 -193 154 154 155 155 155 155 156 155 154 154 154 153 153 153 -193 -193 153 153 153 152 -193 -193 152 153 -193 -193 154 -193 153 -193 152 152 152 153 153 152 153 152 153 153 153 153 153 153 154 155 156 159 161 159 161 157 158 157 156 157 157 155 155 154 155 155 155 155 154 153 153 153 152 152 151 152 152 153 153 153 154 154 155 155 154 156 153 158 157 157 156 155 155 156 155 155 154 154 153 153 153 153 151 152 155 156 158 160 158 159 159 159 159 157 156 156 156 154 155 155 155 155 156 157 156 156 158 158 156 157 157 157 157 157 157 158 156 158 159 160 158 158 160 157 156 156 156 155 155 156 156 155 155 154 160 158 157 157 156 157 157 158 158 156 157 157 157 159 158 159 158 159 160 158 159 158 158 157 157 158 158 157 158 162 159 159 161 160 159 162 159 162 159 160 160 160 160 160 158 160 156 157 161 159 159 157 157 158 159 159 158 156 157 158 160 164 164 165 164 163 165 167 164 165 0 0 0 0 0
    0 0 0 0 0 0 0 0 0 0 0 0 0 0 0 0 0 0 0 0 0 0 0 0 0 0 0 0 0 0 0 0 0 0 0 0 0 0 0 0 0 0 0 0 0 0 0 0 0 0 0 0 0 0 0 0 0 0 0 0 0 0 0 0 0 0 0 0 0 153 153 153 154 155 154 154 155 153 153 -193 -209 -209 151 151 152 151 154 153 154 153 -193 -193 -177 -193 -193 -193 -193 -193 154 154 155 155 155 154 154 154 153 153 153 -193 -193 -193 152 152 151 -193 151 150 -193 -193 -193 -193 -193 153 -193 151 152 152 153 152 152 152 152 152 153 153 153 152 153 154 154 156 159 160 159 161 157 158 158 156 157 157 155 155 155 155 155 155 155 154 153 153 153 152 152 152 153 152 154 153 154 154 154 154 155 153 155 153 157 156 156 155 154 154 155 154 154 153 153 152 152 153 154 152 153 156 157 158 159 158 159 159 159 159 157 156 157 156 155 155 156 156 156 156 157 156 156 159 158 157 157 157 156 156 157 156 157 156 158 160 161 159 159 159 157 156 155 155 154 154 154 154 155 155 154 160 158 157 157 157 157 157 158 158 156 158 157 158 159 158 159 158 159 160 158 159 158 158 157 157 158 158 157 158 162 159 159 160 159 159 162 158 162 158 159 159 159 159 159 157 159 155 156 158 158 157 155 155 156 157 157 157 155 157 158 162 165 164 165 163 163 164 166 163 165 0 0 0 0 0
    0 0 0 0 0 0 0 0 0 0 0 0 0 0 0 0 0 0 0 0 0 0 0 0 0 0 0 0 0 0 0 0 0 0 0 0 0 0 0 0 0 0 0 0 0 0 0 0 0 0 0 0 0 0 0 0 0 0 0 0 0 0 0 0 0 0 0 0 0 -209 -193 154 154 155 154 155 156 -193 -209 -209 -209 -209 151 152 154 152 155 154 155 154 152 -193 -177 -193 -193 -193 -193 -193 -193 154 154 155 155 153 153 153 152 152 153 -209 -193 -193 151 151 151 -193 151 149 -193 -193 222 -193 -209 153 -209 -209 152 152 153 152 152 152 152 152 153 153 153 151 152 153 153 155 158 160 159 160 158 158 158 157 157 157 156 155 155 155 155 155 155 155 153 153 153 153 153 152 153 153 154 154 154 154 154 155 155 153 156 153 157 157 157 156 155 155 155 154 155 153 154 153 153 153 154 153 153 155 155 156 157 156 157 158 158 159 157 157 158 157 156 156 156 156 156 157 158 156 157 159 159 157 156 157 156 156 157 156 157 156 159 161 160 159 159 159 156 156 155 154 153 153 153 153 154 154 154 159 158 157 157 157 157 157 158 158 156 158 157 158 159 159 159 158 159 160 158 159 158 158 157 157 158 158 158 159 162 159 159 159 159 158 162 158 161 157 158 158 158 158 158 156 158 155 156 157 156 156 154 154 154 156 156 155 155 158 159 164 165 164 165 162 162 164 166 163 165 0 0 0 0 0
    0 0 0 0 0 0 0 0 0 0 0 0 0 0 0 0 0 0 0 0 0 0 0 0 0 0 0 0 0 0 0 0 0 0 0 0 0 0 0 0 0 0 0 0 0 0 0 0 0 0 0 0 0 0 0 0 0 0 0 0 0 0 0 0 0 0 0 0 0 -209 -209 155 155 156 155 -193 158 -193 -209 -209 -209 -209 -193 -209 157 154 157 156 156 155 152 -193 -177 -193 -177 -193 -193 -177 -193 -193 -193 154 155 154 154 154 153 153 154 -193 -193 -193 151 151 151 -193 151 149 -193 -193 222 -193 -209 -193 -209 -209 152 152 153 152 151 152 151 152 152 152 153 151 152 153 153 155 157 159 159 161 158 158 158 157 157 157 156 156 155 155 155 156 156 156 154 154 154 154 154 153 154 153 154 154 154 155 154 155 155 153 156 153 156 157 157 155 155 155 155 154 155 154 154 153 153 153 154 153 153 154 154 155 155 155 156 157 157 158 157 158 158 157 156 156 156 157 156 157 158 156 157 160 160 157 157 157 156 157 157 157 159 157 161 163 161 160 160 159 156 155 154 153 152 152 152 152 153 154 153 160 158 157 157 157 157 157 157 158 155 158 158 158 159 159 159 158 159 160 158 159 158 159 158 158 158 158 159 159 162 159 159 159 158 158 162 158 160 156 157 157 157 158 158 156 157 154 156 158 157 157 155 155 156 159 159 158 158 160 162 165 166 164 165 162 162 164 -193 164 165 0 0 0 0 0
    0 0 0 0 0 0 0 0 0 0 0 0 0 0 0 0 0 0 0 0 0 0 0 0 0 0 0 0 0 0 0 0 0 0 0 0 0 0 0 0 0 0 0 0 0 0 0 0 0 0 0 0 0 0 0 0 0 0 0 0 0 0 0 0 0 0 0 0 0 -209 -209 154 154 155 -193 -193 -193 -193 -209 -209 -209 -209 -209 -209 -193 -193 159 158 157 156 -193 -193 -177 -193 -177 -193 -177 -177 -193 -193 -209 155 156 155 156 156 155 155 156 156 -193 154 -193 150 150 -193 150 -193 -193 -193 223 -209 -209 -209 -209 -209 152 151 152 151 151 152 151 152 153 153 153 152 152 153 -193 155 158 160 159 162 159 159 159 157 159 158 157 157 156 156 157 157 158 157 156 155 155 155 155 154 155 154 155 154 155 -193 155 155 156 154 156 154 156 157 156 155 155 154 155 154 155 154 154 153 153 153 154 152 153 154 154 155 155 155 157 157 158 159 157 158 158 157 156 156 156 157 156 158 157 156 158 161 161 158 158 158 157 157 158 158 160 159 163 164 163 161 160 159 155 154 153 151 150 151 150 151 152 154 153 160 158 157 157 157 157 157 157 159 155 158 158 158 159 159 159 158 159 160 158 159 158 159 158 159 159 158 159 159 163 159 159 160 159 159 163 158 161 157 157 156 157 158 158 156 157 155 156 159 159 159 156 157 158 161 162 161 161 162 163 165 165 164 164 162 162 163 -193 164 165 0 0 0 0 0
    0 0 0 0 0 0 0 0 0 0 0 0 0 0 0 0 0 0 0 0 0 0 0 0 0 0 0 0 0 0 0 0 0 0 0 0 0 0 0 0 0 0 0 0 0 0 0 0 0 0 0 0 0 0 0 0 0 0 0 0 0 0 0 0 0 0 0 0 0 -209 -209 -209 -193 -209 -177 -177 -177 -193 -209 -209 -209 -209 -209 -209 -209 -209 163 161 160 160 -193 -193 -177 -193 -177 -177 -177 -177 -177 -193 -209 -209 -193 -193 157 -209 156 158 158 161 -209 -193 -209 -209 150 -193 150 -193 -209 -209 224 -209 -209 -209 -209 -209 152 151 152 151 150 152 151 153 153 153 154 153 153 155 -209 157 161 162 161 163 160 160 160 159 161 160 159 159 159 159 159 160 161 159 159 158 156 155 156 154 155 154 155 154 155 -193 -193 155 156 154 157 154 156 156 156 154 154 154 154 154 154 153 153 153 153 153 155 154 154 -193 -193 -193 157 157 160 -193 160 161 158 159 159 157 156 156 156 157 156 158 157 155 159 161 162 159 158 158 157 158 158 159 162 159 164 165 164 163 162 159 153 153 151 150 149 150 150 151 152 -193 154 162 158 158 158 157 157 157 157 159 156 158 158 159 159 159 159 159 159 160 157 159 159 160 159 160 159 159 160 160 163 160 160 160 160 160 163 159 161 157 158 157 157 158 158 156 158 156 157 161 162 162 156 159 162 163 162 161 162 163 164 165 163 162 162 160 160 162 166 163 165 0 0 0 0 0</data></disparity>
</opencv_storage>
