<?xml version="1.0"?>
<opencv_storage>
<gps_time_stamp>23729</gps_time_stamp>
<gps_x>-3.9833555221557617e+000</gps_x>
<gps_y>3.5853347182273865e-001</gps_y>
<gps_z>-6.1094212532043457e-001</gps_z>
<image_time_stamp>11664</image_time_stamp>
<disparity type_id="opencv-matrix">
  <rows>88</rows>
  <cols>320</cols>
  <dt>s</dt>
  <data>
    0 0 0 0 0 0 0 0 0 0 0 0 0 0 0 0 0 0 0 0 0 0 0 0 0 0 0 0 0 0 0 0 0 0 0 0 0 0 0 0 0 0 0 0 0 0 0 0 0 0 0 0 0 0 0 0 0 0 0 0 0 0 0 0 0 0 0 0 0 21 19 20 18 14 12 11 12 12 10 11 9 9 0 0 0 0 0 0 0 -225 -225 -225 -225 0 0 0 0 0 0 0 0 0 0 0 0 0 0 0 0 0 0 0 0 0 0 0 0 -193 0 0 0 0 0 0 0 0 0 0 0 0 0 0 0 0 0 0 0 0 10 11 0 10 9 10 0 0 0 0 0 0 0 0 0 0 -193 0 0 0 0 0 -209 10 10 9 11 11 10 11 11 10 10 10 10 10 10 11 10 20 13 14 0 0 0 0 0 0 0 0 0 0 0 0 0 0 0 0 0 0 0 11 11 11 11 18 14 13 12 13 15 15 14 14 11 14 15 15 20 14 18 19 19 19 19 19 19 -225 -225 -225 15 14 15 16 18 18 18 15 15 16 16 16 16 15 16 15 17 19 18 19 20 21 21 21 23 26 25 27 28 28 28 30 29 28 28 28 28 29 29 29 29 30 31 31 32 33 33 35 37 38 39 42 42 43 44 44 44 45 45 46 46 47 46 47 50 50 51 51 50 50 51 51 53 51 51 51 51 51 50 50 50 44 47 46 44 44 44 0 0 0 0 0
    0 0 0 0 0 0 0 0 0 0 0 0 0 0 0 0 0 0 0 0 0 0 0 0 0 0 0 0 0 0 0 0 0 0 0 0 0 0 0 0 0 0 0 0 0 0 0 0 0 0 0 0 0 0 0 0 0 0 0 0 0 0 0 0 0 0 0 0 0 22 19 19 17 14 12 11 11 11 10 11 10 9 0 0 0 0 0 0 0 0 -225 -225 -225 0 0 0 0 0 0 9 0 0 0 0 0 0 0 0 0 0 0 0 0 0 0 0 0 -193 0 0 0 0 0 0 0 0 0 0 0 0 0 0 0 0 0 0 0 0 11 12 0 11 9 10 0 0 0 0 0 0 0 0 0 0 0 0 0 0 0 0 -209 11 11 10 12 12 11 12 11 11 10 11 11 11 11 12 11 20 14 15 0 0 0 9 0 0 0 0 0 0 0 0 0 0 0 0 0 0 0 11 11 11 11 17 14 13 13 13 15 15 15 15 11 14 15 15 20 13 17 18 18 18 18 18 19 -225 -225 15 14 15 15 16 19 18 18 14 15 17 16 16 17 15 16 15 18 19 18 19 20 21 21 22 23 26 25 27 28 28 28 32 30 29 29 29 28 29 29 29 28 30 30 31 32 33 34 36 37 38 39 41 41 43 43 43 43 44 44 46 45 47 47 48 51 51 52 52 51 51 51 51 53 51 50 51 51 51 50 50 49 44 47 46 44 44 44 0 0 0 0 0
    0 0 0 0 0 0 0 0 0 0 0 0 0 0 0 0 0 0 0 0 0 0 0 0 0 0 0 0 0 0 0 0 0 0 0 0 0 0 0 0 0 0 0 0 0 0 0 0 0 0 0 0 0 0 0 0 0 0 0 0 0 0 0 0 0 0 0 0 0 23 20 19 17 14 11 11 11 11 10 11 10 9 0 9 9 9 0 0 0 0 9 -225 -225 10 10 10 10 10 10 11 9 0 0 0 0 0 0 0 0 0 0 0 0 0 0 9 0 -193 0 0 0 0 0 0 0 0 0 0 0 0 0 0 0 0 0 0 0 0 11 13 0 12 10 10 0 0 0 0 0 0 0 0 0 0 0 0 0 0 0 0 -209 12 11 10 13 12 11 12 12 11 11 11 11 11 11 12 12 20 15 16 9 0 0 9 0 0 0 0 0 0 0 0 0 0 0 0 0 9 9 12 12 11 11 18 14 13 13 13 16 15 14 14 11 14 14 14 19 12 16 18 19 19 19 18 17 -225 -225 11 11 11 11 13 18 17 18 14 15 16 16 17 16 15 15 15 18 19 17 18 19 21 21 22 23 25 25 27 28 28 28 32 30 30 29 29 28 29 29 29 28 30 30 31 31 33 33 35 37 38 39 41 41 42 42 42 42 43 43 44 45 47 47 49 52 53 53 54 53 53 52 52 53 51 51 52 52 51 50 50 50 44 46 45 44 44 44 0 0 0 0 0
    0 0 0 0 0 0 0 0 0 0 0 0 0 0 0 0 0 0 0 0 0 0 0 0 0 0 0 0 0 0 0 0 0 0 0 0 0 0 0 0 0 0 0 0 0 0 0 0 0 0 0 0 0 0 0 0 0 0 0 0 0 0 0 0 0 0 0 0 0 22 19 17 15 12 10 9 10 10 9 10 10 9 9 9 10 10 10 10 9 9 10 10 -225 12 11 11 11 11 11 13 10 0 0 0 0 0 0 0 0 0 0 0 0 0 0 10 0 -209 0 0 0 0 0 0 0 0 0 0 0 0 0 0 0 0 9 9 9 0 11 13 0 12 10 10 9 9 0 0 0 0 0 0 0 0 0 0 0 0 0 0 -209 12 11 10 12 12 11 12 12 11 11 11 12 12 11 13 12 20 15 17 10 9 9 10 0 0 0 0 0 0 0 0 0 0 0 0 0 -193 -209 -193 12 12 12 18 13 13 13 13 15 14 13 13 11 13 13 13 18 12 16 19 19 19 19 19 -209 -225 0 0 0 0 9 11 17 16 19 15 16 17 17 17 16 14 15 15 18 18 18 18 19 21 22 22 23 25 26 28 28 29 28 32 31 31 30 30 29 30 30 30 28 30 30 31 31 33 33 35 36 37 38 39 40 41 41 41 42 42 42 42 43 45 45 49 52 53 54 54 54 53 52 52 54 52 52 52 53 52 52 51 50 44 46 45 44 43 43 0 0 0 0 0
    0 0 0 0 0 0 0 0 0 0 0 0 0 0 0 0 0 0 0 0 0 0 0 0 0 0 0 0 0 0 0 0 0 0 0 0 0 0 0 0 0 0 0 0 0 0 0 0 0 0 0 0 0 0 0 0 0 0 0 0 0 0 0 0 0 0 0 0 0 22 19 16 13 11 9 9 9 9 0 9 10 9 9 9 9 10 10 10 9 9 10 10 -225 13 12 13 13 13 13 15 11 0 0 0 0 0 0 0 0 0 0 0 0 0 9 12 9 -209 0 0 0 0 0 0 0 0 0 0 0 0 0 0 0 9 9 9 9 0 11 13 9 12 10 10 9 9 0 0 0 0 0 0 0 0 0 0 0 0 0 0 -209 -193 12 10 14 12 12 11 12 11 11 11 11 11 11 12 13 20 15 18 11 10 10 10 9 0 0 0 0 0 0 0 0 0 0 0 -209 -209 -209 -209 12 12 13 18 13 13 12 12 14 13 12 12 10 12 12 12 17 12 16 20 20 20 -193 -209 -209 -193 -193 0 0 0 0 9 14 14 18 14 16 17 17 17 16 15 16 15 19 19 18 19 20 22 22 23 24 25 26 28 28 28 28 32 31 31 31 30 29 31 30 30 28 30 30 31 32 33 33 35 35 37 37 38 39 39 39 40 40 40 40 40 42 43 44 47 50 52 53 54 54 53 53 53 55 53 53 54 54 53 52 52 51 44 45 44 44 44 43 0 0 0 0 0
    0 0 0 0 0 0 0 0 0 0 0 0 0 0 0 0 0 0 0 0 0 0 0 0 0 0 0 0 0 0 0 0 0 0 0 0 0 0 0 0 0 0 0 0 0 0 0 0 0 0 0 0 0 0 0 0 0 0 0 0 0 0 0 0 0 0 0 0 0 22 19 17 14 11 9 9 9 9 9 10 10 9 10 9 10 9 9 9 9 9 9 9 19 13 13 13 14 15 15 16 12 0 0 0 9 0 0 0 0 0 0 0 0 0 9 13 10 -209 0 0 0 0 0 0 0 0 0 0 0 0 0 0 9 9 9 10 10 0 11 13 9 12 10 10 9 9 0 0 0 0 0 0 0 0 0 0 0 0 0 0 -209 -225 11 10 16 12 12 11 12 11 11 11 11 11 11 12 13 20 15 18 12 11 11 11 9 9 0 0 0 0 0 0 0 0 0 -209 -209 -177 -177 -209 12 13 14 18 13 12 12 12 13 12 12 12 10 11 11 13 19 13 18 22 -209 -193 410 -209 -193 -193 -177 -177 -177 -193 -177 -209 -209 11 15 12 14 16 16 15 15 15 17 15 19 19 18 19 21 23 23 23 25 26 27 29 29 29 28 33 31 31 31 30 29 30 30 30 29 30 30 31 32 33 32 34 35 36 36 37 37 37 37 38 38 38 38 39 41 41 43 46 49 51 53 53 54 53 53 53 55 54 54 54 54 53 52 51 51 43 45 44 43 43 43 0 0 0 0 0
    0 0 0 0 0 0 0 0 0 0 0 0 0 0 0 0 0 0 0 0 0 0 0 0 0 0 0 0 0 0 0 0 0 0 0 0 0 0 0 0 0 0 0 0 0 0 0 0 0 0 0 0 0 0 0 0 0 0 0 0 0 0 0 0 0 0 0 0 0 22 19 17 15 11 10 10 10 9 9 10 10 9 10 9 10 9 10 10 10 10 10 10 19 14 14 15 15 16 16 17 13 0 0 0 0 0 0 0 0 0 0 0 0 0 9 14 10 -193 -193 0 0 0 0 0 0 0 0 0 9 0 0 0 9 9 9 10 10 0 11 13 9 12 9 9 0 0 0 0 0 0 0 0 0 0 0 0 0 0 0 -193 -209 -225 -209 13 19 13 13 11 12 11 11 11 11 11 11 11 13 19 14 18 12 12 11 11 10 10 0 0 0 0 0 0 0 -193 -209 -209 -177 -177 -177 -177 -209 12 -177 -177 12 12 11 11 12 12 11 11 10 11 11 14 20 15 21 -209 393 400 405 -209 -177 -177 -209 409 423 423 -177 -193 -209 -209 -193 10 13 15 14 14 15 15 17 16 19 19 19 20 22 23 24 25 26 27 28 30 30 30 29 33 31 31 31 31 30 31 30 31 29 30 30 31 31 33 32 34 34 35 35 35 36 35 36 37 36 37 37 38 39 40 42 44 46 49 51 52 52 52 52 52 55 53 53 54 54 53 52 50 50 42 43 42 42 42 42 0 0 0 0 0
    0 0 0 0 0 0 0 0 0 0 0 0 0 0 0 0 0 0 0 0 0 0 0 0 0 0 0 0 0 0 0 0 0 0 0 0 0 0 0 0 0 0 0 0 0 0 0 0 0 0 0 0 0 0 0 0 0 0 0 0 0 0 0 0 0 0 0 0 0 22 19 17 17 12 11 11 11 11 10 11 11 10 10 10 10 10 10 11 12 12 12 11 19 15 15 15 15 16 16 18 13 0 0 0 9 0 0 0 0 0 0 0 0 0 10 16 11 9 -193 0 0 0 0 0 0 0 0 0 9 0 0 9 9 9 9 10 10 0 11 12 9 11 9 9 0 0 0 0 0 0 0 0 0 0 0 0 0 0 0 -193 -225 -225 -209 14 19 13 14 12 13 12 11 11 11 11 12 11 13 19 14 18 13 12 12 12 11 11 9 10 -193 -193 -209 -209 -209 -177 -177 -209 -209 -193 -193 -177 -209 12 -177 -177 12 12 11 10 12 11 11 10 10 11 11 15 22 18 23 383 389 393 -193 -209 -193 -209 394 408 421 420 -177 -193 123 -209 -209 10 13 14 14 14 15 16 18 16 19 19 19 21 22 24 24 26 27 28 29 30 30 30 30 32 31 31 31 30 30 31 30 31 29 30 30 31 32 32 32 34 33 34 34 34 36 34 35 36 35 36 36 36 38 39 41 43 45 47 49 50 50 51 51 52 55 53 53 53 53 53 52 51 49 42 42 41 40 41 41 0 0 0 0 0
    0 0 0 0 0 0 0 0 0 0 0 0 0 0 0 0 0 0 0 0 0 0 0 0 0 0 0 0 0 0 0 0 0 0 0 0 0 0 0 0 0 0 0 0 0 0 0 0 0 0 0 0 0 0 0 0 0 0 0 0 0 0 0 0 0 0 0 0 0 22 20 18 17 13 11 10 11 11 10 11 11 10 10 10 10 9 9 10 10 10 10 9 17 14 14 15 15 15 16 18 13 0 9 0 10 0 0 0 0 9 9 0 0 0 10 17 12 10 9 0 0 0 0 0 0 0 0 0 9 0 0 9 9 9 9 10 10 0 10 12 9 10 9 9 0 9 0 0 0 0 0 0 0 0 0 -225 -225 -225 -225 -225 -225 -225 -225 15 21 14 14 12 13 12 11 11 11 11 11 11 13 19 14 19 14 13 13 13 12 13 11 13 -193 -193 -193 -177 -177 -177 -177 131 128 125 124 -193 -209 -209 -177 -177 11 11 10 10 11 10 10 10 10 11 10 17 23 21 -209 379 388 393 390 -193 -193 379 392 406 416 415 -193 119 123 124 129 -193 13 14 14 14 16 16 18 16 19 19 20 21 22 24 25 26 28 29 30 31 30 31 30 32 31 31 30 30 30 30 29 30 29 30 30 30 32 32 32 35 34 34 35 34 36 34 35 35 35 35 35 35 37 38 41 42 44 47 49 49 50 51 50 51 55 53 53 53 53 53 52 52 49 41 41 40 39 40 40 0 0 0 0 0
    0 0 0 0 0 0 0 0 0 0 0 0 0 0 0 0 0 0 0 0 0 0 0 0 0 0 0 0 0 0 0 0 0 0 0 0 0 0 0 0 0 0 0 0 0 0 0 0 0 0 0 0 0 0 0 0 0 0 0 0 0 0 0 0 0 0 0 0 0 22 20 17 15 12 11 10 10 10 11 10 10 10 10 9 10 9 9 9 9 10 9 0 15 13 13 14 14 14 15 17 13 0 8 0 10 0 0 0 0 9 10 9 9 0 11 18 12 9 9 0 0 0 0 0 0 0 0 0 10 0 0 9 9 9 9 10 10 0 10 10 0 10 9 9 9 9 9 0 0 0 0 0 0 0 8 -225 -225 -225 -225 -225 -225 -225 -193 -209 28 12 13 11 12 11 11 11 11 11 11 11 12 19 13 19 14 14 14 14 14 15 -177 -177 -193 -193 -177 -177 -177 130 133 129 127 126 125 125 -209 -209 -177 -209 11 10 10 9 10 10 9 9 10 11 10 18 24 23 -209 378 387 393 390 386 382 376 391 402 411 411 117 119 122 122 128 129 -193 14 15 15 17 18 19 17 19 19 20 21 22 24 25 26 28 29 30 31 30 30 30 32 31 31 30 30 30 30 30 30 29 30 30 31 32 32 33 34 34 34 35 34 36 34 35 35 35 35 35 35 37 38 41 42 44 46 47 47 48 49 48 51 55 53 54 54 54 54 53 54 50 40 40 39 39 39 39 0 0 0 0 0
    0 0 0 0 0 0 0 0 0 0 0 0 0 0 0 0 0 0 0 0 0 0 0 0 0 0 0 0 0 0 0 0 0 0 0 0 0 0 0 0 0 0 0 0 0 0 0 0 0 0 0 0 0 0 0 0 0 0 0 0 0 0 0 0 0 0 0 0 0 22 19 16 14 11 11 10 10 10 10 11 10 10 10 9 10 9 9 9 9 9 9 0 15 13 13 14 14 14 14 16 13 0 0 0 9 0 0 0 0 9 10 9 9 9 11 18 12 9 9 0 0 0 0 0 0 0 0 0 10 9 0 9 0 9 9 10 10 0 9 9 0 10 9 9 9 9 9 9 0 0 0 0 0 0 0 9 -177 -177 -193 -209 67 65 -209 -193 -193 0 11 10 11 10 10 10 10 10 11 10 12 20 13 19 15 15 16 16 16 17 -177 -177 938 -193 -177 -177 -177 128 131 128 127 126 125 125 122 -209 -209 -209 -193 10 9 0 9 9 9 9 10 11 11 19 26 25 -193 377 387 393 390 386 380 375 388 396 404 -209 117 120 121 122 128 128 131 -193 16 17 18 18 19 17 18 18 19 20 22 23 25 26 27 29 30 31 30 30 30 32 31 31 30 30 29 30 29 30 29 30 30 31 33 32 34 34 35 35 35 34 36 34 35 35 35 34 35 35 38 38 41 42 44 45 47 46 47 48 47 51 56 55 55 55 55 55 55 55 53 40 40 38 38 39 39 0 0 0 0 0
    0 0 0 0 0 0 0 0 0 0 0 0 0 0 0 0 0 0 0 0 0 0 0 0 0 0 0 0 0 0 0 0 0 0 0 0 0 0 0 0 0 0 0 0 0 0 0 0 0 0 0 0 0 0 0 0 0 0 0 0 0 0 0 0 0 0 0 0 0 21 18 15 14 11 11 10 10 10 10 10 10 9 10 9 9 9 9 9 0 10 10 9 14 13 13 14 14 14 14 15 12 0 0 0 0 0 0 0 0 9 9 0 9 0 12 19 12 9 9 0 0 9 0 0 0 0 0 0 10 9 0 9 0 0 9 10 10 0 9 9 0 10 9 9 9 9 9 9 0 0 0 0 0 0 0 0 0 -177 -193 -193 -193 67 -209 9 13 9 11 10 11 10 10 10 10 10 10 10 12 -193 12 20 15 16 16 17 17 19 18 -177 936 -209 -177 -177 127 126 128 126 126 125 125 125 122 -193 -209 -209 -209 10 9 0 9 9 9 0 10 11 11 20 27 27 32 377 386 393 390 384 -193 372 379 -209 -209 -209 116 119 121 121 127 128 -193 325 -193 18 19 20 20 18 18 19 20 21 23 24 25 26 28 29 30 30 30 31 30 31 30 31 30 30 30 30 29 30 29 30 30 31 32 32 34 35 35 35 35 35 36 34 36 35 35 35 36 36 38 39 41 42 43 43 44 44 45 47 46 51 57 56 56 56 56 56 56 56 54 40 40 39 39 39 39 0 0 0 0 0
    0 0 0 0 0 0 0 0 0 0 0 0 0 0 0 0 0 0 0 0 0 0 0 0 0 0 0 0 0 0 0 0 0 0 0 0 0 0 0 0 0 0 0 0 0 0 0 0 0 0 0 0 0 0 0 0 0 0 0 0 0 0 0 0 0 0 0 0 0 21 19 16 15 12 11 11 11 11 10 11 10 9 9 9 0 0 0 0 0 9 9 0 12 12 13 13 13 14 14 15 11 0 0 0 0 0 0 0 0 9 9 0 9 0 12 20 12 10 10 9 9 10 9 9 9 0 0 0 11 9 9 -177 0 0 9 10 11 0 9 9 9 11 10 10 9 8 0 9 9 0 0 0 0 0 0 0 0 0 -193 -193 -209 -193 -193 9 11 9 10 10 11 10 10 10 10 9 10 9 12 -209 12 20 15 16 17 17 18 20 19 -177 934 935 -177 -177 124 125 127 125 126 125 125 124 122 -209 -209 -209 -209 10 9 9 10 9 9 9 11 12 12 20 28 29 33 -193 383 392 387 381 -193 365 366 362 -177 -209 114 119 120 120 127 -209 -177 325 323 -193 20 21 20 19 19 20 20 21 23 24 25 27 28 29 30 30 30 31 29 31 30 31 30 30 30 30 29 30 29 30 30 31 32 32 34 35 35 35 36 35 36 34 36 35 35 35 36 35 37 38 40 41 41 42 43 42 43 46 46 51 58 56 57 56 56 56 57 56 55 41 42 40 40 40 40 0 0 0 0 0
    0 0 0 0 0 0 0 0 0 0 0 0 0 0 0 0 0 0 0 0 0 0 0 0 0 0 0 0 0 0 0 0 0 0 0 0 0 0 0 0 0 0 0 0 0 0 0 0 0 0 0 0 0 0 0 0 0 0 0 0 0 0 0 0 0 0 0 0 0 20 18 16 15 13 12 11 12 11 11 11 10 9 9 9 0 0 0 0 0 0 0 0 11 12 13 13 13 14 14 15 11 0 0 0 0 0 0 0 0 9 10 9 9 9 13 20 13 10 11 9 9 11 9 9 9 0 0 0 11 10 9 -177 0 0 9 11 11 0 0 9 9 11 10 10 9 9 9 9 9 9 0 0 0 0 0 9 0 0 -193 -193 -193 -193 0 0 0 0 10 10 10 10 10 10 10 10 11 10 12 -177 11 20 14 16 17 18 19 21 21 -177 933 933 -193 -193 -193 124 126 125 125 124 124 124 -193 -177 -209 -209 -209 10 9 9 10 10 10 9 11 13 13 21 29 28 33 38 381 390 380 -193 359 361 359 358 -177 -209 112 119 119 119 125 -209 -177 -177 323 323 21 21 20 19 19 20 20 21 22 24 25 27 27 29 30 29 29 31 29 31 30 31 30 30 30 30 29 30 30 30 30 31 32 32 34 35 35 35 36 36 36 34 36 35 35 35 36 35 37 38 40 41 41 41 42 42 43 45 45 52 58 56 57 56 56 56 57 56 55 42 43 41 42 41 42 0 0 0 0 0
    0 0 0 0 0 0 0 0 0 0 0 0 0 0 0 0 0 0 0 0 0 0 0 0 0 0 0 0 0 0 0 0 0 0 0 0 0 0 0 0 0 0 0 0 0 0 0 0 0 0 0 0 0 0 0 0 0 0 0 0 0 0 0 0 0 0 0 0 0 19 18 14 15 12 12 11 11 11 10 11 10 9 9 9 0 0 0 0 0 0 0 0 13 12 14 14 14 14 14 15 11 0 0 0 0 0 0 0 0 10 10 10 10 9 13 19 12 10 10 9 9 10 9 9 9 0 0 0 11 10 9 -177 9 9 9 11 12 0 0 0 8 10 10 10 9 9 9 9 9 9 9 0 0 0 0 0 0 0 -193 -193 -193 -193 0 0 0 0 10 11 11 10 10 10 11 11 12 11 13 -177 10 19 14 16 17 -193 -193 -193 21 -193 933 932 -177 -177 27 124 125 125 125 124 124 -193 -177 -177 -177 -209 -209 -177 9 9 11 10 10 9 12 13 13 21 26 26 31 38 -193 -209 -209 -209 358 358 355 355 356 -177 113 118 117 118 -193 -209 -177 324 322 320 21 21 20 20 18 20 20 21 22 24 25 27 27 29 31 29 29 31 29 31 30 31 30 30 30 31 29 30 30 30 30 31 32 32 34 35 35 35 36 36 36 34 36 35 35 34 35 35 36 37 39 39 40 41 41 41 42 45 45 52 58 57 57 56 56 56 56 56 55 43 44 42 43 43 44 0 0 0 0 0
    0 0 0 0 0 0 0 0 0 0 0 0 0 0 0 0 0 0 0 0 0 0 0 0 0 0 0 0 0 0 0 0 0 0 0 0 0 0 0 0 0 0 0 0 0 0 0 0 0 0 0 0 0 0 0 0 0 0 0 0 0 0 0 0 0 0 0 0 0 19 17 13 13 13 11 11 11 11 11 11 10 10 9 9 0 0 0 0 0 0 0 0 12 11 13 13 13 13 14 14 11 0 0 0 0 0 0 0 0 10 10 10 10 9 13 16 11 9 9 9 0 10 9 0 9 0 0 0 12 11 10 10 9 9 10 11 12 0 0 0 0 10 10 10 9 9 9 9 9 9 9 0 0 0 0 0 0 -193 -193 0 0 0 0 0 0 0 10 11 11 11 11 11 11 11 13 12 15 -209 9 17 13 15 17 -193 -193 -193 -193 -193 933 -193 -177 -177 27 124 125 125 125 124 124 -193 -177 -177 -177 -209 -209 -177 9 9 11 10 10 9 12 13 14 21 24 25 28 37 -193 -209 -209 -209 357 354 352 353 355 -177 113 117 117 -193 -177 -209 -177 322 320 -193 21 22 21 20 18 20 20 20 21 22 23 25 26 28 30 28 29 30 29 30 29 30 30 30 31 31 29 30 30 31 30 31 32 33 34 35 36 35 36 36 36 35 36 35 35 34 35 35 36 35 37 37 38 39 39 39 41 44 44 53 60 58 58 56 56 56 56 56 54 44 45 43 45 46 48 0 0 0 0 0
    0 0 0 0 0 0 0 0 0 0 0 0 0 0 0 0 0 0 0 0 0 0 0 0 0 0 0 0 0 0 0 0 0 0 0 0 0 0 0 0 0 0 0 0 0 0 0 0 0 0 0 0 0 0 0 0 0 0 0 0 0 0 0 0 0 0 0 0 0 17 14 13 12 11 11 11 11 11 11 11 10 10 10 9 9 0 0 0 0 0 0 0 11 10 11 12 12 12 12 12 10 0 0 0 0 0 0 0 0 10 10 9 10 9 12 12 10 0 0 0 0 9 9 0 9 9 0 0 12 11 10 -177 9 9 10 11 12 0 0 0 0 9 9 9 9 0 0 9 9 9 9 0 0 0 0 0 0 -193 -193 0 -209 -193 0 0 0 0 10 11 11 11 11 11 12 11 13 12 15 -209 0 14 11 14 15 -193 -193 -193 -193 -193 933 932 -193 -177 -193 124 125 125 125 123 124 -193 -177 -177 -193 -209 -209 -177 9 9 11 10 10 9 12 13 14 21 22 23 26 35 -177 -193 -209 -193 355 350 349 350 353 -177 113 117 116 -193 -177 -193 315 319 318 -193 21 22 21 20 18 19 20 20 21 22 23 25 26 28 29 27 28 30 29 31 29 31 30 30 31 31 30 31 31 31 31 32 32 33 34 35 36 35 36 37 36 35 36 35 35 35 36 35 35 35 36 35 36 37 37 37 41 44 44 54 62 58 59 56 56 56 55 55 50 44 44 43 45 47 50 0 0 0 0 0
    0 0 0 0 0 0 0 0 0 0 0 0 0 0 0 0 0 0 0 0 0 0 0 0 0 0 0 0 0 0 0 0 0 0 0 0 0 0 0 0 0 0 0 0 0 0 0 0 0 0 0 0 0 0 0 0 0 0 0 0 0 0 0 0 0 0 0 0 0 15 12 11 10 9 10 10 10 10 10 11 10 10 10 9 9 0 0 0 0 0 0 0 11 9 10 10 11 11 11 11 0 0 0 0 0 0 0 0 0 10 10 9 10 0 11 0 0 0 0 0 0 9 0 0 9 9 0 0 12 11 10 10 9 9 9 11 11 0 0 0 9 9 9 9 9 0 0 0 0 0 0 0 0 0 0 0 0 0 0 0 -193 -193 -193 0 9 0 11 11 11 11 11 11 11 11 13 12 15 -209 0 -193 10 13 -193 -177 -177 -193 -193 -177 933 932 -193 -193 122 124 125 125 125 123 124 123 -209 -193 -209 -209 -209 11 10 9 12 11 11 9 12 13 14 21 20 20 24 33 -177 -209 -209 343 354 349 348 -177 -177 -177 113 116 116 -177 -177 -193 313 318 318 -193 21 22 21 20 18 19 20 21 22 23 23 25 26 28 29 28 28 30 30 31 29 31 31 30 32 31 30 31 31 32 31 31 33 33 34 35 35 35 36 37 36 36 36 35 35 35 36 35 35 35 36 34 36 36 37 37 41 43 45 55 63 59 59 56 56 56 54 54 47 44 44 43 45 46 50 0 0 0 0 0
    0 0 0 0 0 0 0 0 0 0 0 0 0 0 0 0 0 0 0 0 0 0 0 0 0 0 0 0 0 0 0 0 0 0 0 0 0 0 0 0 0 0 0 0 0 0 0 0 0 0 0 0 0 0 0 0 0 0 0 0 0 0 0 0 0 0 0 0 0 14 10 10 9 9 9 10 10 10 10 11 10 10 10 9 9 0 0 0 0 0 0 0 10 9 9 9 10 10 10 10 0 0 0 0 0 0 0 0 0 10 10 10 10 9 10 0 0 0 0 0 0 0 0 0 9 9 0 0 11 10 10 9 9 9 9 10 11 0 0 0 9 10 9 10 9 9 0 9 0 0 0 0 0 0 0 0 0 0 0 0 0 0 0 0 9 0 11 11 11 11 11 11 11 11 13 13 -193 -209 -193 -209 -209 -193 -209 -177 -193 -193 -193 -177 -177 -177 122 123 123 124 125 125 125 123 123 122 -209 -193 -209 -209 -177 11 10 10 12 11 11 9 12 13 16 20 19 19 24 -177 -193 -209 -209 343 355 350 349 -177 -177 -193 113 117 117 -177 -193 -193 313 319 320 19 20 21 20 21 19 20 21 21 22 23 23 25 26 28 29 28 28 31 30 31 29 30 31 30 31 31 29 31 30 31 31 32 33 34 35 36 36 36 37 38 37 37 36 35 35 35 35 35 34 35 35 33 36 35 36 37 41 46 49 56 64 59 59 56 56 56 54 54 48 46 45 44 47 48 51 0 0 0 0 0
    0 0 0 0 0 0 0 0 0 0 0 0 0 0 0 0 0 0 0 0 0 0 0 0 0 0 0 0 0 0 0 0 0 0 0 0 0 0 0 0 0 0 0 0 0 0 0 0 0 0 0 0 0 0 0 0 0 0 0 0 0 0 0 0 0 0 0 0 0 13 10 9 9 9 9 10 10 10 11 11 10 10 10 9 9 9 0 0 0 0 0 0 10 9 0 9 9 10 10 10 0 0 0 0 0 0 0 0 0 11 10 10 11 9 10 0 0 0 0 0 0 0 0 0 9 0 0 0 10 10 9 0 0 0 0 10 10 0 0 0 9 10 10 10 10 9 9 9 9 9 9 0 0 0 0 0 0 0 0 0 0 0 0 0 9 0 11 11 11 11 11 11 11 11 14 -209 -177 -177 -193 -193 -193 -209 -209 -177 -177 -193 -209 -193 933 -193 123 124 123 124 125 125 124 123 123 121 -209 -209 -209 -193 -177 12 10 10 12 11 11 9 12 14 17 21 18 19 23 -177 25 -209 -209 -193 357 353 350 -177 -177 -193 114 118 118 -177 -193 -193 312 318 321 17 19 21 19 21 20 20 22 22 22 23 23 25 26 28 30 28 29 31 30 31 29 30 31 30 31 31 30 30 30 31 31 32 33 34 36 37 36 36 38 38 37 37 35 35 35 35 35 35 34 34 33 32 35 33 35 37 42 51 53 56 65 59 58 56 56 56 54 54 49 47 45 44 48 50 53 0 0 0 0 0
    0 0 0 0 0 0 0 0 0 0 0 0 0 0 0 0 0 0 0 0 0 0 0 0 0 0 0 0 0 0 0 0 0 0 0 0 0 0 0 0 0 0 0 0 0 0 0 0 0 0 0 0 0 0 0 0 0 0 0 0 0 0 0 0 0 0 0 0 0 12 9 9 0 0 0 9 9 10 11 11 10 10 9 9 9 0 0 0 0 0 0 0 9 0 0 0 0 9 9 9 0 0 0 0 0 0 0 0 0 11 10 10 12 10 11 0 0 0 0 0 0 0 0 0 9 0 0 0 10 9 9 0 0 0 0 9 9 0 0 0 9 10 9 10 10 10 9 9 9 9 9 10 8 0 0 0 0 0 -193 0 0 0 -193 -193 -193 9 12 11 11 11 11 11 11 11 -209 -209 -177 -177 -177 -193 -209 -209 -209 -177 -177 -193 -209 -209 -193 123 124 125 125 125 126 125 124 123 123 122 -209 -209 -209 15 12 12 11 11 12 12 13 11 13 14 19 20 17 18 22 26 21 22 -209 -209 360 359 356 -177 -177 110 116 119 119 -193 -193 657 -177 318 -193 14 17 20 18 21 20 20 22 21 22 22 23 25 26 27 29 28 29 31 30 31 29 31 31 30 31 31 30 30 30 31 32 32 34 35 37 37 36 36 38 37 36 36 35 34 35 35 35 34 34 33 33 32 35 32 35 37 43 55 56 57 65 59 58 56 56 56 54 54 49 47 45 45 50 52 54 0 0 0 0 0
    0 0 0 0 0 0 0 0 0 0 0 0 0 0 0 0 0 0 0 0 0 0 0 0 0 0 0 0 0 0 0 0 0 0 0 0 0 0 0 0 0 0 0 0 0 0 0 0 0 0 0 0 0 0 0 0 0 0 0 0 0 0 0 0 0 0 0 0 0 11 0 0 0 0 0 0 0 9 10 11 10 10 9 9 9 0 0 0 0 0 0 0 10 0 0 0 0 0 0 0 0 0 0 0 0 0 0 0 0 11 10 10 12 10 10 0 0 0 0 0 0 0 0 0 9 9 0 0 9 9 0 0 0 0 0 0 9 0 0 0 9 9 0 9 9 9 9 9 9 9 9 10 9 0 0 0 0 0 -193 -193 -193 -193 -193 -193 -193 10 13 11 11 12 11 11 11 -193 -209 -209 -177 -193 -193 -193 -209 -209 -209 -177 -177 -177 -209 -193 -193 124 125 126 125 125 126 125 124 124 123 122 -209 -209 -209 -177 13 14 13 12 14 14 16 12 16 16 19 18 14 14 19 20 14 18 -209 -209 361 361 -177 -177 -193 112 117 120 -193 -193 655 655 314 318 -193 12 16 20 16 21 20 19 21 21 21 22 23 25 26 27 29 29 29 31 31 31 30 31 31 30 31 31 30 30 30 31 32 32 35 36 39 38 38 38 38 36 36 35 35 34 35 35 35 34 34 32 33 32 34 32 35 37 42 56 56 58 64 59 58 56 56 56 53 53 48 47 45 45 51 54 56 0 0 0 0 0
    0 0 0 0 0 0 0 0 0 0 0 0 0 0 0 0 0 0 0 0 0 0 0 0 0 0 0 0 0 0 0 0 0 0 0 0 0 0 0 0 0 0 0 0 0 0 0 0 0 0 0 0 0 0 0 0 0 0 0 0 0 0 0 0 0 0 0 0 0 10 0 0 0 0 0 0 0 0 10 11 9 10 9 9 9 0 0 0 0 0 0 9 10 0 0 0 0 0 0 0 0 0 0 0 0 0 0 0 0 10 9 10 11 9 9 0 0 0 0 0 0 0 0 0 9 9 0 0 0 0 0 0 0 0 0 0 0 0 0 0 9 9 0 9 9 9 9 9 9 9 10 11 9 9 0 0 0 0 0 -193 -193 -193 -209 12 13 10 13 11 11 11 11 11 11 -193 -209 -209 -177 -209 -193 -209 -193 -209 -209 -177 -177 -193 -209 -193 124 124 126 126 125 126 126 125 124 124 123 122 -209 -209 -209 -209 14 15 15 14 14 15 17 13 14 15 19 15 11 -177 14 11 11 15 -209 -209 361 363 -177 -193 114 114 118 121 121 -193 -209 -193 313 316 11 13 17 19 16 21 21 20 21 21 22 22 23 25 26 27 29 30 30 32 32 32 30 32 32 31 31 31 30 30 30 30 31 31 34 36 -193 -209 -193 -193 37 36 36 35 34 34 35 34 34 33 33 32 32 31 33 32 35 36 42 50 52 57 60 58 57 56 56 56 53 54 50 50 47 47 54 57 58 0 0 0 0 0
    0 0 0 0 0 0 0 0 0 0 0 0 0 0 0 0 0 0 0 0 0 0 0 0 0 0 0 0 0 0 0 0 0 0 0 0 0 0 0 0 0 0 0 0 0 0 0 0 0 0 0 0 0 0 0 0 0 0 0 0 0 0 0 0 0 0 0 0 0 9 0 0 0 0 0 0 0 0 9 10 9 9 0 0 0 0 0 0 0 0 0 0 0 0 0 0 0 0 0 0 0 0 0 0 0 0 0 0 0 10 9 9 11 9 0 0 0 0 0 0 0 0 0 0 10 9 0 0 0 0 0 0 0 0 0 0 0 0 0 0 0 0 0 0 0 0 0 9 9 9 10 11 9 9 0 0 0 0 0 0 0 -193 -209 10 12 10 12 10 10 10 10 10 -193 -177 -209 -209 -209 -209 -209 -209 -193 -209 -209 -193 -177 -209 120 124 124 124 126 125 125 125 125 125 123 124 123 122 -193 -209 48 -209 15 16 18 15 15 16 17 -193 -193 -209 -209 -209 -209 -209 11 -209 -209 -209 -209 -209 -209 -193 -209 113 115 115 118 121 122 -209 -209 -193 311 -193 11 13 17 19 16 21 21 20 20 21 22 22 24 25 26 27 28 30 29 32 31 31 30 32 32 31 31 31 30 30 30 31 31 32 35 37 -209 74 79 80 -193 36 36 35 34 34 35 34 34 33 33 31 31 31 33 31 35 36 42 50 54 57 59 58 57 56 56 57 54 54 51 52 49 51 56 58 59 0 0 0 0 0
    0 0 0 0 0 0 0 0 0 0 0 0 0 0 0 0 0 0 0 0 0 0 0 0 0 0 0 0 0 0 0 0 0 0 0 0 0 0 0 0 0 0 0 0 0 0 0 0 0 0 0 0 0 0 0 0 0 0 0 0 0 0 0 0 0 0 0 0 0 0 0 0 0 0 0 0 0 0 9 9 0 0 0 0 0 0 0 0 0 0 0 0 0 0 0 0 0 0 0 0 0 0 0 0 0 0 0 0 0 10 9 10 12 10 9 0 0 0 0 0 0 0 0 9 10 9 9 9 0 0 0 0 0 0 0 0 0 0 0 0 0 0 0 0 8 0 8 9 9 9 10 10 9 9 0 0 0 0 0 0 0 0 0 9 11 9 11 10 10 10 10 10 -193 -177 -209 -209 -209 -209 -209 -209 -193 -209 121 -193 -193 120 121 126 124 124 125 125 125 124 124 124 123 125 124 122 121 -209 -209 -209 -193 18 19 17 16 16 -193 -209 -209 -209 -193 657 -193 291 -209 -209 -209 -193 -177 -209 114 115 114 114 116 115 118 121 121 -209 -193 -193 -193 10 11 13 16 18 15 21 21 19 20 22 23 23 25 26 26 27 30 31 30 32 32 31 31 32 32 31 31 31 31 31 30 31 32 34 37 -209 70 75 81 83 82 -193 35 34 33 33 34 33 33 32 32 31 31 31 32 31 35 36 43 55 57 58 59 58 57 57 57 57 55 55 54 55 53 55 58 60 60 0 0 0 0 0
    0 0 0 0 0 0 0 0 0 0 0 0 0 0 0 0 0 0 0 0 0 0 0 0 0 0 0 0 0 0 0 0 0 0 0 0 0 0 0 0 0 0 0 0 0 0 0 0 0 0 0 0 0 0 0 0 0 0 0 0 0 0 0 0 0 0 0 0 0 0 0 0 0 0 0 0 0 0 0 9 0 0 0 0 0 0 0 0 0 0 0 0 0 0 0 0 0 0 0 0 0 0 0 0 0 0 0 0 0 10 10 11 12 11 11 0 0 0 0 0 0 0 0 9 10 9 9 9 0 0 0 0 0 0 0 0 0 0 0 0 0 0 0 9 9 9 9 10 10 10 10 11 9 9 0 0 0 0 0 0 0 0 0 9 9 9 11 10 10 11 11 -193 -177 -177 -209 -209 -209 -209 -209 -209 -209 -209 121 122 123 122 121 126 125 124 125 125 125 124 124 125 123 125 124 122 121 -209 -209 -193 -193 -193 -193 19 17 18 -209 -193 -209 -209 655 660 -209 282 -209 -209 -193 -193 -193 113 116 116 116 115 117 116 118 121 121 -193 -193 -193 -209 11 11 14 17 18 15 21 21 19 20 22 23 23 25 26 26 27 30 32 31 32 32 31 31 33 32 31 31 31 31 31 31 32 31 -209 -209 -209 73 77 82 84 85 -193 32 32 31 31 34 32 32 31 32 30 30 31 33 32 36 38 54 59 59 60 60 59 58 57 57 57 56 56 56 57 57 58 60 61 62 0 0 0 0 0
    0 0 0 0 0 0 0 0 0 0 0 0 0 0 0 0 0 0 0 0 0 0 0 0 0 0 0 0 0 0 0 0 0 0 0 0 0 0 0 0 0 0 0 0 0 0 0 0 0 0 0 0 0 0 0 0 0 0 0 0 0 0 0 0 0 0 0 0 0 11 9 9 9 0 0 0 0 0 0 0 0 0 0 0 0 0 0 0 0 0 0 0 0 0 0 0 0 0 0 0 0 0 0 0 0 0 0 0 0 10 10 11 13 12 14 10 -193 -193 -193 -193 -193 -193 0 8 10 9 9 9 0 0 0 0 0 0 0 0 0 0 0 0 9 9 9 10 10 10 10 10 11 10 11 12 10 11 9 0 0 0 0 0 0 0 0 9 9 9 11 11 12 12 12 -177 -177 -177 -209 -209 -209 -209 -209 -193 -209 120 121 123 124 122 122 126 125 124 124 125 125 124 124 125 123 125 124 122 121 119 -209 -209 -193 -209 -209 -209 -193 -209 -209 -209 -209 -209 660 -193 269 -209 -209 -193 -193 110 113 115 117 117 117 116 118 117 118 120 120 122 123 -193 10 12 12 15 18 18 15 21 21 19 20 21 22 23 25 26 25 26 30 32 31 32 32 31 31 33 31 30 31 32 32 31 -193 -193 -209 -209 -209 75 75 80 83 85 86 -209 28 30 30 31 33 32 32 31 31 30 30 31 33 32 36 37 54 59 59 60 61 59 59 58 58 58 57 58 58 58 59 59 62 63 63 0 0 0 0 0
    0 0 0 0 0 0 0 0 0 0 0 0 0 0 0 0 0 0 0 0 0 0 0 0 0 0 0 0 0 0 0 0 0 0 0 0 0 0 0 0 0 0 0 0 0 0 0 0 0 0 0 0 0 0 0 0 0 0 0 0 0 0 0 0 0 0 0 0 0 12 11 11 10 0 0 0 0 0 0 0 0 0 0 0 0 0 0 0 0 0 0 0 0 0 0 0 0 0 0 0 0 0 0 0 0 0 0 0 0 10 10 11 13 12 15 11 -193 -193 -193 -193 -177 -193 9 0 9 9 0 9 0 0 0 0 0 0 0 0 0 0 0 0 9 9 9 9 9 9 9 10 10 10 11 12 10 12 9 0 0 0 -193 0 0 -193 9 10 10 10 12 12 12 13 -193 -177 -177 -177 -193 -209 -209 -209 -209 121 119 121 121 123 124 123 122 125 124 124 124 125 124 124 124 125 123 125 124 122 122 121 -209 -209 -209 -209 -209 -209 -209 -209 -209 -209 -209 -209 -193 -209 -209 -209 107 108 112 113 116 116 118 118 118 117 119 118 118 119 119 121 -193 -209 11 13 12 15 18 18 15 21 21 19 20 21 22 22 25 26 25 26 31 32 32 32 33 31 32 34 32 31 33 34 34 -193 -177 -193 -209 -209 -193 76 77 80 83 84 85 85 27 29 29 31 33 32 32 30 31 30 31 31 33 32 35 36 46 57 57 60 61 60 60 58 59 58 58 59 58 59 60 60 63 64 64 0 0 0 0 0
    0 0 0 0 0 0 0 0 0 0 0 0 0 0 0 0 0 0 0 0 0 0 0 0 0 0 0 0 0 0 0 0 0 0 0 0 0 0 0 0 0 0 0 0 0 0 0 0 0 0 0 0 0 0 0 0 0 0 0 0 0 0 0 0 0 0 0 0 0 14 12 12 10 9 0 0 0 0 0 0 0 0 0 0 0 0 0 0 0 0 0 0 0 9 9 9 0 0 0 0 0 0 0 0 0 0 0 0 0 9 9 11 12 10 14 10 10 9 -193 9 -193 0 0 0 0 0 0 0 0 0 0 0 0 0 0 0 0 0 0 0 9 9 9 9 9 9 9 9 9 9 10 10 9 11 9 12 9 -209 -193 -209 -209 -193 9 11 10 10 11 12 12 -193 -193 -177 -177 -177 -209 -209 -209 -209 121 121 120 121 121 123 124 123 123 124 124 124 124 125 124 124 124 125 124 125 124 123 122 122 116 -193 -209 -209 -209 -177 -209 -209 -209 -209 -209 -209 -193 251 -209 -209 108 109 113 115 116 117 118 118 118 117 119 118 117 118 118 119 119 -209 12 14 13 15 18 18 15 21 20 19 20 21 22 22 26 26 25 27 31 32 32 33 33 31 32 34 32 32 34 36 36 -193 -177 -193 -209 -209 -193 77 78 79 82 84 85 85 27 29 30 30 32 31 31 30 31 30 31 31 33 33 36 37 46 55 57 59 60 59 60 59 59 59 59 59 59 61 61 60 64 64 64 0 0 0 0 0
    0 0 0 0 0 0 0 0 0 0 0 0 0 0 0 0 0 0 0 0 0 0 0 0 0 0 0 0 0 0 0 0 0 0 0 0 0 0 0 0 0 0 0 0 0 0 0 0 0 0 0 0 0 0 0 0 0 0 0 0 0 0 0 0 0 0 0 0 0 15 13 13 11 10 10 9 0 0 0 0 0 0 0 0 0 0 0 0 0 0 0 0 0 9 9 9 0 0 0 0 0 0 0 0 0 0 0 0 0 0 9 10 11 9 12 10 10 9 9 0 -193 0 0 0 0 0 0 0 0 0 0 0 0 0 0 0 0 9 9 0 9 9 10 10 9 9 9 9 10 9 10 9 0 10 11 16 11 -209 -193 -209 -209 -193 10 10 9 9 11 12 12 -209 -209 -193 -177 -177 -209 -209 -209 122 122 122 120 122 122 123 125 124 123 124 125 124 124 125 124 124 124 123 123 124 124 122 122 122 116 119 -209 -209 -209 -209 -209 -209 -209 -209 -209 242 246 247 -193 106 109 111 115 117 118 118 119 118 118 118 119 118 117 116 116 118 118 -193 -193 15 13 16 18 18 16 20 20 19 20 22 22 24 26 27 26 29 32 32 32 33 34 32 33 34 32 32 35 -193 -193 -193 -177 -177 -177 -209 75 77 77 78 81 83 84 84 -193 29 30 30 32 32 32 30 32 31 32 32 35 36 39 40 52 55 56 59 58 58 59 58 59 58 59 59 59 61 61 60 65 64 64 0 0 0 0 0
    0 0 0 0 0 0 0 0 0 0 0 0 0 0 0 0 0 0 0 0 0 0 0 0 0 0 0 0 0 0 0 0 0 0 0 0 0 0 0 0 0 0 0 0 0 0 0 0 0 0 0 0 0 0 0 0 0 0 0 0 0 0 0 0 0 0 0 0 0 17 14 13 12 11 11 11 9 0 0 0 0 0 0 0 0 0 0 0 0 0 0 0 0 9 10 9 0 0 0 0 0 0 0 0 0 0 0 0 0 0 0 9 10 0 10 9 9 9 0 0 0 0 0 0 0 0 0 0 0 0 0 0 0 0 0 0 0 9 9 0 10 10 11 10 10 10 10 10 10 9 10 10 9 11 14 20 12 -209 -209 -209 -209 11 10 11 9 9 11 13 -209 -209 -209 -193 -193 -193 -209 -209 -193 122 122 122 122 123 122 123 124 124 124 125 125 124 123 124 123 124 123 122 123 124 124 122 122 122 117 119 120 -209 -209 -209 -209 -209 -209 -209 -209 237 241 242 239 108 110 113 116 117 118 118 118 117 116 117 117 117 116 114 114 116 116 117 118 16 14 16 18 18 17 20 20 20 21 23 24 25 28 29 27 32 32 31 33 33 34 32 33 35 31 32 36 -177 -193 -193 -177 -177 -177 75 75 77 78 78 81 83 84 -193 -193 29 30 30 32 32 32 30 32 32 32 34 36 38 43 45 55 56 57 59 58 58 59 59 59 59 59 60 59 62 62 61 65 64 64 0 0 0 0 0
    0 0 0 0 0 0 0 0 0 0 0 0 0 0 0 0 0 0 0 0 0 0 0 0 0 0 0 0 0 0 0 0 0 0 0 0 0 0 0 0 0 0 0 0 0 0 0 0 0 0 0 0 0 0 0 0 0 0 0 0 0 0 0 0 0 0 0 0 0 19 16 14 12 12 11 11 10 9 0 0 0 9 0 0 0 0 0 0 0 0 0 9 9 9 10 9 0 0 0 0 0 0 0 0 0 0 0 0 0 0 0 9 10 9 10 9 9 0 0 0 0 0 0 0 0 0 0 0 0 0 0 0 0 0 0 0 0 9 10 0 11 10 11 11 11 10 10 10 11 10 11 10 9 12 17 25 -209 -193 -209 -209 -193 12 11 11 10 10 12 -193 -209 -209 -209 -209 -209 -193 -209 124 123 123 123 123 123 124 123 124 124 124 125 125 125 124 122 124 123 123 122 122 123 123 123 122 122 121 118 120 120 -193 -209 -209 -209 -209 -209 -209 -209 235 236 236 234 108 110 113 116 117 118 118 118 116 116 117 117 117 114 111 112 115 116 117 118 -193 15 17 19 19 17 20 20 19 21 22 22 24 27 28 28 32 31 30 33 33 34 32 34 35 31 33 -193 463 -193 -193 -193 -193 -193 75 76 78 78 78 80 83 84 -193 -177 -193 30 31 32 33 32 31 32 32 33 35 38 39 47 52 57 57 58 59 59 58 60 59 59 59 59 60 59 62 62 61 66 64 65 0 0 0 0 0
    0 0 0 0 0 0 0 0 0 0 0 0 0 0 0 0 0 0 0 0 0 0 0 0 0 0 0 0 0 0 0 0 0 0 0 0 0 0 0 0 0 0 0 0 0 0 0 0 0 0 0 0 0 0 0 0 0 0 0 0 0 0 0 0 0 0 0 0 0 20 16 14 12 12 12 12 10 9 0 0 0 10 0 0 0 0 0 0 0 0 0 9 9 9 10 10 0 0 0 0 0 0 0 0 0 0 0 0 0 0 0 9 9 0 10 9 10 9 0 0 0 0 0 0 0 0 0 0 0 0 0 0 0 0 0 0 0 9 10 9 12 11 12 12 11 11 11 11 11 10 11 10 9 11 12 -193 13 23 12 12 11 13 12 12 11 11 14 -209 -209 -209 -209 -209 -209 -209 126 126 123 122 122 123 122 124 123 123 123 124 125 124 125 124 122 124 125 123 122 122 123 122 123 122 122 121 118 120 121 122 -209 -209 -209 -209 -209 -209 231 233 232 232 -193 109 110 113 116 117 116 116 117 116 115 116 116 116 113 111 112 114 115 116 -193 17 16 18 19 19 17 20 19 20 21 21 21 22 24 27 26 30 31 30 34 34 34 34 35 -193 -209 -209 -209 -209 -209 -209 76 76 78 76 77 79 78 79 80 83 84 -193 -177 -193 31 31 33 32 32 30 32 33 34 36 38 40 49 54 57 58 58 59 59 59 60 59 59 59 59 59 59 61 62 61 65 64 65 0 0 0 0 0
    0 0 0 0 0 0 0 0 0 0 0 0 0 0 0 0 0 0 0 0 0 0 0 0 0 0 0 0 0 0 0 0 0 0 0 0 0 0 0 0 0 0 0 0 0 0 0 0 0 0 0 0 0 0 0 0 0 0 0 0 0 0 0 0 0 0 0 0 0 21 17 14 12 13 13 12 11 10 0 0 9 11 0 0 0 0 0 0 0 0 0 9 9 10 10 10 0 0 0 0 0 0 0 0 0 0 0 0 0 0 0 0 9 0 9 9 10 9 9 9 0 0 0 0 0 0 0 0 0 0 0 0 0 0 0 0 0 10 11 10 13 13 13 13 12 12 12 12 11 10 11 11 10 12 10 13 11 14 11 11 11 13 12 12 12 13 -193 -209 -209 -209 -209 -209 -209 -209 127 127 123 122 122 123 122 123 122 122 123 124 124 124 124 124 123 124 126 124 123 123 123 123 124 122 122 121 119 121 122 123 -209 -209 -209 -209 -209 -209 -193 -193 -193 231 -193 109 110 113 115 117 116 116 116 115 115 116 116 116 113 112 112 114 115 -193 -193 19 18 19 19 19 17 20 20 21 21 20 20 21 23 24 25 28 28 29 33 34 34 34 36 -209 -177 -177 -177 -193 78 80 78 79 81 78 80 81 80 80 81 84 83 -193 -177 -193 34 33 34 33 32 31 33 34 35 37 39 41 49 55 57 57 57 59 59 59 60 59 59 59 59 59 59 61 61 61 65 64 64 0 0 0 0 0
    0 0 0 0 0 0 0 0 0 0 0 0 0 0 0 0 0 0 0 0 0 0 0 0 0 0 0 0 0 0 0 0 0 0 0 0 0 0 0 0 0 0 0 0 0 0 0 0 0 0 0 0 0 0 0 0 0 0 0 0 0 0 0 0 0 0 0 0 0 21 17 14 13 13 13 13 11 11 0 9 9 12 0 0 0 0 0 0 0 0 0 0 0 10 11 10 0 0 0 0 0 0 0 0 0 0 0 0 0 0 0 0 0 0 0 0 10 9 9 0 0 0 0 0 0 0 0 0 0 0 0 0 0 0 0 0 0 10 11 10 13 13 13 13 11 11 11 11 10 10 11 10 11 13 11 12 11 13 11 11 12 12 12 13 13 14 17 -209 -209 -209 -209 -209 -209 -193 129 126 124 122 122 122 121 122 122 122 122 123 124 123 123 123 122 123 126 123 122 122 123 124 125 123 123 121 120 122 123 124 -209 -209 -209 -209 -209 -193 -177 -177 -177 -209 107 109 110 112 114 116 115 115 115 115 115 116 117 115 113 113 113 113 114 -193 -193 20 19 20 20 19 18 19 19 21 19 18 17 18 21 22 23 27 27 27 32 33 34 33 36 -193 -177 -177 -209 78 81 82 80 81 83 80 82 83 81 80 80 84 83 -193 -193 -193 36 34 34 32 33 31 33 34 36 38 40 42 49 54 56 57 57 59 59 59 60 59 58 59 59 60 59 61 61 61 65 64 64 0 0 0 0 0
    0 0 0 0 0 0 0 0 0 0 0 0 0 0 0 0 0 0 0 0 0 0 0 0 0 0 0 0 0 0 0 0 0 0 0 0 0 0 0 0 0 0 0 0 0 0 0 0 0 0 0 0 0 0 0 0 0 0 0 0 0 0 0 0 0 0 0 0 0 20 15 13 12 12 12 12 11 11 0 10 9 12 9 9 0 0 0 0 0 0 0 0 0 10 11 10 9 9 9 0 0 0 0 0 0 0 0 0 0 0 0 0 0 0 0 0 9 0 0 0 0 0 0 0 0 0 0 0 0 0 0 0 0 0 0 0 0 10 10 10 12 12 12 13 10 11 11 10 10 9 10 10 11 13 11 12 11 12 11 11 12 12 11 12 12 14 15 -209 -209 -209 -209 -209 -209 -193 126 125 122 121 121 122 121 122 122 122 122 123 124 123 123 122 122 122 126 123 122 123 123 124 125 123 123 121 121 122 124 125 -209 -177 -209 -209 -177 -177 -177 -177 -177 -193 108 109 110 112 113 116 115 115 115 115 115 116 117 115 113 114 113 113 -193 -177 -193 21 20 20 19 18 18 19 18 21 19 17 17 18 20 21 23 26 25 26 30 33 34 34 36 -177 -177 -177 -177 77 79 80 79 82 83 81 83 83 81 80 80 83 82 79 -209 38 38 35 34 33 33 32 34 35 37 39 42 44 51 55 57 57 57 59 58 59 60 59 58 59 59 60 59 61 61 61 64 64 64 0 0 0 0 0
    0 0 0 0 0 0 0 0 0 0 0 0 0 0 0 0 0 0 0 0 0 0 0 0 0 0 0 0 0 0 0 0 0 0 0 0 0 0 0 0 0 0 0 0 0 0 0 0 0 0 0 0 0 0 0 0 0 0 0 0 0 0 0 0 0 0 0 0 0 21 12 12 11 11 11 11 11 10 0 10 9 12 10 9 0 0 0 9 0 0 0 0 0 10 11 10 8 9 9 0 0 0 0 0 0 0 0 0 0 0 0 0 0 0 0 0 9 0 0 0 0 0 0 0 0 0 0 0 0 0 0 0 0 0 0 0 0 10 10 10 12 12 12 13 10 11 10 10 10 9 10 10 11 12 11 12 11 11 11 10 11 11 10 11 11 13 15 -209 -209 -209 -209 -209 -209 -193 128 125 123 121 121 122 121 122 122 121 121 123 124 123 122 122 122 122 128 124 122 123 125 125 125 124 124 121 122 123 125 126 -209 -177 -209 -193 -177 -177 -177 -177 -177 -209 108 110 111 112 113 116 115 115 114 115 115 117 116 115 113 114 112 112 -193 -177 -193 22 21 21 20 19 20 20 20 21 20 19 18 19 20 20 22 25 25 26 30 34 35 34 -193 -177 -177 -177 -177 -193 79 82 80 83 85 84 85 84 83 81 80 83 83 79 -193 39 39 36 35 33 34 33 34 36 38 40 44 47 53 56 58 58 58 59 58 59 60 59 58 59 59 60 59 61 60 61 64 64 64 0 0 0 0 0
    0 0 0 0 0 0 0 0 0 0 0 0 0 0 0 0 0 0 0 0 0 0 0 0 0 0 0 0 0 0 0 0 0 0 0 0 0 0 0 0 0 0 0 0 0 0 0 0 0 0 0 0 0 0 0 0 0 0 0 0 0 0 0 0 0 0 0 0 0 20 9 10 9 9 9 9 9 0 0 10 0 11 9 9 0 0 0 0 0 0 0 0 0 9 10 10 0 9 9 0 0 0 0 0 0 0 0 0 0 0 0 0 0 0 0 0 9 9 0 0 0 0 0 0 0 0 0 0 0 0 0 0 0 0 0 0 0 9 10 10 11 12 12 12 10 11 11 10 10 10 11 11 12 13 11 11 11 11 11 10 11 10 9 10 11 13 16 -209 -193 -209 -193 -209 -209 -209 127 125 122 120 121 122 121 122 122 121 121 124 124 123 122 123 123 123 128 124 122 123 125 125 125 123 123 121 122 123 125 126 -209 -209 -209 -193 -177 -193 -177 -177 -193 -209 110 111 111 112 112 116 114 115 114 115 115 117 117 115 113 115 113 -193 -177 -177 623 24 23 21 20 20 21 20 21 22 21 19 19 20 20 20 22 24 25 26 30 34 -193 34 -193 -177 -177 -177 -177 -193 81 83 82 85 87 85 87 86 84 83 82 85 84 81 78 -209 40 38 36 35 35 35 35 37 38 42 45 48 53 56 58 58 58 59 58 59 59 59 58 59 59 60 59 61 60 61 64 64 64 0 0 0 0 0
    0 0 0 0 0 0 0 0 0 0 0 0 0 0 0 0 0 0 0 0 0 0 0 0 0 0 0 0 0 0 0 0 0 0 0 0 0 0 0 0 0 0 0 0 0 0 0 0 0 0 0 0 0 0 0 0 0 0 0 0 0 0 0 0 0 0 0 0 0 12 0 0 0 0 0 0 0 0 0 9 0 11 9 9 0 0 0 0 0 0 0 0 0 0 10 10 0 9 9 9 0 0 0 0 0 0 0 0 0 0 0 0 0 0 0 0 10 9 9 0 0 0 0 0 0 0 0 0 0 0 0 0 0 0 0 0 0 9 10 11 11 12 12 12 10 11 11 10 10 10 11 11 12 14 11 12 11 11 11 10 11 10 9 10 11 14 17 -193 -193 -209 -193 -209 -209 -209 126 125 122 120 121 122 121 122 122 122 121 125 124 124 123 124 124 124 128 125 123 124 127 126 125 124 124 121 123 124 -177 125 -209 -209 -209 -209 -193 -209 -177 -193 -209 -209 111 111 112 111 111 115 114 115 114 115 115 116 116 115 112 115 113 -193 623 620 619 -193 23 22 21 20 21 20 21 22 21 19 19 20 20 20 22 24 25 26 30 35 36 34 -209 -177 -177 -177 -177 83 83 85 84 86 88 87 88 88 86 86 85 87 88 85 82 67 -209 -193 38 36 36 36 36 37 39 44 46 48 53 57 58 58 58 59 58 59 60 60 58 58 58 60 59 61 60 62 63 63 63 0 0 0 0 0
    0 0 0 0 0 0 0 0 0 0 0 0 0 0 0 0 0 0 0 0 0 0 0 0 0 0 0 0 0 0 0 0 0 0 0 0 0 0 0 0 0 0 0 0 0 0 0 0 0 0 0 0 0 0 0 0 0 0 0 0 0 0 0 0 0 0 0 0 0 0 0 0 0 0 0 0 0 0 0 9 0 10 9 9 0 0 0 0 0 0 0 0 0 0 9 10 0 9 9 0 0 0 0 0 0 0 0 0 0 0 0 0 0 0 0 0 10 10 10 9 0 0 0 0 0 0 0 0 0 0 0 0 0 0 0 0 0 9 9 10 11 11 11 11 9 9 9 9 0 9 9 10 11 12 11 11 10 10 10 9 10 10 9 9 10 13 16 -209 -193 -177 -177 -209 -209 -209 119 123 121 120 121 122 121 122 122 123 122 126 125 124 124 125 125 125 128 125 123 125 129 126 125 124 124 121 123 124 -177 -193 -209 -209 -209 -209 -209 -209 -209 -209 -209 -209 111 112 112 111 110 115 114 115 113 115 115 116 116 114 112 115 114 112 619 617 618 26 24 24 23 21 21 21 21 22 22 20 20 20 19 20 21 23 23 25 29 35 -193 33 -209 -177 -177 -177 -193 86 86 87 86 87 89 89 91 90 88 88 88 91 99 100 97 -209 -209 -209 -209 37 37 37 37 38 40 51 49 50 54 57 58 59 58 59 58 59 59 60 58 58 58 59 59 61 60 62 63 63 63 0 0 0 0 0
    0 0 0 0 0 0 0 0 0 0 0 0 0 0 0 0 0 0 0 0 0 0 0 0 0 0 0 0 0 0 0 0 0 0 0 0 0 0 0 0 0 0 0 0 0 0 0 0 0 0 0 0 0 0 0 0 0 0 0 0 0 0 0 0 0 0 0 0 0 9 0 9 9 9 9 9 9 0 0 11 0 10 9 9 0 0 0 0 0 0 0 0 0 0 9 0 0 0 0 0 0 0 0 0 0 0 0 0 0 0 0 0 0 0 0 0 11 11 11 10 9 9 9 10 10 0 0 0 0 0 0 0 0 0 0 0 0 9 10 10 11 12 11 11 0 0 0 0 0 0 0 9 11 11 11 11 10 10 9 9 9 9 0 0 0 11 14 -209 -193 -193 -177 -209 -193 112 116 120 121 120 120 122 121 122 123 123 122 126 125 124 124 126 126 126 128 126 123 126 129 127 124 124 124 121 122 123 126 -209 706 -209 -209 -209 -209 -209 -209 -209 -209 -209 111 112 113 111 110 114 114 115 113 116 115 116 116 114 112 116 116 115 -177 615 617 -209 -209 25 24 23 22 21 21 22 22 20 20 20 19 19 21 22 23 25 30 37 -209 34 -209 -177 -177 -177 -209 90 88 89 89 88 90 91 93 93 91 92 93 94 101 103 106 108 109 -209 -209 -209 38 38 38 39 42 -193 53 51 54 57 58 58 58 58 58 59 59 59 58 58 58 59 59 61 60 62 62 63 63 0 0 0 0 0
    0 0 0 0 0 0 0 0 0 0 0 0 0 0 0 0 0 0 0 0 0 0 0 0 0 0 0 0 0 0 0 0 0 0 0 0 0 0 0 0 0 0 0 0 0 0 0 0 0 0 0 0 0 0 0 0 0 0 0 0 0 0 0 0 0 0 0 0 0 -193 0 9 9 9 9 10 10 0 9 11 0 10 9 0 0 0 0 0 0 0 0 0 0 0 9 9 0 0 0 0 0 0 0 0 0 0 0 0 0 0 9 0 9 0 0 0 10 10 11 10 10 9 10 10 11 0 9 9 0 0 0 0 0 0 0 0 0 9 10 11 11 11 11 10 0 0 0 0 0 0 0 9 10 11 10 10 10 9 9 9 9 0 0 0 0 10 12 -193 -209 -193 -177 -209 -177 115 116 118 120 119 120 121 121 121 122 123 123 126 125 125 124 128 127 126 128 126 124 127 130 127 124 124 124 -193 -193 -193 -193 -209 -177 -209 -209 -209 -209 -209 -209 -209 -209 -193 112 112 114 112 110 113 114 114 113 116 115 115 116 113 112 116 116 115 -193 614 617 614 -209 -193 24 22 23 23 23 24 23 21 21 21 19 17 20 21 21 23 29 37 -209 -209 -209 -209 -209 -209 91 91 90 90 90 90 92 94 98 97 97 99 100 100 104 105 109 112 114 112 109 111 -193 -209 -209 -209 -193 -193 55 54 55 56 58 58 58 58 57 59 59 59 59 58 58 59 59 60 60 62 62 63 62 0 0 0 0 0
    0 0 0 0 0 0 0 0 0 0 0 0 0 0 0 0 0 0 0 0 0 0 0 0 0 0 0 0 0 0 0 0 0 0 0 0 0 0 0 0 0 0 0 0 0 0 0 0 0 0 0 0 0 0 0 0 0 0 0 0 0 0 0 0 0 0 0 0 0 -193 0 10 9 9 9 10 10 0 10 -193 -209 10 9 0 0 0 -193 0 0 0 0 0 0 0 10 9 0 0 0 0 9 0 0 0 0 0 0 0 9 0 11 11 10 0 -193 0 11 9 12 9 10 9 11 11 11 0 9 9 0 0 0 0 0 0 0 0 0 10 11 11 11 10 9 9 0 0 0 0 0 0 0 9 11 12 11 11 11 -193 9 0 0 0 0 0 0 9 11 12 -193 -193 -177 -193 -193 -193 -193 117 119 119 119 121 121 121 122 123 123 126 125 125 124 128 127 126 127 126 124 128 129 126 124 124 124 -209 -209 -209 -209 -209 -193 -193 -209 -209 -209 -193 -193 -209 -177 -177 111 112 113 112 111 112 114 114 112 116 116 115 115 113 112 115 117 115 -193 615 -193 -209 -209 -209 -209 -209 -209 25 25 24 24 22 22 21 19 16 20 21 21 22 29 39 -193 -209 -209 -177 -177 89 90 91 90 89 90 90 91 92 94 96 95 97 100 98 102 105 106 108 108 107 108 108 108 -193 86 89 89 85 -209 55 56 56 57 58 58 58 58 59 59 59 59 58 58 59 59 60 60 62 62 63 62 0 0 0 0 0
    0 0 0 0 0 0 0 0 0 0 0 0 0 0 0 0 0 0 0 0 0 0 0 0 0 0 0 0 0 0 0 0 0 0 0 0 0 0 0 0 0 0 0 0 0 0 0 0 0 0 0 0 0 0 0 0 0 0 0 0 0 0 0 0 0 0 0 0 0 44 -193 13 10 9 9 10 10 0 10 -209 -209 -209 -209 -193 -193 0 -209 -193 -193 0 0 0 0 0 -193 9 -209 -209 -209 -209 -209 -209 -209 -193 -209 0 10 0 10 -193 15 -209 -209 -209 42 -193 13 9 14 9 10 10 12 12 13 0 9 9 0 0 0 0 0 0 0 -193 -209 11 13 12 13 10 9 9 0 0 0 0 0 0 -209 -209 -209 -209 -209 -209 -193 346 -177 -177 -193 -209 -193 -193 -193 -193 11 12 -193 -209 116 -209 -209 -209 -209 -209 -209 119 119 121 120 121 122 123 123 126 125 124 124 128 127 127 128 127 124 128 129 126 123 124 123 -177 -193 -209 -209 -209 -209 -209 -209 -209 728 -177 734 -209 -193 -177 112 113 114 113 112 112 114 114 112 116 116 116 115 113 111 113 117 116 115 -193 619 -209 -209 -193 68 67 -209 -193 31 29 26 23 23 23 21 19 20 21 21 23 30 40 51 -209 -209 -177 -177 88 89 90 89 88 89 89 89 90 90 90 88 91 93 93 95 99 100 103 102 103 105 105 105 106 96 100 102 -209 -209 -193 57 56 57 58 58 58 58 59 59 59 59 58 58 58 59 60 59 62 61 62 62 0 0 0 0 0
    0 0 0 0 0 0 0 0 0 0 0 0 0 0 0 0 0 0 0 0 0 0 0 0 0 0 0 0 0 0 0 0 0 0 0 0 0 0 0 0 0 0 0 0 0 0 0 0 0 0 0 0 0 0 0 0 0 0 0 0 0 0 0 0 0 0 0 0 0 45 44 -193 -193 12 10 13 15 -209 -193 -209 -209 -209 -209 -209 -209 -209 -209 -193 -193 0 0 0 0 0 -209 9 -209 -209 -209 -209 -209 -209 -209 -209 -209 -193 13 -209 11 -193 -209 -193 -193 43 43 44 -209 -209 -193 -209 12 14 15 16 18 10 10 9 0 0 0 0 0 0 0 -193 -209 13 17 16 17 13 10 10 0 0 -193 -209 -193 -209 -209 -209 -209 -209 -209 -209 -209 344 -177 -177 -177 345 346 -193 -193 -193 12 -193 12 -193 -209 -209 -209 344 345 345 346 -209 -209 -193 -193 121 122 122 122 125 124 124 124 128 127 127 127 127 124 128 128 126 123 124 123 -193 -193 -209 -209 -209 -209 -209 -193 -209 -193 729 734 -209 -209 -193 113 114 114 114 112 111 114 113 112 114 116 115 113 112 111 112 117 114 114 110 620 -193 -209 -209 69 70 -209 -209 37 37 31 -193 23 23 21 20 21 21 22 24 33 42 53 -209 -209 -209 -209 -193 89 90 89 88 89 89 88 87 87 86 82 86 88 89 89 90 91 93 91 96 100 101 103 105 103 104 112 115 -209 -209 59 56 56 58 59 59 58 59 59 59 59 58 58 58 59 60 59 62 61 62 62 0 0 0 0 0
    0 0 0 0 0 0 0 0 0 0 0 0 0 0 0 0 0 0 0 0 0 0 0 0 0 0 0 0 0 0 0 0 0 0 0 0 0 0 0 0 0 0 0 0 0 0 0 0 0 0 0 0 0 0 0 0 0 0 0 0 0 0 0 0 0 0 0 0 0 47 46 43 44 -209 -209 22 27 -209 -209 -209 -209 -209 -193 43 44 44 -193 -209 -209 -209 -209 -193 -193 0 -209 -193 -209 -193 -209 -209 -209 -209 -209 -209 -193 -209 -209 43 -209 38 42 42 43 43 45 45 43 44 44 44 -193 -209 19 20 22 15 14 11 0 0 0 0 9 -209 -209 -209 -209 16 20 -177 21 18 13 12 0 0 -209 -209 120 120 -209 -209 -209 -209 -209 -209 -209 -193 342 342 -193 -193 -177 -209 -193 -193 13 -193 12 16 -209 -193 -193 344 345 346 347 -193 -209 -209 -209 121 121 122 122 124 123 124 124 127 127 127 127 127 124 128 128 126 123 124 122 -193 -193 -209 -209 -209 -177 -177 -209 -209 -209 -193 732 -209 -209 -193 114 113 114 114 112 111 113 113 112 113 116 115 113 113 112 113 118 115 116 114 625 634 -209 -209 67 70 -209 -193 -209 -209 -209 -209 -193 22 20 21 21 21 22 25 35 -209 55 -193 836 -209 -177 -193 89 90 89 88 89 89 86 83 82 81 78 81 86 86 86 88 89 90 90 93 98 101 104 105 105 105 115 118 119 -209 -209 -209 -209 60 60 59 59 59 59 59 59 58 57 57 58 60 59 62 61 62 62 0 0 0 0 0
    0 0 0 0 0 0 0 0 0 0 0 0 0 0 0 0 0 0 0 0 0 0 0 0 0 0 0 0 0 0 0 0 0 0 0 0 0 0 0 0 0 0 0 0 0 0 0 0 0 0 0 0 0 0 0 0 0 0 0 0 0 0 0 0 0 0 0 0 0 47 47 45 45 46 43 36 41 42 42 42 44 43 42 44 46 46 46 49 47 46 48 49 48 -193 -209 -209 45 54 -209 -193 -193 -193 52 51 49 49 43 45 43 42 44 44 44 44 47 46 45 47 46 46 45 43 -193 -193 27 -193 -193 17 -209 -209 -209 -209 -209 -209 -209 -209 -209 -209 22 -209 -209 -209 -209 -209 -209 -209 -209 -209 -209 -209 -209 -209 -209 -209 -209 -209 -209 -193 343 -193 -193 -209 -209 -209 -209 -209 14 -209 -193 16 -209 345 343 343 345 345 347 -193 -193 -209 -209 -193 121 122 122 123 122 123 124 127 127 126 127 127 125 129 128 126 123 125 123 118 116 112 -209 -209 -177 -193 -209 -209 -209 -209 -193 -193 -193 -193 113 112 114 113 112 110 113 113 112 111 116 114 113 113 112 112 118 115 116 115 -209 -193 -209 -209 68 71 -209 68 67 61 -209 -209 -209 21 19 21 21 21 23 26 37 -193 56 65 835 -193 -177 -177 89 90 -193 88 89 89 84 81 78 78 77 78 84 84 84 85 86 87 88 91 96 103 105 106 107 108 116 119 119 116 -209 -209 -209 65 64 63 -193 60 60 60 59 58 57 57 57 59 59 62 61 61 62 0 0 0 0 0
    0 0 0 0 0 0 0 0 0 0 0 0 0 0 0 0 0 0 0 0 0 0 0 0 0 0 0 0 0 0 0 0 0 0 0 0 0 0 0 0 0 0 0 0 0 0 0 0 0 0 0 0 0 0 0 0 0 0 0 0 0 0 0 0 0 0 0 0 0 48 48 47 46 47 46 42 44 45 44 44 46 45 45 46 48 49 48 52 52 51 51 51 50 51 48 50 48 53 52 53 54 52 52 52 50 51 46 47 46 44 46 45 45 46 50 47 46 48 47 47 47 45 45 41 41 -193 -193 -193 -209 -209 -177 -177 -193 -209 -209 -209 -209 -209 -209 -209 -209 -209 -209 -209 -193 -193 -177 -209 -209 -209 -209 -193 -209 -209 -209 -209 -193 -193 -209 -193 -193 -193 -209 -209 -209 -209 -193 -209 -193 18 -209 -193 -193 -193 -209 -209 -193 -209 -209 -193 -209 -193 120 120 121 122 121 122 123 126 126 126 127 126 125 128 126 125 123 124 123 119 117 114 -209 -209 -177 -209 -209 -209 -177 -209 -209 -193 -193 110 113 112 114 114 112 111 114 113 113 111 117 115 114 113 112 112 118 115 116 116 118 -193 -209 -209 -193 72 75 71 71 69 71 -209 -209 20 18 20 20 21 23 27 39 -193 57 -193 835 -193 -177 -193 90 90 90 88 90 90 84 82 78 78 78 77 82 82 82 83 83 86 86 88 97 105 106 107 109 110 118 120 120 118 115 -209 108 -209 -193 -193 -209 61 60 59 59 58 55 55 57 59 59 61 61 62 62 0 0 0 0 0
    0 0 0 0 0 0 0 0 0 0 0 0 0 0 0 0 0 0 0 0 0 0 0 0 0 0 0 0 0 0 0 0 0 0 0 0 0 0 0 0 0 0 0 0 0 0 0 0 0 0 0 0 0 0 0 0 0 0 0 0 0 0 0 0 0 0 0 0 0 48 49 49 48 49 49 45 47 48 46 46 47 46 47 47 49 50 49 52 53 52 52 52 51 52 51 52 51 53 52 53 54 53 53 52 51 51 49 49 47 46 48 47 48 48 51 49 49 50 48 48 48 46 47 43 43 42 43 45 44 46 -193 -193 -193 -193 48 45 44 44 43 42 46 44 46 -193 -209 -209 -193 -193 -193 -209 -209 -209 -209 -193 50 -193 48 50 -209 48 48 48 -193 -193 -209 -209 -209 -209 -209 -193 -209 -209 -209 -209 234 236 -193 -209 -193 -193 -209 -193 119 120 121 121 121 122 122 125 126 125 126 126 125 128 125 124 122 123 122 120 118 117 -209 -209 -177 -209 -209 565 566 -193 -209 -193 -193 110 114 112 114 114 114 111 114 114 114 112 117 115 115 114 113 113 118 115 115 114 115 112 115 113 -209 72 79 73 73 72 73 74 -209 -209 16 20 19 20 23 29 40 53 58 70 -193 -209 -193 -193 91 91 90 88 89 90 84 81 78 78 78 77 81 81 81 81 81 84 84 86 92 104 105 109 112 113 119 121 121 120 119 120 116 120 120 -209 -209 -209 125 127 -209 -209 56 56 57 59 59 61 61 61 62 0 0 0 0 0
    0 0 0 0 0 0 0 0 0 0 0 0 0 0 0 0 0 0 0 0 0 0 0 0 0 0 0 0 0 0 0 0 0 0 0 0 0 0 0 0 0 0 0 0 0 0 0 0 0 0 0 0 0 0 0 0 0 0 0 0 0 0 0 0 0 0 0 0 0 48 50 50 50 50 50 47 50 50 48 48 49 48 49 49 50 51 50 52 53 52 52 53 51 52 52 52 51 52 51 52 52 52 52 51 50 51 49 49 48 48 49 48 50 50 52 50 50 51 49 49 49 47 48 45 47 45 46 48 47 49 49 49 49 50 50 48 47 48 46 46 51 48 50 52 49 49 49 50 50 47 -193 52 50 50 52 52 50 51 51 49 49 49 50 47 49 53 -193 -193 -193 50 53 -209 -209 -209 -209 -209 -209 -209 -193 -193 -209 118 118 119 120 121 120 122 122 125 125 124 126 125 125 128 124 124 122 124 122 121 120 120 120 -209 -209 -193 564 564 -177 -193 -209 -193 -193 110 113 112 114 114 114 112 114 114 114 112 117 116 115 114 113 114 118 114 114 114 112 110 114 112 -209 76 84 74 74 74 74 76 76 -209 -209 18 17 20 24 31 41 55 58 70 80 -209 -193 -193 90 90 -193 87 89 89 84 80 77 78 77 77 80 80 80 79 79 82 82 83 90 99 103 108 113 116 119 121 121 120 119 121 119 122 122 121 120 125 126 128 126 126 -209 56 57 60 59 61 61 62 62 0 0 0 0 0
    0 0 0 0 0 0 0 0 0 0 0 0 0 0 0 0 0 0 0 0 0 0 0 0 0 0 0 0 0 0 0 0 0 0 0 0 0 0 0 0 0 0 0 0 0 0 0 0 0 0 0 0 0 0 0 0 0 0 0 0 0 0 0 0 0 0 0 0 0 49 51 51 50 51 51 48 51 51 49 49 50 48 49 50 51 52 51 53 53 53 53 53 52 52 52 53 52 52 52 52 52 52 52 51 51 51 50 49 48 48 50 48 51 50 52 50 51 51 50 50 50 48 50 46 50 48 50 51 50 51 51 50 51 51 51 50 49 51 49 51 53 51 52 53 52 52 52 52 52 50 54 54 53 52 53 53 52 52 52 51 50 50 52 49 51 54 52 53 54 53 55 57 -209 -209 -177 -193 -193 -209 -193 -193 -209 117 118 118 119 120 118 122 121 123 124 124 126 126 125 127 124 124 122 124 122 121 122 121 123 -209 -209 -193 563 563 -177 -177 -209 -209 109 109 113 111 113 114 114 112 114 114 114 112 117 116 116 114 114 114 117 114 114 114 113 111 115 115 112 75 87 76 75 76 76 78 78 76 -209 -209 17 21 26 36 44 58 59 70 82 -209 -193 -193 91 91 -193 87 89 89 83 81 78 78 77 77 80 80 80 79 78 81 80 80 88 90 100 107 113 115 118 120 121 120 119 120 120 123 122 122 122 127 126 127 126 126 -193 -209 58 60 59 62 61 62 63 0 0 0 0 0
    0 0 0 0 0 0 0 0 0 0 0 0 0 0 0 0 0 0 0 0 0 0 0 0 0 0 0 0 0 0 0 0 0 0 0 0 0 0 0 0 0 0 0 0 0 0 0 0 0 0 0 0 0 0 0 0 0 0 0 0 0 0 0 0 0 0 0 0 0 49 51 51 51 51 51 48 51 52 50 49 50 49 50 51 52 53 52 54 54 54 54 54 53 53 53 54 53 53 53 54 53 53 53 52 51 51 51 50 49 49 50 49 53 51 53 51 52 51 50 50 51 48 50 46 50 49 51 52 50 51 51 50 51 51 51 50 50 51 51 53 54 52 53 54 53 53 53 53 52 52 54 55 53 53 54 53 52 52 52 51 50 50 51 50 51 54 54 54 54 54 56 57 58 -209 -177 -177 -177 -209 -193 -177 -193 118 119 119 120 120 118 122 121 122 124 124 128 127 127 126 124 123 123 123 121 121 122 121 124 -209 -209 -209 -193 -193 -193 -193 -209 -193 108 109 112 111 113 114 113 112 114 114 114 112 117 116 116 114 113 114 117 114 114 114 114 112 116 117 115 75 87 77 76 78 78 80 80 78 77 -209 -209 23 32 39 50 -177 66 72 -193 -193 91 -193 91 91 90 88 89 89 84 82 78 78 78 77 79 80 80 79 77 80 79 77 85 86 95 105 110 113 118 118 120 120 120 120 120 123 123 123 123 128 126 127 127 126 -193 -209 59 61 60 62 61 63 63 0 0 0 0 0
    0 0 0 0 0 0 0 0 0 0 0 0 0 0 0 0 0 0 0 0 0 0 0 0 0 0 0 0 0 0 0 0 0 0 0 0 0 0 0 0 0 0 0 0 0 0 0 0 0 0 0 0 0 0 0 0 0 0 0 0 0 0 0 0 0 0 0 0 0 49 52 52 51 52 52 49 52 52 51 50 52 51 52 53 53 54 53 55 55 54 54 54 53 54 53 55 54 54 54 55 54 54 54 53 52 52 52 51 50 52 52 52 55 54 54 53 53 52 51 51 52 49 51 48 52 51 52 52 51 52 51 51 51 51 50 50 50 51 51 53 54 53 54 54 54 53 54 53 52 52 54 55 54 54 55 54 53 53 53 52 51 51 52 51 52 55 55 55 55 55 56 58 58 -209 -177 -177 -193 -209 -193 -177 -193 119 120 120 121 121 118 122 121 122 124 125 127 127 127 126 124 123 123 124 121 122 123 122 126 140 -209 -209 -193 59 -209 -209 -209 -193 109 108 112 111 113 113 113 112 113 114 115 112 117 116 116 114 113 114 117 114 114 114 114 114 118 119 -193 -193 -193 76 76 79 79 81 80 79 79 73 -193 -209 39 44 53 -177 -209 -193 -193 -177 -193 -193 92 92 91 89 89 89 85 83 78 78 78 77 79 79 79 79 76 80 79 76 83 81 94 101 107 108 112 116 118 119 119 120 120 124 125 124 124 128 126 127 126 127 -193 -209 60 62 61 63 62 63 64 0 0 0 0 0
    0 0 0 0 0 0 0 0 0 0 0 0 0 0 0 0 0 0 0 0 0 0 0 0 0 0 0 0 0 0 0 0 0 0 0 0 0 0 0 0 0 0 0 0 0 0 0 0 0 0 0 0 0 0 0 0 0 0 0 0 0 0 0 0 0 0 0 0 0 50 52 52 52 52 53 50 52 53 52 52 53 52 53 54 55 55 54 56 55 55 55 55 54 54 54 56 55 55 55 55 55 54 54 54 53 53 53 52 52 54 54 54 56 55 55 54 53 53 52 52 52 50 52 51 53 52 53 53 52 52 52 51 51 51 51 50 51 52 53 54 55 53 54 54 54 53 54 53 52 -193 -193 -193 -193 56 56 55 54 54 54 53 52 52 53 53 54 55 56 56 56 56 57 58 58 59 -209 -193 -209 -209 -177 461 -193 119 120 120 121 121 119 122 121 122 125 125 127 127 127 127 124 124 124 124 123 124 125 126 128 142 -209 -209 56 59 -209 -177 -209 -209 109 107 111 111 113 113 113 112 113 114 115 112 116 116 116 114 113 114 116 114 114 114 113 113 117 118 -193 -193 -193 77 77 80 79 81 80 80 80 73 76 -193 47 52 57 -209 -209 -209 -209 -209 -193 -193 92 92 91 89 89 89 85 83 78 78 79 78 79 79 79 78 76 79 78 74 77 -209 100 104 108 108 109 116 119 119 120 123 122 126 127 125 125 128 127 127 126 127 127 -193 61 63 61 63 62 64 64 0 0 0 0 0
    0 0 0 0 0 0 0 0 0 0 0 0 0 0 0 0 0 0 0 0 0 0 0 0 0 0 0 0 0 0 0 0 0 0 0 0 0 0 0 0 0 0 0 0 0 0 0 0 0 0 0 0 0 0 0 0 0 0 0 0 0 0 0 0 0 0 0 0 0 51 53 53 53 53 54 52 53 54 53 53 54 54 55 55 55 56 55 56 56 55 55 55 54 55 54 56 55 56 55 56 55 55 55 54 54 54 54 54 54 56 56 56 56 55 55 54 54 54 52 52 53 51 53 52 53 52 53 53 52 52 52 51 51 51 51 51 52 53 54 55 55 53 54 54 54 53 54 53 53 -193 -193 -193 -193 56 57 55 55 55 54 54 53 54 54 54 55 56 57 57 57 57 57 58 58 60 -209 -193 -209 -209 -177 462 -193 119 120 120 121 121 119 122 121 123 125 126 127 127 126 128 125 124 123 125 123 124 127 127 129 142 -209 -209 56 59 64 -177 -177 -209 109 106 110 111 113 113 113 112 113 114 115 113 116 116 116 114 114 114 116 113 113 112 111 109 114 114 -193 72 -193 77 78 80 79 80 79 80 79 73 73 -193 57 56 64 -209 -209 -209 -193 100 94 95 93 93 91 89 89 88 84 83 78 78 79 78 79 79 79 78 76 79 78 73 73 -193 -209 -193 111 110 112 118 119 122 125 129 124 128 129 126 126 129 127 127 126 127 127 -193 62 63 61 63 63 64 64 0 0 0 0 0
    0 0 0 0 0 0 0 0 0 0 0 0 0 0 0 0 0 0 0 0 0 0 0 0 0 0 0 0 0 0 0 0 0 0 0 0 0 0 0 0 0 0 0 0 0 0 0 0 0 0 0 0 0 0 0 0 0 0 0 0 0 0 0 0 0 0 0 0 0 52 54 55 55 54 55 54 54 55 54 54 55 55 56 56 56 57 55 56 56 55 56 55 55 55 55 57 56 56 56 56 56 55 55 55 54 55 55 55 55 57 57 57 57 56 56 55 55 55 52 53 54 52 54 54 54 54 54 55 54 53 53 53 52 52 52 52 53 54 55 56 56 54 55 55 55 54 55 54 53 -193 -193 -193 -193 57 57 56 56 56 55 55 54 54 55 55 55 56 57 57 57 57 57 58 58 60 62 -209 -209 -177 -177 -177 -193 120 121 121 121 122 120 123 122 124 125 126 127 126 126 127 124 124 123 124 123 125 127 128 128 142 -193 -193 58 59 63 -193 -177 -193 110 107 110 111 112 112 113 112 113 114 115 114 115 116 116 114 114 114 116 113 112 111 110 109 112 112 -193 -193 -193 78 78 80 79 80 79 79 79 73 72 71 59 59 66 -193 -209 92 92 100 95 95 93 93 91 89 89 88 84 82 78 78 78 78 78 79 79 78 75 78 76 69 68 67 -193 -193 -209 -209 113 118 120 123 128 131 124 128 130 127 127 129 127 126 126 127 126 -193 63 64 61 63 63 64 65 0 0 0 0 0
    0 0 0 0 0 0 0 0 0 0 0 0 0 0 0 0 0 0 0 0 0 0 0 0 0 0 0 0 0 0 0 0 0 0 0 0 0 0 0 0 0 0 0 0 0 0 0 0 0 0 0 0 0 0 0 0 0 0 0 0 0 0 0 0 0 0 0 0 0 53 56 56 57 56 56 56 56 56 56 56 56 56 57 57 56 57 56 56 56 55 56 56 56 57 56 58 58 58 57 56 56 56 55 55 55 56 55 56 56 58 57 57 57 56 55 55 55 55 53 54 55 54 56 57 56 56 56 56 55 54 54 53 52 52 52 53 54 54 55 56 56 56 56 55 56 55 56 55 54 -193 -193 58 57 57 57 56 57 56 56 56 54 55 56 56 56 56 58 57 57 57 57 58 58 60 62 -193 -209 -177 -177 -177 -193 121 121 121 122 123 121 123 123 123 125 127 127 126 126 128 125 124 123 125 124 125 127 128 127 140 -193 59 59 60 63 -193 -193 -209 -193 108 109 111 111 111 112 112 113 114 115 115 114 116 116 115 114 114 116 113 112 111 109 109 111 110 -193 -193 -193 78 78 81 80 81 78 79 78 72 71 70 60 60 67 -193 -209 91 91 100 94 95 93 92 90 89 89 88 83 81 77 78 78 78 78 78 78 77 75 76 74 61 63 62 63 -193 -209 -209 -209 -193 122 126 131 132 125 128 131 127 127 129 127 126 125 127 127 124 -193 66 62 63 63 64 65 0 0 0 0 0
    0 0 0 0 0 0 0 0 0 0 0 0 0 0 0 0 0 0 0 0 0 0 0 0 0 0 0 0 0 0 0 0 0 0 0 0 0 0 0 0 0 0 0 0 0 0 0 0 0 0 0 0 0 0 0 0 0 0 0 0 0 0 0 0 0 0 0 0 0 54 57 58 58 58 58 58 58 59 58 57 58 57 57 58 57 57 56 56 57 56 57 57 57 58 58 59 59 58 58 57 56 56 56 56 56 57 57 58 57 59 58 57 57 56 55 55 55 55 53 54 55 55 57 59 58 57 57 57 56 56 55 54 53 53 53 54 55 55 56 57 57 57 57 57 57 57 57 56 55 56 56 58 58 57 57 57 57 57 57 57 56 56 56 57 56 56 59 58 58 57 57 58 58 61 63 -193 -209 -209 -177 -177 -193 121 122 122 122 123 121 122 124 123 125 127 127 127 127 128 125 124 124 125 125 126 127 128 127 139 59 60 60 60 62 61 62 -177 -177 -193 109 111 109 110 111 112 112 113 115 115 114 116 116 115 114 114 116 113 112 111 110 109 111 110 -209 -193 -193 78 79 81 80 80 78 79 78 71 70 68 60 61 67 -193 -209 -193 -193 100 94 96 93 92 91 89 89 88 84 80 77 77 78 78 77 77 77 76 74 74 71 61 61 60 60 63 -193 -193 -209 -209 131 133 -209 133 126 127 131 127 127 128 127 126 125 127 126 123 -193 67 63 64 64 64 66 0 0 0 0 0
    0 0 0 0 0 0 0 0 0 0 0 0 0 0 0 0 0 0 0 0 0 0 0 0 0 0 0 0 0 0 0 0 0 0 0 0 0 0 0 0 0 0 0 0 0 0 0 0 0 0 0 0 0 0 0 0 0 0 0 0 0 0 0 0 0 0 0 0 0 55 57 59 59 59 59 61 60 61 59 58 59 58 58 58 57 57 56 56 57 56 58 58 58 59 59 60 60 59 59 58 57 57 56 57 57 57 57 58 58 59 58 58 57 56 55 56 55 55 53 54 56 57 58 60 59 59 58 58 57 57 56 55 54 54 55 55 57 57 58 59 59 58 58 58 58 57 57 57 55 56 56 58 59 58 58 58 58 58 58 59 58 57 58 58 57 57 60 59 58 58 58 59 59 62 -193 -177 -209 -209 -177 -193 -193 122 123 123 123 124 121 122 125 123 125 127 127 127 127 128 126 124 124 125 126 126 126 127 126 -193 59 60 60 61 62 61 62 -177 -177 -193 110 110 108 109 110 111 112 113 115 115 114 116 116 115 114 115 116 114 112 112 110 110 111 110 -209 72 84 78 79 81 80 80 78 79 78 72 71 69 62 62 67 71 -209 -209 -209 -193 93 96 94 92 91 90 89 88 84 80 77 77 78 77 77 77 76 75 73 73 69 62 61 60 59 62 61 63 -193 -209 -209 -209 -209 134 127 127 131 127 127 128 127 126 124 -193 126 122 127 67 63 64 64 64 66 0 0 0 0 0
    0 0 0 0 0 0 0 0 0 0 0 0 0 0 0 0 0 0 0 0 0 0 0 0 0 0 0 0 0 0 0 0 0 0 0 0 0 0 0 0 0 0 0 0 0 0 0 0 0 0 0 0 0 0 0 0 0 0 0 0 0 0 0 0 0 0 0 0 0 57 59 60 60 60 61 63 61 62 60 59 59 58 58 58 57 57 56 56 57 57 58 59 59 60 59 60 60 59 60 58 58 57 57 57 57 58 58 59 58 59 59 58 58 57 56 56 55 57 54 55 57 59 59 61 60 60 59 60 59 58 57 56 56 56 57 57 59 59 60 61 61 60 60 59 59 58 58 58 56 57 57 58 60 58 58 58 59 59 59 60 59 58 60 60 58 57 61 60 59 59 59 60 60 63 65 -177 -209 -209 -193 -193 127 123 124 124 124 125 122 123 125 122 124 126 126 126 125 126 125 124 124 126 126 126 125 128 124 -193 59 61 61 61 62 61 62 -177 -177 -177 110 109 108 108 109 110 111 113 115 115 113 117 116 115 115 115 116 114 112 112 109 110 111 -193 72 72 83 78 78 81 80 80 78 79 78 72 71 69 63 63 67 71 -209 -193 -193 -193 92 96 94 -193 91 90 90 89 84 79 76 77 78 77 77 76 75 74 73 73 69 64 63 63 61 64 61 65 70 -209 -209 -209 -193 134 127 127 132 128 128 129 127 127 -193 127 127 122 127 67 63 64 65 64 66 0 0 0 0 0
    0 0 0 0 0 0 0 0 0 0 0 0 0 0 0 0 0 0 0 0 0 0 0 0 0 0 0 0 0 0 0 0 0 0 0 0 0 0 0 0 0 0 0 0 0 0 0 0 0 0 0 0 0 0 0 0 0 0 0 0 0 0 0 0 0 0 0 0 0 58 60 62 62 62 63 65 62 62 61 59 59 58 58 58 57 57 56 56 58 57 59 59 60 60 60 60 60 59 60 58 58 58 57 58 58 59 59 59 59 59 59 58 58 58 57 57 56 58 56 57 58 61 60 62 61 61 60 61 60 59 58 58 57 58 59 59 62 60 61 62 63 62 62 60 61 59 59 59 57 57 58 59 61 59 60 60 60 60 60 61 60 60 62 61 60 59 61 61 60 60 59 60 60 63 66 -193 -209 -209 -209 -193 127 123 123 124 124 125 123 124 125 122 124 125 125 125 124 125 124 124 124 126 128 126 125 130 -193 -193 59 61 62 61 63 62 64 64 66 71 -193 108 106 106 107 108 111 114 115 115 113 116 115 115 114 115 115 113 112 111 109 109 110 -209 71 72 82 78 78 81 79 79 78 78 78 72 71 70 63 64 68 71 -209 -193 -193 94 92 96 94 -193 91 90 90 88 84 77 76 77 77 77 76 76 75 73 72 73 69 67 67 67 66 68 64 68 70 -209 -209 -177 -177 134 127 127 132 128 128 129 128 127 125 -193 127 122 128 67 63 63 65 64 66 0 0 0 0 0
    0 0 0 0 0 0 0 0 0 0 0 0 0 0 0 0 0 0 0 0 0 0 0 0 0 0 0 0 0 0 0 0 0 0 0 0 0 0 0 0 0 0 0 0 0 0 0 0 0 0 0 0 0 0 0 0 0 0 0 0 0 0 0 0 0 0 0 0 0 59 62 65 65 65 65 66 63 62 62 60 60 58 58 58 57 58 57 57 59 58 60 60 61 61 61 61 61 60 61 59 59 59 59 59 59 60 60 60 60 59 59 58 58 58 57 57 56 58 57 58 60 62 61 62 62 61 61 61 61 60 58 58 58 59 60 60 63 61 62 64 64 63 64 62 62 61 62 62 59 59 59 60 63 60 61 61 61 61 61 63 61 61 64 62 61 60 62 63 61 60 60 61 61 63 66 -193 -209 -209 -209 -209 127 123 123 123 124 125 124 125 125 122 124 124 125 125 124 125 124 123 124 126 129 126 125 130 -193 -193 61 63 63 62 63 64 65 66 67 71 71 -193 -193 104 106 107 111 114 115 115 113 116 115 115 114 115 115 113 111 111 109 109 110 -209 71 72 81 77 77 80 79 79 77 78 78 72 72 70 64 66 69 71 -209 -193 -193 94 92 95 94 -193 91 90 90 87 83 77 76 77 77 77 76 75 74 73 72 72 69 68 68 68 68 69 67 69 71 -209 -209 -177 -177 134 127 127 131 128 127 129 128 127 125 128 128 123 131 65 62 62 65 64 66 0 0 0 0 0
    0 0 0 0 0 0 0 0 0 0 0 0 0 0 0 0 0 0 0 0 0 0 0 0 0 0 0 0 0 0 0 0 0 0 0 0 0 0 0 0 0 0 0 0 0 0 0 0 0 0 0 0 0 0 0 0 0 0 0 0 0 0 0 0 0 0 0 0 0 61 64 67 67 67 67 68 64 63 63 60 59 58 58 58 57 58 59 58 61 60 62 62 62 62 62 61 62 61 61 60 61 60 60 61 61 61 62 62 60 60 60 59 59 59 58 57 57 59 59 59 61 63 62 62 62 62 61 62 62 61 59 60 59 60 61 62 64 62 63 64 65 64 66 64 64 62 65 65 62 61 61 63 64 61 62 62 62 62 62 63 61 61 64 62 62 60 63 64 61 61 61 61 61 63 66 65 -209 -209 -209 -193 -193 122 122 123 124 124 124 126 125 122 123 124 125 125 124 124 123 123 123 125 127 124 124 130 -193 67 62 64 64 62 64 65 66 67 67 71 71 -209 87 99 106 106 110 114 115 115 113 116 115 115 115 115 115 113 112 112 110 111 111 -209 71 72 79 76 76 78 78 78 76 77 77 73 73 71 66 67 69 72 -193 -193 -193 93 92 96 -193 -193 91 90 90 86 82 75 76 76 77 76 76 75 74 72 71 71 69 69 69 69 69 70 69 70 72 -209 -209 -193 126 133 126 126 131 128 128 129 128 128 126 129 129 123 131 64 62 63 66 65 67 0 0 0 0 0
    0 0 0 0 0 0 0 0 0 0 0 0 0 0 0 0 0 0 0 0 0 0 0 0 0 0 0 0 0 0 0 0 0 0 0 0 0 0 0 0 0 0 0 0 0 0 0 0 0 0 0 0 0 0 0 0 0 0 0 0 0 0 0 0 0 0 0 0 0 64 66 68 68 68 68 69 65 64 64 62 60 58 59 59 58 59 60 59 62 61 63 62 62 63 62 62 62 61 62 61 62 61 62 63 63 63 63 63 62 60 62 59 60 59 59 58 57 59 60 60 61 63 62 63 63 63 62 64 64 63 61 62 62 61 63 65 65 63 63 65 65 65 66 65 65 63 66 66 63 62 63 64 66 63 64 63 63 63 63 64 62 62 64 63 64 62 63 65 62 62 61 61 61 63 67 66 -209 -209 -209 -193 -193 121 121 122 123 123 123 126 125 121 122 123 124 125 124 124 122 123 124 125 127 123 123 129 -209 69 63 65 64 63 65 66 67 67 68 71 71 -177 -193 92 -209 105 110 114 116 116 113 116 116 115 115 115 115 114 112 112 111 112 113 -193 70 72 76 74 75 77 76 77 76 76 76 73 73 72 66 68 70 72 72 85 -193 93 93 97 -177 -193 -193 91 91 85 80 73 76 76 77 76 77 75 73 73 72 71 70 69 69 69 68 69 69 70 73 -209 -209 -209 125 133 126 126 130 128 128 129 128 128 126 130 129 124 132 64 63 64 67 66 68 0 0 0 0 0
    0 0 0 0 0 0 0 0 0 0 0 0 0 0 0 0 0 0 0 0 0 0 0 0 0 0 0 0 0 0 0 0 0 0 0 0 0 0 0 0 0 0 0 0 0 0 0 0 0 0 0 0 0 0 0 0 0 0 0 0 0 0 0 0 0 0 0 0 0 67 69 69 69 70 69 69 66 66 67 66 63 62 62 63 61 64 65 61 64 62 64 63 63 63 62 62 63 62 63 62 64 64 66 66 66 66 66 66 65 63 65 61 61 61 60 58 56 59 60 60 61 64 63 63 64 64 63 65 65 65 63 65 66 64 65 67 67 64 64 65 65 65 67 65 64 63 66 67 63 63 64 65 66 64 65 64 64 64 65 64 63 63 65 64 66 63 64 66 63 63 63 62 62 63 67 -193 -177 -177 -177 -209 -209 -193 120 121 122 122 123 126 125 121 123 124 126 126 124 124 123 123 125 125 127 122 122 127 -209 70 64 65 65 63 65 67 68 68 68 71 -193 -193 -209 -209 400 104 109 115 116 116 113 116 116 116 115 116 115 114 112 112 111 112 112 -193 70 71 73 73 74 75 75 75 74 75 74 73 73 70 66 68 71 73 73 85 -193 93 -193 -193 -177 -177 -193 -193 -209 78 77 73 75 77 77 76 77 75 73 73 72 71 70 70 69 69 68 69 69 70 73 -193 -193 -209 -193 133 126 127 130 128 127 129 127 128 126 130 129 125 133 63 64 66 68 67 68 0 0 0 0 0
    0 0 0 0 0 0 0 0 0 0 0 0 0 0 0 0 0 0 0 0 0 0 0 0 0 0 0 0 0 0 0 0 0 0 0 0 0 0 0 0 0 0 0 0 0 0 0 0 0 0 0 0 0 0 0 0 0 0 0 0 0 0 0 0 0 0 0 0 0 71 71 71 71 71 72 71 69 70 71 71 70 -193 70 71 70 71 70 65 67 64 66 65 64 65 64 64 65 64 66 65 67 66 68 68 68 69 68 69 69 68 69 67 68 67 65 -193 -193 60 -193 -193 61 64 63 63 64 64 64 65 66 65 63 66 68 65 66 67 67 64 65 66 66 65 67 66 65 64 68 68 65 64 66 67 67 66 67 66 66 66 67 66 64 65 66 65 67 64 64 67 65 64 65 64 63 64 68 -193 -177 -177 -177 -209 -193 -209 119 120 121 121 122 126 124 121 123 124 126 126 124 124 122 123 124 125 126 -193 -193 -209 71 71 66 66 66 63 66 68 68 69 69 72 -193 -193 -193 -209 402 104 109 115 116 116 114 116 115 115 115 116 114 113 111 110 109 108 108 -209 72 72 73 73 74 75 74 74 73 73 73 73 73 70 68 70 72 74 74 85 -193 92 92 96 -177 -177 -193 -193 -209 75 75 73 75 77 77 76 76 75 74 74 73 72 72 71 71 70 69 70 69 70 73 74 -177 -209 -193 133 126 127 130 127 127 129 127 128 126 130 128 125 133 62 63 66 67 67 69 0 0 0 0 0
    0 0 0 0 0 0 0 0 0 0 0 0 0 0 0 0 0 0 0 0 0 0 0 0 0 0 0 0 0 0 0 0 0 0 0 0 0 0 0 0 0 0 0 0 0 0 0 0 0 0 0 0 0 0 0 0 0 0 0 0 0 0 0 0 0 0 0 0 0 75 74 73 72 73 74 74 72 73 76 77 75 82 80 82 80 76 76 69 70 67 67 67 66 67 67 67 69 68 70 68 70 68 70 70 70 70 70 71 71 71 72 72 73 -193 -193 -177 -209 -209 -193 -209 -193 65 62 62 63 63 64 66 67 66 65 69 71 67 69 68 67 65 65 67 66 66 68 67 66 66 70 70 68 68 68 69 69 68 69 68 68 68 69 68 66 67 68 67 69 66 66 68 67 67 67 67 66 66 70 -177 -177 -177 -177 -209 -193 117 118 119 120 120 121 126 123 120 123 124 126 126 124 124 122 123 -193 324 -193 -209 -209 -209 70 71 68 67 67 63 67 69 69 70 70 72 -209 -193 -209 -209 403 104 109 115 116 116 114 115 115 115 115 116 113 112 110 109 107 105 105 -209 75 76 75 73 74 74 74 74 73 73 73 73 74 72 70 72 76 77 77 86 -193 93 93 97 -209 -193 -193 90 -209 75 76 74 75 77 77 77 76 76 75 75 73 72 72 72 72 72 70 71 70 71 74 76 161 -209 -209 -209 125 128 129 127 127 129 127 128 126 130 128 126 133 63 64 66 67 67 68 0 0 0 0 0
    0 0 0 0 0 0 0 0 0 0 0 0 0 0 0 0 0 0 0 0 0 0 0 0 0 0 0 0 0 0 0 0 0 0 0 0 0 0 0 0 0 0 0 0 0 0 0 0 0 0 0 0 0 0 0 0 0 0 0 0 0 0 0 0 0 0 0 0 0 79 76 75 74 75 76 77 75 77 81 83 82 86 85 86 86 83 86 -193 -193 -193 69 69 69 69 70 70 73 72 76 -193 75 72 -193 -209 -193 71 72 74 75 75 76 77 78 86 -193 -193 -209 -209 -209 -209 -209 -209 61 62 64 64 68 -193 -209 70 70 75 77 69 71 69 68 66 66 68 67 67 69 68 67 68 71 -193 -193 -193 71 71 70 71 71 70 70 70 70 70 69 69 70 70 71 69 69 70 69 69 69 69 68 69 -209 809 -177 -177 -209 -193 -209 116 117 118 119 119 121 126 122 120 123 124 126 126 124 124 121 124 -193 324 -193 -193 -209 -209 70 71 69 67 68 64 67 70 71 71 71 74 75 -209 -193 -209 -209 103 109 115 116 116 114 115 115 115 115 115 113 111 109 109 104 103 104 93 82 83 78 73 74 75 74 73 73 73 -193 74 78 73 72 75 84 85 85 88 98 96 95 97 -209 -193 91 91 -209 76 77 76 75 78 78 78 77 76 76 76 73 72 72 72 71 72 70 71 70 71 75 -209 163 -209 -209 -209 125 128 128 127 127 128 126 127 126 130 127 126 133 64 65 67 68 67 69 0 0 0 0 0
    0 0 0 0 0 0 0 0 0 0 0 0 0 0 0 0 0 0 0 0 0 0 0 0 0 0 0 0 0 0 0 0 0 0 0 0 0 0 0 0 0 0 0 0 0 0 0 0 0 0 0 0 0 0 0 0 0 0 0 0 0 0 0 0 0 0 0 0 0 82 79 76 76 76 78 79 77 81 84 85 84 87 86 87 87 85 87 -209 -193 -209 71 71 71 71 73 74 79 80 83 84 86 84 82 -193 77 75 77 81 80 81 83 84 84 88 87 -193 -209 -193 -209 -209 -209 -209 -209 -209 -193 -193 -193 -209 -209 -209 86 87 88 88 78 71 69 67 68 69 68 67 70 69 68 70 73 -193 -193 -193 78 76 72 74 73 72 72 71 71 71 71 71 71 72 72 70 71 71 71 71 71 71 -193 -209 -193 -193 -177 -193 -209 -209 -209 114 115 117 118 118 120 126 123 121 124 125 127 127 125 125 122 124 -193 323 -193 -193 -209 -209 -193 71 70 69 69 66 69 72 73 74 73 75 76 -209 -193 -193 -209 105 110 115 116 117 115 114 115 115 115 116 113 111 108 108 103 101 102 91 86 86 80 73 74 75 73 73 73 73 72 76 85 80 82 89 89 89 89 91 98 97 95 97 -193 90 90 90 85 77 77 77 76 79 79 79 78 78 78 77 74 72 72 71 71 71 70 70 70 71 76 -209 -177 -209 -209 -209 124 128 127 126 127 128 126 126 126 129 125 126 131 65 66 67 68 68 69 0 0 0 0 0
    0 0 0 0 0 0 0 0 0 0 0 0 0 0 0 0 0 0 0 0 0 0 0 0 0 0 0 0 0 0 0 0 0 0 0 0 0 0 0 0 0 0 0 0 0 0 0 0 0 0 0 0 0 0 0 0 0 0 0 0 0 0 0 0 0 0 0 0 0 84 83 80 81 81 83 84 82 84 86 86 86 87 87 87 87 87 88 -193 84 -193 72 73 73 73 79 78 84 85 87 87 88 88 87 -209 83 82 84 86 84 85 86 87 87 89 89 89 89 91 -209 -193 -209 -209 -209 -193 -209 -193 -193 92 90 90 90 90 89 90 87 74 71 70 69 70 69 69 72 71 71 74 77 80 -193 -193 88 88 79 80 80 75 76 -193 73 -193 73 75 73 76 81 72 76 74 75 74 75 -193 -209 -193 -209 -193 -193 482 -193 -209 -193 111 113 115 116 116 119 125 122 122 125 127 127 127 125 125 122 123 -193 -177 125 -193 -193 139 -193 71 70 70 71 68 70 74 75 76 75 77 79 -209 -193 92 -209 106 111 115 117 117 115 114 115 115 115 116 114 112 109 107 103 101 101 92 89 89 87 74 75 75 73 -193 72 72 -193 79 89 89 90 92 92 91 91 93 97 97 96 98 91 90 90 89 82 77 77 77 76 79 81 81 81 82 83 80 75 72 71 70 70 70 69 70 70 71 77 -193 -177 -177 -177 -209 124 129 127 126 127 128 126 126 126 128 123 124 127 67 68 69 69 69 69 0 0 0 0 0
    0 0 0 0 0 0 0 0 0 0 0 0 0 0 0 0 0 0 0 0 0 0 0 0 0 0 0 0 0 0 0 0 0 0 0 0 0 0 0 0 0 0 0 0 0 0 0 0 0 0 0 0 0 0 0 0 0 0 0 0 0 0 0 0 0 0 0 0 0 86 86 86 89 89 88 89 87 87 88 87 87 88 87 88 88 88 89 87 87 86 77 79 79 78 84 83 86 87 88 89 89 90 89 -209 -209 86 87 88 87 87 87 88 88 90 91 90 90 92 -193 -193 91 -193 -193 90 91 91 90 93 91 91 91 90 90 90 88 89 76 73 72 72 72 73 76 79 78 83 87 89 89 91 90 90 87 86 87 84 84 -193 79 -193 79 84 82 83 87 83 83 81 85 81 83 -193 -209 -209 -209 -209 -193 481 -193 -209 -193 110 112 115 116 116 119 125 122 122 125 127 127 127 125 125 122 123 127 -177 125 123 122 139 -209 71 -193 -193 -193 70 72 76 77 80 78 80 82 87 -209 99 106 107 111 114 117 116 115 113 115 116 115 116 114 112 109 106 102 100 100 93 91 91 90 78 78 78 -193 -193 -193 73 -209 83 91 92 93 93 94 92 92 94 97 98 96 98 91 89 90 89 80 76 77 77 76 80 83 83 84 87 87 85 83 78 -193 70 71 70 68 69 70 71 -193 -177 -177 -177 -193 -193 124 130 127 126 127 127 126 125 125 127 122 122 124 -193 72 73 72 71 71 0 0 0 0 0
    0 0 0 0 0 0 0 0 0 0 0 0 0 0 0 0 0 0 0 0 0 0 0 0 0 0 0 0 0 0 0 0 0 0 0 0 0 0 0 0 0 0 0 0 0 0 0 0 0 0 0 0 0 0 0 0 0 0 0 0 0 0 0 0 0 0 0 0 0 87 88 89 91 93 92 91 89 89 90 88 88 89 88 88 89 89 89 89 89 88 86 86 86 85 87 87 88 89 89 90 90 91 91 91 -193 89 89 90 88 89 89 89 90 90 92 91 91 93 92 -193 92 91 92 91 92 92 91 94 92 91 91 91 90 90 89 90 85 83 79 78 80 83 85 88 88 89 90 91 91 93 92 92 90 89 90 88 87 -193 83 83 83 86 85 85 88 86 87 86 88 87 88 -193 -209 -193 -209 -209 -193 -177 -193 -193 109 109 111 114 117 117 119 125 122 122 125 127 127 127 125 125 122 124 128 -193 126 124 124 138 -209 -193 -193 -193 88 -193 76 83 82 86 86 86 86 91 98 104 107 108 111 113 117 116 115 112 115 115 115 115 113 111 109 105 101 98 98 94 93 92 91 88 85 86 83 78 75 75 -209 86 93 96 96 95 96 94 93 95 97 99 96 98 90 89 89 88 80 77 78 78 76 83 86 85 86 89 89 89 89 90 -193 -193 -193 -193 68 -193 -193 -209 -209 -209 -177 -193 -209 -193 125 131 127 126 127 127 125 124 125 126 121 121 122 -209 81 85 79 75 75 0 0 0 0 0
    0 0 0 0 0 0 0 0 0 0 0 0 0 0 0 0 0 0 0 0 0 0 0 0 0 0 0 0 0 0 0 0 0 0 0 0 0 0 0 0 0 0 0 0 0 0 0 0 0 0 0 0 0 0 0 0 0 0 0 0 0 0 0 0 0 0 0 0 0 89 89 90 93 96 96 93 91 92 93 90 89 89 88 88 89 89 89 89 90 89 88 88 88 88 89 89 89 89 90 91 91 92 92 92 92 91 90 91 90 90 89 90 90 90 92 91 91 93 92 92 92 92 92 92 93 92 92 94 92 92 92 91 91 91 90 91 89 89 89 87 89 89 89 90 90 91 93 92 93 95 93 93 91 90 91 89 89 88 85 86 85 88 87 87 88 88 89 89 90 89 90 89 90 90 91 91 -193 -193 98 -193 107 108 110 113 116 117 119 124 121 122 125 127 127 127 125 125 122 124 128 128 126 126 126 139 149 -209 -193 90 89 -193 85 88 86 90 -193 90 91 97 105 106 109 110 112 113 116 115 114 112 115 115 115 115 112 111 109 104 100 97 97 95 94 94 93 91 89 89 89 87 83 81 -193 88 96 99 98 97 97 95 95 96 97 99 95 96 90 88 89 88 82 78 80 80 77 84 86 86 87 89 90 90 92 93 94 93 94 96 95 96 97 97 96 102 -209 -209 134 126 125 131 127 127 127 127 126 124 125 126 120 121 121 82 85 88 85 79 78 0 0 0 0 0
    0 0 0 0 0 0 0 0 0 0 0 0 0 0 0 0 0 0 0 0 0 0 0 0 0 0 0 0 0 0 0 0 0 0 0 0 0 0 0 0 0 0 0 0 0 0 0 0 0 0 0 0 0 0 0 0 0 0 0 0 0 0 0 0 0 0 0 0 0 89 89 91 95 97 98 95 93 94 96 92 91 90 89 89 90 89 90 89 90 90 89 89 89 89 90 90 90 91 92 92 92 94 94 94 93 92 91 92 91 90 90 90 91 90 92 91 91 92 92 92 92 92 93 93 94 94 93 95 93 93 93 92 91 91 91 91 90 91 91 90 91 91 91 91 92 92 93 92 93 96 93 93 92 92 92 90 90 90 87 88 88 89 89 88 89 89 90 90 91 90 91 90 91 92 93 92 93 93 99 102 107 107 110 112 115 117 119 122 121 122 125 126 125 126 125 125 122 124 129 129 127 127 127 139 151 -209 90 90 90 90 88 89 89 92 94 94 96 101 106 107 109 111 112 112 115 115 114 112 114 115 115 114 112 110 109 104 99 96 96 96 96 95 94 92 91 92 92 91 89 88 89 93 99 100 100 98 99 97 96 97 97 98 95 96 92 90 90 90 86 82 82 82 78 85 87 87 89 90 92 93 96 98 98 99 100 101 101 101 100 100 100 103 106 120 134 126 125 131 127 127 128 127 126 124 125 126 120 121 121 86 87 89 88 84 81 0 0 0 0 0
    0 0 0 0 0 0 0 0 0 0 0 0 0 0 0 0 0 0 0 0 0 0 0 0 0 0 0 0 0 0 0 0 0 0 0 0 0 0 0 0 0 0 0 0 0 0 0 0 0 0 0 0 0 0 0 0 0 0 0 0 0 0 0 0 0 0 0 0 0 92 91 93 98 98 99 98 96 96 98 94 92 92 91 90 91 91 91 90 92 91 90 91 92 91 92 92 92 93 94 95 94 95 95 95 95 93 92 93 91 91 91 90 92 91 93 92 91 93 94 93 94 93 94 94 95 95 94 95 93 93 93 92 91 91 91 91 90 92 92 90 92 92 92 92 93 92 94 93 94 97 94 94 93 92 93 91 91 91 88 89 89 90 90 89 90 89 91 91 92 91 93 91 92 93 94 93 94 94 99 102 107 107 109 111 115 117 119 121 120 122 124 125 125 126 125 124 122 124 129 129 126 126 -193 -193 -193 90 91 92 91 91 89 90 90 93 94 95 96 101 106 107 108 110 111 110 114 114 113 111 114 115 114 113 111 110 109 104 98 96 96 98 97 96 97 94 94 97 97 96 93 94 98 99 101 101 100 100 100 98 98 98 98 98 97 97 95 92 93 92 90 86 83 82 79 87 89 89 90 91 94 95 99 100 100 101 102 103 103 103 102 102 102 104 108 120 134 126 126 131 127 127 128 127 126 124 125 126 119 120 119 90 88 90 91 88 87 0 0 0 0 0
    0 0 0 0 0 0 0 0 0 0 0 0 0 0 0 0 0 0 0 0 0 0 0 0 0 0 0 0 0 0 0 0 0 0 0 0 0 0 0 0 0 0 0 0 0 0 0 0 0 0 0 0 0 0 0 0 0 0 0 0 0 0 0 0 0 0 0 0 0 93 92 95 98 99 100 99 98 98 99 97 95 94 93 91 92 92 92 92 93 93 91 92 94 94 94 94 93 95 95 97 96 96 96 96 96 95 92 94 92 91 91 91 92 91 94 93 92 94 96 95 95 94 95 96 97 96 95 96 94 94 93 93 92 92 92 92 91 93 93 91 93 93 92 93 94 93 96 94 95 98 94 94 93 92 93 91 92 91 88 89 89 90 90 89 90 90 92 92 93 93 94 93 94 94 96 94 95 96 100 103 106 107 109 110 114 117 119 120 119 122 124 124 124 125 124 124 122 124 128 127 125 125 -193 101 99 93 93 94 93 92 91 91 91 95 96 97 99 102 107 108 109 110 111 110 114 113 113 112 114 114 114 113 111 109 109 103 99 96 96 98 98 98 98 96 98 100 100 100 98 101 102 102 102 101 101 100 100 99 98 99 97 98 98 99 98 95 97 98 95 93 88 84 85 90 92 91 93 94 96 98 101 102 101 102 103 103 103 103 102 102 103 106 109 119 133 127 127 132 128 128 129 127 126 124 126 126 119 120 120 101 93 93 93 91 90 0 0 0 0 0
    0 0 0 0 0 0 0 0 0 0 0 0 0 0 0 0 0 0 0 0 0 0 0 0 0 0 0 0 0 0 0 0 0 0 0 0 0 0 0 0 0 0 0 0 0 0 0 0 0 0 0 0 0 0 0 0 0 0 0 0 0 0 0 0 0 0 0 0 0 95 94 96 99 99 100 100 98 99 99 98 96 95 95 92 93 93 93 93 95 94 92 94 96 96 96 97 95 97 97 98 98 97 97 97 97 96 93 95 93 92 92 92 94 92 96 95 93 96 98 96 96 95 96 97 98 97 96 96 94 95 94 94 92 92 92 92 92 93 94 92 94 95 93 94 96 94 98 94 96 99 95 95 94 93 94 92 93 91 89 90 89 90 91 90 91 90 93 93 93 93 95 94 94 95 97 96 96 97 101 104 106 107 108 109 113 116 118 119 116 121 122 122 122 123 123 123 122 123 127 126 123 123 102 100 99 94 94 94 93 92 92 91 92 96 99 100 101 103 107 108 109 110 110 109 113 113 113 111 114 114 114 112 110 108 108 102 99 96 96 99 98 98 99 97 99 100 100 100 99 101 102 103 102 102 101 100 100 99 99 98 97 98 99 100 101 100 103 105 105 105 105 -193 98 102 100 96 97 98 99 100 102 102 102 102 103 103 104 103 103 102 103 107 -193 -209 133 127 127 132 128 128 129 128 127 124 126 126 120 121 121 105 102 100 99 93 92 0 0 0 0 0
    0 0 0 0 0 0 0 0 0 0 0 0 0 0 0 0 0 0 0 0 0 0 0 0 0 0 0 0 0 0 0 0 0 0 0 0 0 0 0 0 0 0 0 0 0 0 0 0 0 0 0 0 0 0 0 0 0 0 0 0 0 0 0 0 0 0 0 0 0 96 94 97 99 98 99 99 98 98 99 98 97 96 97 94 95 95 94 95 97 97 94 96 99 99 99 99 97 99 98 99 99 98 98 98 97 97 94 96 94 93 93 94 96 94 97 97 94 97 99 97 96 96 98 99 98 98 97 97 95 96 95 94 93 93 93 94 93 95 96 94 96 97 96 96 98 97 100 95 98 100 96 96 95 94 95 93 94 92 89 91 90 91 92 91 92 91 93 94 94 94 97 94 95 97 98 97 98 99 103 105 107 107 108 109 113 116 117 117 115 120 120 121 121 122 122 122 122 123 126 126 123 122 102 101 99 96 95 94 93 93 92 92 92 98 101 101 102 104 107 108 109 109 110 109 113 112 113 111 113 113 113 111 109 108 109 103 99 97 98 100 99 99 99 98 100 101 101 101 100 102 103 103 103 102 101 101 101 100 99 98 98 99 100 101 103 103 105 107 107 108 108 108 106 107 103 99 99 99 99 101 103 103 103 103 104 104 104 104 104 103 104 109 -193 -193 -193 126 127 131 128 128 129 128 127 124 127 126 121 121 121 106 105 103 102 100 99 0 0 0 0 0
    0 0 0 0 0 0 0 0 0 0 0 0 0 0 0 0 0 0 0 0 0 0 0 0 0 0 0 0 0 0 0 0 0 0 0 0 0 0 0 0 0 0 0 0 0 0 0 0 0 0 0 0 0 0 0 0 0 0 0 0 0 0 0 0 0 0 0 0 0 97 95 97 99 98 99 99 98 98 99 99 98 96 98 95 96 96 96 97 99 99 97 99 100 100 100 100 98 100 99 99 99 99 99 99 98 99 94 97 96 94 95 96 98 96 99 99 97 98 101 98 98 97 99 99 99 99 98 97 96 97 96 95 94 94 95 95 95 97 98 96 97 99 97 97 100 99 101 96 100 100 97 97 96 95 96 94 95 93 90 92 91 93 93 93 93 93 95 95 96 96 98 96 96 98 99 98 99 100 103 105 107 107 108 109 113 116 117 116 114 119 119 119 120 122 122 122 123 124 126 126 -193 -193 102 101 100 97 96 95 93 94 93 94 94 100 103 103 104 105 107 108 109 110 110 109 112 111 112 110 112 112 111 109 107 107 108 103 98 97 98 100 99 99 100 99 101 102 101 101 101 103 104 103 104 103 102 102 103 101 101 100 100 100 101 102 103 103 106 107 108 108 108 108 106 106 103 100 100 100 100 102 104 105 104 105 105 105 105 105 105 105 105 109 -193 118 -193 125 125 131 127 128 129 128 128 125 127 127 121 123 122 108 106 105 105 104 104 0 0 0 0 0
    0 0 0 0 0 0 0 0 0 0 0 0 0 0 0 0 0 0 0 0 0 0 0 0 0 0 0 0 0 0 0 0 0 0 0 0 0 0 0 0 0 0 0 0 0 0 0 0 0 0 0 0 0 0 0 0 0 0 0 0 0 0 0 0 0 0 0 0 0 98 96 98 99 98 99 99 98 99 99 99 99 97 100 97 98 98 97 99 100 101 99 100 101 101 101 101 99 100 100 100 100 99 100 99 99 99 95 98 97 95 97 97 99 98 100 101 99 99 101 98 99 99 101 100 100 99 99 98 98 98 98 97 95 96 97 97 98 98 99 98 98 100 98 99 102 101 103 99 101 101 99 99 98 97 98 95 96 93 91 94 93 96 97 97 96 96 96 97 97 98 98 97 97 100 100 99 100 101 104 106 107 107 107 108 112 115 116 114 113 118 118 119 120 121 121 122 123 124 126 125 -193 -209 102 101 101 99 98 97 94 95 95 97 97 102 105 105 105 106 108 109 109 110 110 109 112 111 112 110 111 110 110 108 106 106 108 103 99 98 99 101 99 99 100 99 101 102 101 101 101 103 104 104 105 104 104 105 105 103 103 102 101 101 102 103 104 104 106 107 108 108 108 108 106 106 103 100 100 103 103 105 107 108 106 106 106 106 106 106 106 106 106 109 111 118 126 124 125 130 127 127 129 128 128 125 128 128 122 125 124 110 108 107 106 105 -209 0 0 0 0 0
    0 0 0 0 0 0 0 0 0 0 0 0 0 0 0 0 0 0 0 0 0 0 0 0 0 0 0 0 0 0 0 0 0 0 0 0 0 0 0 0 0 0 0 0 0 0 0 0 0 0 0 0 0 0 0 0 0 0 0 0 0 0 0 0 0 0 0 0 0 99 97 99 100 98 100 100 99 100 100 100 99 98 101 98 99 98 99 100 101 101 100 101 102 102 102 102 100 101 100 100 101 100 100 100 99 100 95 98 98 96 99 99 100 100 101 102 100 101 102 100 101 100 102 101 100 100 99 99 99 99 99 98 97 98 99 99 99 99 100 99 99 101 100 101 103 102 104 102 103 102 100 100 100 99 99 96 97 94 93 96 95 99 99 99 99 98 98 98 97 99 99 98 98 101 100 100 101 102 104 106 107 107 107 108 111 114 115 112 112 117 117 119 120 121 121 122 123 124 125 125 -193 105 103 102 101 101 100 99 96 97 97 100 100 103 106 105 105 106 107 109 109 109 110 110 112 111 112 110 109 109 109 108 105 105 107 102 99 98 100 101 99 99 100 99 102 102 102 101 101 103 105 105 105 105 106 106 107 106 106 103 102 102 102 103 104 104 106 107 108 108 108 109 107 107 -193 103 -193 107 106 109 113 109 108 108 106 107 106 107 106 106 107 110 112 118 126 124 124 129 127 128 129 128 128 125 128 128 123 126 124 115 112 110 109 107 -209 0 0 0 0 0
    0 0 0 0 0 0 0 0 0 0 0 0 0 0 0 0 0 0 0 0 0 0 0 0 0 0 0 0 0 0 0 0 0 0 0 0 0 0 0 0 0 0 0 0 0 0 0 0 0 0 0 0 0 0 0 0 0 0 0 0 0 0 0 0 0 0 0 0 0 100 98 100 100 99 100 100 100 100 100 100 99 97 100 97 99 98 99 100 101 101 100 101 101 101 101 102 100 101 100 100 100 100 100 100 98 100 95 98 99 97 100 100 101 101 102 103 101 102 103 101 101 101 103 101 100 100 99 99 99 99 99 98 98 99 100 100 100 100 100 99 99 101 100 101 104 103 105 103 103 102 101 101 100 100 100 97 98 95 95 99 98 100 100 100 100 100 99 99 98 99 99 99 99 102 101 101 102 103 105 107 107 107 107 108 111 114 114 111 112 116 116 118 119 120 120 121 122 123 123 124 -193 105 103 103 102 101 101 101 97 99 98 101 101 103 106 105 105 106 107 109 108 109 109 110 112 111 112 110 108 108 108 107 104 104 106 102 99 99 100 101 99 100 100 100 103 103 102 102 103 104 106 106 106 105 106 107 108 107 107 103 103 103 102 104 104 105 107 108 108 109 109 110 108 110 108 108 108 112 111 111 115 111 109 110 108 108 107 108 108 107 108 112 114 118 125 123 124 129 127 127 129 128 128 125 128 127 123 126 124 118 116 114 114 113 -209 0 0 0 0 0
    0 0 0 0 0 0 0 0 0 0 0 0 0 0 0 0 0 0 0 0 0 0 0 0 0 0 0 0 0 0 0 0 0 0 0 0 0 0 0 0 0 0 0 0 0 0 0 0 0 0 0 0 0 0 0 0 0 0 0 0 0 0 0 0 0 0 0 0 0 101 99 100 100 99 100 100 100 99 100 100 99 98 101 97 99 99 100 101 101 102 101 102 103 102 102 103 100 102 100 100 100 100 100 100 98 100 95 98 99 97 100 100 101 101 102 103 101 101 102 101 101 100 102 100 100 99 99 98 99 99 99 98 99 99 101 100 101 100 101 100 99 102 101 102 104 103 105 103 104 102 101 101 101 100 100 98 99 96 98 100 100 101 101 101 101 101 100 100 100 100 100 100 100 103 102 102 103 104 106 107 107 107 107 108 112 113 113 110 110 114 115 118 119 119 118 120 121 122 122 122 110 106 104 103 103 102 103 102 99 100 100 103 103 104 106 106 105 106 107 109 108 109 109 110 112 111 112 110 108 108 108 108 105 104 106 101 100 99 101 101 100 100 101 101 104 103 103 103 104 105 107 107 107 106 107 108 109 108 107 105 105 105 104 106 105 107 108 108 110 111 111 112 110 113 112 113 113 115 114 112 116 112 111 111 109 110 108 109 109 108 109 113 115 118 125 123 125 128 126 127 128 127 128 125 128 127 123 127 124 121 119 117 -193 117 120 0 0 0 0 0
    0 0 0 0 0 0 0 0 0 0 0 0 0 0 0 0 0 0 0 0 0 0 0 0 0 0 0 0 0 0 0 0 0 0 0 0 0 0 0 0 0 0 0 0 0 0 0 0 0 0 0 0 0 0 0 0 0 0 0 0 0 0 0 0 0 0 0 0 0 104 103 103 103 101 103 102 102 101 102 102 100 100 102 98 100 100 100 101 102 103 104 104 105 105 105 105 102 103 101 100 101 100 100 100 98 100 96 99 99 97 100 100 101 101 102 103 101 102 103 102 102 101 103 101 101 100 100 99 99 99 100 99 100 100 101 101 101 100 101 99 99 102 101 102 104 104 106 104 104 102 101 101 101 101 100 99 99 96 100 101 101 102 101 101 102 101 101 101 100 101 100 100 101 104 102 103 104 104 107 108 107 107 107 109 112 113 112 109 109 112 113 117 118 117 117 119 121 121 121 121 109 107 105 104 104 104 104 104 101 102 101 104 104 104 106 106 106 106 107 109 108 109 110 111 112 112 112 110 109 108 108 108 105 104 106 101 100 99 101 100 100 100 101 101 105 104 104 104 105 107 108 108 108 106 108 109 110 110 108 107 108 108 107 108 108 109 110 110 112 112 112 113 112 114 113 113 113 113 113 111 114 111 111 110 109 110 108 110 110 109 110 113 116 119 125 123 125 127 126 127 128 127 128 125 128 126 124 127 124 121 120 118 -193 116 118 0 0 0 0 0
    0 0 0 0 0 0 0 0 0 0 0 0 0 0 0 0 0 0 0 0 0 0 0 0 0 0 0 0 0 0 0 0 0 0 0 0 0 0 0 0 0 0 0 0 0 0 0 0 0 0 0 0 0 0 0 0 0 0 0 0 0 0 0 0 0 0 0 0 0 107 107 107 106 -193 106 -193 -193 -193 105 104 103 103 104 101 102 102 102 102 103 104 106 106 108 108 108 108 105 105 103 101 102 101 101 101 99 101 98 100 100 99 101 101 102 102 102 103 102 103 -193 104 104 104 105 103 102 102 101 101 101 100 101 100 100 101 102 102 102 101 101 100 101 103 102 103 104 104 106 105 105 102 102 102 102 101 101 99 99 97 101 101 102 102 101 101 102 101 101 101 100 100 100 100 101 103 102 102 104 104 107 107 107 107 107 109 112 112 112 109 109 110 113 117 118 118 117 120 121 122 122 121 109 107 105 105 105 104 104 -193 102 103 102 104 104 104 105 106 105 106 107 108 108 109 109 111 112 111 111 110 109 108 109 108 105 104 106 102 101 100 102 100 99 99 100 101 106 104 104 104 105 108 109 109 109 107 109 110 111 111 109 109 110 111 108 110 109 111 111 112 114 113 113 113 113 114 113 113 112 112 112 112 112 111 111 111 110 112 109 112 111 111 111 114 116 119 124 123 125 126 126 127 127 127 127 125 128 126 124 127 124 121 119 118 116 115 116 0 0 0 0 0
    0 0 0 0 0 0 0 0 0 0 0 0 0 0 0 0 0 0 0 0 0 0 0 0 0 0 0 0 0 0 0 0 0 0 0 0 0 0 0 0 0 0 0 0 0 0 0 0 0 0 0 0 0 0 0 0 0 0 0 0 0 0 0 0 0 0 0 0 0 109 108 109 109 108 108 107 108 107 107 106 106 106 106 104 105 104 104 105 106 106 108 108 109 109 109 109 108 107 105 102 103 101 101 101 100 102 101 102 102 101 103 103 103 103 103 104 103 104 107 107 107 106 107 104 104 103 103 102 102 101 101 100 101 101 103 102 103 102 103 102 103 105 104 105 106 105 107 106 106 103 104 103 103 103 102 101 100 98 102 101 102 103 101 101 102 101 101 100 100 100 99 99 101 103 102 102 105 105 107 108 108 108 108 110 113 112 112 109 110 110 114 117 119 118 118 120 122 123 122 121 108 107 105 105 105 104 104 -193 102 103 102 104 104 104 104 105 105 105 106 108 108 109 109 111 112 112 111 110 109 109 109 109 106 105 106 104 102 101 102 101 101 100 100 102 109 106 106 105 106 109 110 109 110 107 110 111 111 113 110 111 112 113 111 112 113 114 113 115 116 115 114 114 114 115 113 113 112 112 111 112 112 111 111 111 111 113 110 114 112 112 112 115 117 119 124 123 125 126 125 127 127 127 127 125 127 125 124 126 123 121 118 118 116 116 116 0 0 0 0 0
    0 0 0 0 0 0 0 0 0 0 0 0 0 0 0 0 0 0 0 0 0 0 0 0 0 0 0 0 0 0 0 0 0 0 0 0 0 0 0 0 0 0 0 0 0 0 0 0 0 0 0 0 0 0 0 0 0 0 0 0 0 0 0 0 0 0 0 0 0 110 110 110 111 110 111 111 111 110 111 108 108 109 107 105 105 106 105 106 108 107 110 110 111 111 110 111 109 108 108 103 103 102 102 102 101 103 102 103 103 103 104 105 104 105 105 106 105 105 108 109 109 108 109 106 106 105 105 104 103 102 102 101 102 102 103 103 105 104 104 104 105 106 106 106 107 106 108 108 107 105 105 105 104 104 104 103 101 100 103 103 103 104 102 102 103 102 101 101 100 100 99 100 101 104 102 103 106 106 108 109 109 109 108 110 112 111 112 110 110 111 116 119 119 119 120 121 123 124 124 122 108 107 106 105 105 105 105 104 103 104 103 104 104 103 104 105 104 105 106 108 108 109 110 111 112 112 111 110 109 109 109 109 106 105 106 105 104 102 103 102 101 100 100 102 110 106 106 106 106 109 110 110 110 108 111 112 112 113 110 113 114 114 113 115 115 116 114 117 118 117 116 115 115 116 115 114 113 113 111 112 111 110 110 111 110 113 110 114 113 113 113 116 118 120 124 123 126 126 126 127 127 127 127 125 127 124 124 125 122 121 118 118 117 116 116 0 0 0 0 0
    0 0 0 0 0 0 0 0 0 0 0 0 0 0 0 0 0 0 0 0 0 0 0 0 0 0 0 0 0 0 0 0 0 0 0 0 0 0 0 0 0 0 0 0 0 0 0 0 0 0 0 0 0 0 0 0 0 0 0 0 0 0 0 0 0 0 0 0 0 111 111 112 113 112 114 114 114 113 114 111 111 111 108 105 105 107 106 108 109 109 112 111 112 113 112 112 110 110 110 105 105 103 102 102 101 103 102 103 104 103 104 105 105 105 106 107 107 106 109 111 111 110 110 108 107 107 107 105 104 104 103 103 103 103 104 104 107 106 106 106 106 107 107 108 109 107 110 112 109 107 107 106 106 106 106 105 103 103 106 106 105 106 104 103 104 103 103 102 102 101 100 102 103 106 104 105 108 108 109 109 110 109 108 110 112 111 111 111 110 112 118 120 120 121 121 122 124 125 125 122 110 108 106 105 106 105 106 105 104 104 104 105 105 104 103 104 104 105 106 108 108 109 109 111 112 112 112 110 110 109 109 109 107 106 107 106 105 104 105 103 102 101 100 102 111 106 106 106 107 111 111 110 110 108 112 113 113 114 111 114 115 116 115 116 116 117 115 119 119 118 117 117 117 117 116 116 115 115 113 115 114 113 112 112 113 115 112 116 114 114 115 117 119 121 125 124 127 126 126 127 127 127 127 125 127 124 124 125 121 121 118 118 117 117 117 0 0 0 0 0</data></disparity>
</opencv_storage>
