<?xml version="1.0"?>
<opencv_storage>
<gps_time_stamp>22826</gps_time_stamp>
<gps_x>-3.2226796150207520e+000</gps_x>
<gps_y>3.5167923569679260e-001</gps_y>
<gps_z>-3.7241074442863464e-001</gps_z>
<image_time_stamp>10765</image_time_stamp>
<disparity type_id="opencv-matrix">
  <rows>79</rows>
  <cols>320</cols>
  <dt>s</dt>
  <data>
    0 0 0 0 0 0 0 0 0 0 0 0 0 0 0 0 0 0 0 0 0 0 0 0 0 0 0 0 0 0 0 0 0 0 0 0 0 0 0 0 0 0 0 0 0 0 0 0 0 0 0 0 0 0 0 0 0 0 0 0 0 0 0 0 0 0 0 0 0 180 180 180 182 181 182 184 -193 -193 -193 190 192 194 192 194 189 189 188 188 188 188 187 187 186 186 185 185 186 185 186 185 184 -193 184 184 183 182 183 183 183 183 184 183 183 -193 -193 -209 -209 -209 -209 -209 -193 -209 180 181 181 183 184 183 183 184 183 183 183 184 183 182 183 183 182 184 184 185 184 185 186 186 186 190 188 189 183 185 183 181 181 181 -193 181 180 182 180 182 183 184 183 184 183 184 185 185 183 185 184 183 181 183 188 184 185 185 185 185 185 186 186 181 185 185 184 181 183 183 183 184 183 184 183 183 184 -193 185 185 -193 184 182 183 182 184 183 183 182 181 180 182 182 182 182 182 182 183 183 182 181 181 182 181 181 182 182 181 182 182 182 180 182 181 180 180 179 179 179 179 179 177 179 178 178 178 179 180 181 180 182 183 183 183 183 182 182 183 185 182 182 184 184 183 184 183 182 182 183 183 182 180 182 181 184 184 184 182 181 182 182 182 182 181 182 183 184 185 186 185 184 184 184 184 183 183 184 184 187 184 184 184 184 184 184 183 182 178 185 185 186 186 187 0 0 0 0 0
    0 0 0 0 0 0 0 0 0 0 0 0 0 0 0 0 0 0 0 0 0 0 0 0 0 0 0 0 0 0 0 0 0 0 0 0 0 0 0 0 0 0 0 0 0 0 0 0 0 0 0 0 0 0 0 0 0 0 0 0 0 0 0 0 0 0 0 0 0 180 180 180 181 181 181 184 -193 -193 -193 191 194 195 193 194 189 189 188 188 188 187 187 186 186 186 185 185 186 185 186 185 -193 -193 -193 184 183 182 183 182 183 183 183 183 184 -193 -193 -193 -209 -209 -209 -209 -209 -209 -209 -193 181 184 184 183 184 185 184 184 183 184 183 183 183 183 182 184 184 -193 -209 -193 186 -209 -193 190 188 189 182 184 -193 -193 -193 -193 -193 181 180 181 180 182 183 184 183 183 183 184 185 185 184 185 184 183 181 184 189 185 185 185 185 185 185 186 186 182 185 186 185 182 184 183 182 183 183 183 183 183 184 183 185 185 -209 184 182 182 181 183 182 182 181 180 180 182 182 182 182 182 181 182 183 182 181 181 182 181 181 182 181 181 181 182 181 180 182 181 180 180 180 179 179 179 180 178 179 178 178 178 179 180 180 180 182 183 183 183 183 182 182 183 184 181 181 183 183 182 183 183 182 182 182 182 181 179 182 181 185 185 184 182 182 182 182 183 182 181 182 182 184 184 185 184 183 182 182 182 182 182 183 184 186 184 184 184 184 184 183 183 181 177 184 184 184 186 186 0 0 0 0 0
    0 0 0 0 0 0 0 0 0 0 0 0 0 0 0 0 0 0 0 0 0 0 0 0 0 0 0 0 0 0 0 0 0 0 0 0 0 0 0 0 0 0 0 0 0 0 0 0 0 0 0 0 0 0 0 0 0 0 0 0 0 0 0 0 0 0 0 0 0 181 180 180 181 180 181 184 184 187 196 193 195 195 194 194 190 189 188 188 189 188 187 186 186 186 184 185 185 -193 186 -193 -193 -193 -193 184 183 182 182 181 182 183 183 183 -193 -193 -177 -177 -193 -193 -209 -209 -209 -193 -209 -209 182 185 185 184 185 186 184 184 184 184 183 183 183 183 182 184 184 -209 -209 -209 -209 -209 -209 -209 187 185 181 -193 -193 -193 -193 -209 -209 -193 -193 181 180 183 183 185 183 183 183 185 185 185 183 184 183 182 180 183 189 185 185 185 185 185 186 187 187 183 186 186 186 184 185 183 182 183 183 183 183 183 183 182 184 184 -193 183 181 181 180 182 182 182 181 180 180 183 182 182 181 181 181 182 183 181 181 181 182 181 181 181 181 180 181 181 181 179 182 181 181 181 181 181 180 180 181 179 179 179 177 177 178 180 180 179 181 182 182 182 183 182 181 182 184 181 180 182 183 182 183 182 182 181 182 182 180 179 180 178 184 183 183 181 181 182 182 183 182 182 183 182 183 183 184 182 182 181 181 181 181 182 183 184 185 184 184 184 184 184 184 184 182 179 185 185 186 187 187 0 0 0 0 0
    0 0 0 0 0 0 0 0 0 0 0 0 0 0 0 0 0 0 0 0 0 0 0 0 0 0 0 0 0 0 0 0 0 0 0 0 0 0 0 0 0 0 0 0 0 0 0 0 0 0 0 0 0 0 0 0 0 0 0 0 0 0 0 0 0 0 0 0 0 181 180 179 180 179 179 184 185 188 198 196 197 196 196 195 191 189 189 188 189 188 187 186 186 185 183 184 185 184 186 185 -193 -193 -193 185 183 181 182 181 181 183 182 182 184 -209 -193 -209 -209 -209 -209 -209 -209 -209 -209 -209 -193 -193 -193 185 186 186 185 185 184 185 183 183 183 183 182 184 184 -209 -209 -209 -209 -209 -209 -209 -209 -209 -209 -209 -193 -209 -209 -209 -209 -209 -209 -193 180 -193 -209 186 -193 184 -193 185 185 -193 182 183 183 182 180 184 189 185 185 185 185 184 185 186 186 183 185 186 186 184 185 183 182 183 183 183 182 183 183 181 183 183 182 182 180 181 180 182 183 182 181 180 -193 -193 182 182 181 180 180 182 183 181 181 180 182 180 181 181 180 179 180 181 181 179 182 182 182 182 182 182 180 181 181 179 179 179 177 176 177 179 179 179 180 181 181 181 182 180 180 180 182 180 180 182 182 182 182 182 182 181 182 182 179 178 178 174 183 180 182 180 180 181 182 182 182 182 182 182 182 182 182 181 180 180 180 179 181 181 183 184 185 184 184 184 184 184 184 184 182 179 185 185 186 188 188 0 0 0 0 0
    0 0 0 0 0 0 0 0 0 0 0 0 0 0 0 0 0 0 0 0 0 0 0 0 0 0 0 0 0 0 0 0 0 0 0 0 0 0 0 0 0 0 0 0 0 0 0 0 0 0 0 0 0 0 0 0 0 0 0 0 0 0 0 0 0 0 0 0 0 -209 180 180 179 178 179 185 -209 -209 -209 -209 -193 197 196 195 192 190 189 188 189 188 -193 -193 -193 -193 -177 -177 185 185 186 186 -209 185 185 185 183 182 182 181 181 183 182 182 -209 -209 524 535 542 549 544 -209 -177 -193 -209 -209 -193 -193 -193 186 187 187 186 185 185 185 183 183 183 182 182 183 184 -209 -209 -209 -209 -209 -209 -209 -209 -209 -193 -193 -193 -209 -209 -209 -209 -209 399 -209 -193 -209 -209 -193 -193 184 -193 185 185 -209 -209 182 183 182 181 184 189 185 185 185 185 185 185 186 186 183 185 185 185 184 185 183 182 183 183 183 182 182 182 180 182 183 182 182 180 180 180 182 -193 -193 181 180 -193 -193 182 181 181 179 180 182 182 181 181 180 181 180 181 181 180 179 181 180 181 180 182 182 182 183 182 183 180 180 181 179 178 178 176 176 177 178 180 179 180 180 180 181 181 180 180 180 181 180 179 182 182 181 182 182 182 181 182 182 179 179 179 177 184 181 183 180 180 181 181 182 182 182 182 182 182 182 182 181 180 180 181 180 181 182 183 184 185 184 184 184 185 185 185 185 185 184 187 188 188 188 188 0 0 0 0 0
    0 0 0 0 0 0 0 0 0 0 0 0 0 0 0 0 0 0 0 0 0 0 0 0 0 0 0 0 0 0 0 0 0 0 0 0 0 0 0 0 0 0 0 0 0 0 0 0 0 0 0 0 0 0 0 0 0 0 0 0 0 0 0 0 0 0 0 0 0 252 -193 -193 176 175 176 -209 -209 -209 -209 -209 199 -209 197 196 193 191 -193 -193 -193 -209 -193 -193 -177 477 -209 -209 -209 -209 -209 -209 -209 -209 -209 185 182 182 182 181 180 -193 180 -209 -193 -177 -193 536 546 -209 548 -209 -177 -209 -209 -209 -193 -193 -193 185 187 188 186 185 185 185 182 183 183 182 182 183 184 -209 -209 534 -209 -209 -209 -209 -209 -209 -209 -209 -209 -209 179 -209 -209 -209 -193 -193 178 182 -193 185 183 183 184 185 185 186 -193 182 183 181 181 184 188 185 185 185 185 184 185 186 186 183 184 184 184 183 185 182 181 182 183 183 182 182 182 179 182 183 182 182 180 181 180 -193 -193 -193 181 180 -193 -193 181 181 180 179 179 182 182 180 181 180 181 181 181 181 180 179 181 180 181 180 183 182 182 183 182 183 180 180 180 179 178 178 176 176 177 178 180 180 180 181 181 181 181 181 180 180 181 179 179 181 181 181 182 182 182 181 182 183 181 181 182 182 186 184 184 182 181 182 182 183 182 182 183 182 182 182 182 182 181 182 182 181 182 182 184 184 185 184 184 185 186 186 186 187 186 186 190 190 189 189 190 0 0 0 0 0
    0 0 0 0 0 0 0 0 0 0 0 0 0 0 0 0 0 0 0 0 0 0 0 0 0 0 0 0 0 0 0 0 0 0 0 0 0 0 0 0 0 0 0 0 0 0 0 0 0 0 0 0 0 0 0 0 0 0 0 0 0 0 0 0 0 0 0 0 0 249 251 -209 -193 -209 173 -209 -209 -209 -209 -209 -209 -209 -209 -209 -193 -209 -209 -193 -193 -209 -193 -193 481 -193 -209 -209 -209 -209 -209 -193 237 -209 -209 -209 -209 -209 -209 -209 -209 -209 -209 -209 -209 -209 -193 -209 -193 -209 543 -209 -209 -209 -209 -209 513 516 513 -193 185 186 185 184 184 184 181 183 182 182 182 183 -193 -209 521 530 -193 -209 -193 -209 -209 -177 -193 -209 -209 -209 -209 -209 -209 -209 -193 179 177 181 182 185 183 183 184 186 186 186 -209 181 181 178 177 182 186 183 184 184 184 184 185 186 185 181 183 183 -193 183 184 181 181 182 183 183 182 183 181 180 182 183 -193 182 180 180 -193 -193 -193 -193 -193 179 -193 -193 180 180 179 178 178 181 182 180 181 180 181 181 181 181 179 179 181 180 181 180 183 182 183 183 183 184 181 180 181 179 178 178 176 176 176 178 180 180 181 181 181 181 181 181 180 179 180 179 178 180 181 180 181 181 182 181 182 183 181 181 183 183 186 184 184 182 181 182 182 183 182 182 183 182 182 181 182 182 181 182 183 181 182 183 185 185 185 185 185 185 187 187 188 188 187 188 191 191 191 190 191 0 0 0 0 0
    0 0 0 0 0 0 0 0 0 0 0 0 0 0 0 0 0 0 0 0 0 0 0 0 0 0 0 0 0 0 0 0 0 0 0 0 0 0 0 0 0 0 0 0 0 0 0 0 0 0 0 0 0 0 0 0 0 0 0 0 0 0 0 0 0 0 0 0 0 247 247 245 243 246 -193 241 239 238 237 -209 -209 -209 -209 -209 -209 -209 -209 -193 -209 -193 -209 -193 -209 -209 311 309 307 -209 -209 -193 -193 -209 -209 -209 -209 -209 353 -209 -209 -209 -209 -209 439 437 437 439 440 442 -193 -209 -209 -193 -209 -209 -209 -209 -209 -193 184 185 185 184 184 185 181 183 181 181 182 -209 -209 -209 -193 -193 -209 -193 0 -209 -193 -193 0 -193 -209 -209 -209 -193 -193 -209 -209 -209 -193 -193 -193 184 -193 -193 -209 -209 -209 93 -209 -209 -209 -193 170 176 180 179 181 181 182 182 184 185 -193 178 178 -193 -177 -209 -193 178 179 181 182 183 183 183 181 179 181 -193 -209 181 179 179 -193 -193 -209 -209 -209 177 -209 -193 178 179 177 176 176 181 182 181 182 181 181 180 181 180 179 179 181 180 182 182 184 183 185 185 185 185 182 182 181 180 179 178 177 178 178 180 181 181 181 182 181 182 181 181 180 180 180 178 177 180 -193 180 181 181 181 181 182 183 181 181 182 181 186 183 184 181 180 182 181 183 182 182 183 182 181 180 181 182 181 182 183 181 182 183 185 186 186 186 186 186 188 188 189 189 188 189 191 191 191 189 191 0 0 0 0 0
    0 0 0 0 0 0 0 0 0 0 0 0 0 0 0 0 0 0 0 0 0 0 0 0 0 0 0 0 0 0 0 0 0 0 0 0 0 0 0 0 0 0 0 0 0 0 0 0 0 0 0 0 0 0 0 0 0 0 0 0 0 0 0 0 0 0 0 0 0 244 245 242 240 241 237 238 237 237 237 238 -209 -209 -209 251 249 251 253 256 255 256 -209 -209 -209 310 309 309 308 -209 -193 -193 -193 -209 -193 -193 -209 -209 359 362 -209 -209 -209 -209 439 438 439 440 441 442 -209 -209 -209 -209 -209 -209 -209 -177 -193 -209 -209 -209 -209 -209 -209 -209 -209 -209 -209 -209 -209 -209 -209 -209 -209 -209 -209 0 -193 -209 -209 -209 -209 -209 -209 -209 535 -209 -193 -209 -209 -209 -193 595 -193 -209 -209 -209 -209 91 93 94 96 98 -193 -209 -209 -177 -209 174 178 177 180 181 183 -209 -209 -209 -209 0 -193 -209 -209 -209 -193 177 180 182 -193 -193 -193 -193 -193 -209 -209 -193 -193 -193 -193 -193 -193 -209 -209 -209 -209 -209 -209 -209 -209 173 174 181 182 181 182 181 181 181 181 180 180 179 181 180 182 184 186 185 186 186 186 186 -209 -209 -209 181 179 179 178 179 180 180 181 182 183 182 182 182 -193 181 180 180 179 177 177 180 -193 179 180 180 181 181 -193 -193 -193 180 182 181 -193 183 182 180 179 181 181 182 181 182 182 181 180 -193 179 181 180 182 183 181 182 183 185 186 186 186 186 186 189 189 191 190 190 191 193 193 193 190 192 0 0 0 0 0
    0 0 0 0 0 0 0 0 0 0 0 0 0 0 0 0 0 0 0 0 0 0 0 0 0 0 0 0 0 0 0 0 0 0 0 0 0 0 0 0 0 0 0 0 0 0 0 0 0 0 0 0 0 0 0 0 0 0 0 0 0 0 0 0 0 0 0 0 0 244 244 241 240 240 236 237 235 236 237 237 241 -193 245 247 246 248 251 254 254 253 255 -209 -209 -209 -209 -209 245 244 244 243 244 244 245 247 -193 -209 -177 -193 -209 -209 -209 -209 -193 -177 -193 -209 -209 -209 -209 -209 -209 -209 -209 -209 -193 -209 -209 -209 -209 -209 -209 -209 -193 -193 -209 239 243 -177 -177 -209 -209 -209 -209 -209 -209 -209 -193 -209 -209 -209 -209 539 -193 -193 534 536 536 -193 -209 -193 593 595 595 -209 -209 -193 93 93 96 96 97 97 100 103 -209 -209 -209 -193 176 175 178 -193 -209 -209 -209 -209 -209 -209 -209 -209 -209 -209 -209 -209 -209 -209 -209 -209 -193 -193 -193 -209 -209 -209 -209 -209 -209 -209 -209 -209 -209 -209 -177 -209 -209 -209 -209 -209 172 182 182 181 183 181 181 181 182 181 180 180 182 182 183 185 186 -193 -193 -193 -209 -209 -209 -209 630 -193 -209 171 170 174 175 173 173 179 182 180 -193 -193 -177 -193 -193 -193 -193 -209 -193 -193 -193 179 180 -193 -193 -193 -193 -193 -193 -209 184 183 -209 -209 180 178 176 180 180 183 181 181 -193 -193 -209 -193 -193 -209 -209 -209 -209 -209 184 184 186 186 185 186 185 186 189 190 192 191 191 193 195 195 195 191 193 0 0 0 0 0
    0 0 0 0 0 0 0 0 0 0 0 0 0 0 0 0 0 0 0 0 0 0 0 0 0 0 0 0 0 0 0 0 0 0 0 0 0 0 0 0 0 0 0 0 0 0 0 0 0 0 0 0 0 0 0 0 0 0 0 0 0 0 0 0 0 0 0 0 0 244 244 242 242 241 236 238 236 237 237 238 242 -193 246 247 247 248 250 252 252 251 252 -209 -209 -209 -209 246 245 245 244 244 245 246 246 246 247 248 -193 -209 -209 -209 -209 -209 -193 -193 -193 -193 232 -193 231 -209 -209 -209 -209 -209 -209 -209 -209 -209 -193 -193 241 241 241 243 242 242 243 246 247 247 248 247 -193 -193 245 -209 -209 -209 -209 -209 0 -193 -193 -193 0 0 -193 -193 -209 -209 -193 -209 -209 -209 -209 -193 -193 98 99 -193 33 36 -193 -193 -209 -209 -209 -209 -193 -193 -209 -209 -209 -209 -193 -209 -209 -209 -209 -209 -209 236 238 -193 -209 -193 -193 241 -209 48 -193 -209 -193 -193 -209 243 -209 -209 -209 -209 -209 -209 63 71 -193 -209 -209 -209 -209 -209 -209 181 183 182 181 181 182 181 181 181 183 182 -209 -209 -193 241 -193 243 -209 629 -193 631 629 629 620 -209 -209 -209 -209 -209 -193 -193 237 240 -193 242 246 -193 -193 -209 -209 -209 -209 -209 -209 179 -193 -209 -209 -209 -193 -193 -193 -209 -209 -209 -209 -209 -209 -209 175 -193 -193 -193 -209 -209 -193 -193 -209 254 -209 -209 -209 -209 -209 -209 -209 184 185 186 184 185 184 185 189 191 194 193 193 196 197 197 197 193 194 0 0 0 0 0
    0 0 0 0 0 0 0 0 0 0 0 0 0 0 0 0 0 0 0 0 0 0 0 0 0 0 0 0 0 0 0 0 0 0 0 0 0 0 0 0 0 0 0 0 0 0 0 0 0 0 0 0 0 0 0 0 0 0 0 0 0 0 0 0 0 0 0 0 0 244 245 243 243 242 236 239 237 238 238 240 244 244 247 248 248 249 251 252 252 251 251 -209 -193 -193 247 247 245 245 245 244 246 246 246 246 247 248 -193 -209 -209 247 247 -193 242 -193 233 233 232 233 233 234 -209 -209 -193 -209 -193 -209 248 248 244 243 242 242 241 243 243 243 242 246 246 246 248 247 -193 246 244 245 -193 -209 -209 -209 -193 0 0 0 0 0 0 -193 243 239 243 247 246 246 246 244 -193 -193 -193 -193 -193 34 36 -209 247 248 247 -209 -193 246 245 246 -193 -209 -209 -209 -193 -209 -209 -193 -193 237 238 238 239 239 239 241 242 241 243 245 243 242 244 241 -193 241 -209 -209 -209 -209 62 69 -209 -209 -193 -193 233 232 -193 -209 -209 -193 181 182 183 -193 -193 -209 -177 245 244 -193 241 -193 -193 242 -193 -209 -209 -209 629 -209 615 -209 -209 237 -193 237 237 237 237 239 240 240 245 245 -193 -193 256 -209 -209 -209 -209 179 -209 -209 -209 -209 -209 -209 -209 -209 -209 -209 -209 -209 -209 -209 -193 -193 -193 -193 -193 -209 252 252 -193 254 -209 -209 -209 -209 -209 -209 -209 184 185 185 184 185 184 184 191 194 196 195 195 198 198 198 198 194 193 0 0 0 0 0
    0 0 0 0 0 0 0 0 0 0 0 0 0 0 0 0 0 0 0 0 0 0 0 0 0 0 0 0 0 0 0 0 0 0 0 0 0 0 0 0 0 0 0 0 0 0 0 0 0 0 0 0 0 0 0 0 0 0 0 0 0 0 0 0 0 0 0 0 0 244 244 243 244 243 238 240 238 238 239 240 243 242 245 247 247 248 249 251 250 250 251 -209 -193 -193 247 248 246 246 245 245 246 246 246 246 247 248 247 248 -193 247 247 246 244 -193 235 236 234 235 234 236 -193 -193 242 -209 -193 -193 248 248 244 243 243 242 241 243 242 242 239 246 245 245 247 246 -193 246 243 244 245 -193 -209 -209 -193 -193 -193 0 0 0 0 -193 244 239 243 246 244 245 245 244 246 247 248 -177 -177 -193 -193 248 246 247 246 247 247 246 245 245 245 246 242 243 -193 241 240 239 238 238 239 239 240 239 239 241 241 240 242 243 243 241 243 240 -193 240 243 243 240 237 241 238 239 239 238 237 236 235 236 235 236 237 -193 243 243 242 244 244 245 244 242 242 240 241 240 240 241 239 240 -193 -193 -209 240 242 244 238 239 239 238 238 238 239 239 238 243 242 245 248 251 -209 -177 -193 -209 -209 -209 -209 -209 -209 -209 -209 -209 -209 -209 -209 235 -209 -193 -209 -193 -193 241 246 248 -193 252 253 -193 254 -209 -209 -209 -193 -209 -209 -209 185 186 187 184 186 184 184 194 -193 -193 -209 -193 199 199 199 -209 -209 -209 0 0 0 0 0
    0 0 0 0 0 0 0 0 0 0 0 0 0 0 0 0 0 0 0 0 0 0 0 0 0 0 0 0 0 0 0 0 0 0 0 0 0 0 0 0 0 0 0 0 0 0 0 0 0 0 0 0 0 0 0 0 0 0 0 0 0 0 0 0 0 0 0 0 0 245 245 243 244 244 240 242 240 239 240 240 243 242 244 245 246 247 248 250 249 250 250 -193 -193 -209 247 248 246 246 245 245 246 246 246 246 247 248 246 248 248 247 247 -193 -193 238 236 239 236 236 236 237 238 240 243 -209 -193 248 248 249 244 243 243 242 241 242 242 242 239 245 245 245 246 245 244 245 243 244 244 245 -209 -193 244 -193 -193 -177 0 0 -193 -193 243 240 242 245 244 244 245 243 245 246 247 247 -177 -193 247 247 246 247 246 246 246 245 244 245 245 246 242 244 240 243 241 240 239 239 239 239 240 239 239 241 241 240 242 242 242 240 242 239 239 239 240 240 239 237 240 238 239 239 239 238 236 236 237 236 237 237 240 242 243 242 244 244 244 242 242 241 240 240 239 240 240 238 240 240 240 243 239 243 244 239 239 239 238 239 237 238 238 237 241 239 239 245 246 -193 -193 -209 -209 -209 -193 -209 -209 -209 -209 -193 -193 -209 -193 238 236 234 235 237 237 239 240 244 247 249 251 253 -193 -209 -209 -209 -209 -209 -209 -209 -209 -209 185 186 183 -209 -209 -209 -193 -209 -209 -209 -209 -209 -209 -209 -209 -209 -209 0 0 0 0 0
    0 0 0 0 0 0 0 0 0 0 0 0 0 0 0 0 0 0 0 0 0 0 0 0 0 0 0 0 0 0 0 0 0 0 0 0 0 0 0 0 0 0 0 0 0 0 0 0 0 0 0 0 0 0 0 0 0 0 0 0 0 0 0 0 0 0 0 0 0 245 245 244 245 244 241 243 242 241 241 242 243 243 244 245 246 247 248 250 248 249 249 -193 -193 -209 247 248 246 246 245 245 246 246 246 246 246 247 246 248 248 246 246 245 245 241 237 239 237 237 237 239 240 242 243 -193 246 249 248 248 244 243 243 242 241 242 242 242 238 244 244 244 244 244 243 243 243 243 244 244 243 243 244 244 243 -193 -193 -193 244 246 244 242 242 244 243 243 244 243 245 246 246 247 247 248 247 247 245 246 245 246 246 244 244 245 244 246 243 244 241 244 242 240 239 239 239 239 240 239 239 240 240 240 241 242 242 239 242 239 239 238 239 239 238 237 239 237 239 239 239 238 236 236 237 237 238 238 242 243 244 243 244 244 244 242 242 240 240 240 239 239 239 238 239 240 240 243 239 242 244 239 239 239 238 239 237 238 238 236 239 238 238 243 244 245 246 -193 246 247 248 249 247 247 -193 -193 -193 -193 243 241 238 235 235 236 237 239 239 240 245 248 250 252 247 249 -209 -209 -209 -209 -209 -209 -209 -209 -209 -193 -209 -209 -193 -209 -209 -209 -193 236 -209 -193 -193 -209 232 -193 -209 0 0 0 0 0
    0 0 0 0 0 0 0 0 0 0 0 0 0 0 0 0 0 0 0 0 0 0 0 0 0 0 0 0 0 0 0 0 0 0 0 0 0 0 0 0 0 0 0 0 0 0 0 0 0 0 0 0 0 0 0 0 0 0 0 0 0 0 0 0 0 0 0 0 0 245 245 245 246 245 242 244 243 242 242 243 243 244 244 245 246 247 247 249 248 248 249 248 -193 248 247 248 247 247 246 246 246 246 246 246 246 247 247 248 248 246 246 246 246 244 239 242 239 239 240 241 241 243 243 248 246 248 248 248 243 243 243 242 242 242 243 242 239 244 244 243 243 243 243 243 243 243 243 243 243 243 243 244 243 244 243 241 244 245 244 242 241 243 242 243 244 243 244 245 246 247 247 248 247 247 245 246 245 245 245 243 243 244 243 245 242 245 241 245 242 241 240 240 239 239 240 239 239 240 240 240 241 242 242 240 242 239 239 238 239 239 238 237 238 237 238 239 239 239 236 237 238 238 239 239 242 243 244 243 245 244 245 243 242 240 239 240 238 239 239 238 239 240 240 242 239 242 243 239 239 240 238 239 238 238 238 236 239 239 237 243 244 245 246 248 247 248 248 248 246 246 246 245 244 244 243 240 237 235 235 235 236 238 237 236 242 247 249 251 247 249 247 245 244 243 236 235 236 238 236 238 239 240 240 240 238 236 236 238 237 237 235 234 235 236 235 0 0 0 0 0
    0 0 0 0 0 0 0 0 0 0 0 0 0 0 0 0 0 0 0 0 0 0 0 0 0 0 0 0 0 0 0 0 0 0 0 0 0 0 0 0 0 0 0 0 0 0 0 0 0 0 0 0 0 0 0 0 0 0 0 0 0 0 0 0 0 0 0 0 0 245 245 245 246 244 242 244 243 243 242 244 244 245 245 245 246 248 247 248 248 248 248 248 -193 248 248 249 247 247 246 246 247 246 246 246 246 247 247 249 249 247 247 248 248 247 242 244 241 242 241 242 242 243 244 248 246 248 247 247 243 242 243 242 241 242 242 241 238 244 244 243 243 243 243 243 243 243 243 243 243 243 243 243 243 243 242 240 244 244 243 242 241 242 242 243 244 243 244 245 245 247 247 247 246 245 244 245 244 244 243 242 243 243 243 244 242 244 241 245 242 241 240 240 239 239 240 239 239 240 240 240 241 242 243 240 243 239 239 239 239 239 238 237 238 236 238 239 239 238 236 237 238 239 241 241 243 243 244 244 245 244 245 242 240 239 239 240 238 239 238 237 238 240 240 241 239 241 243 240 239 240 238 239 238 238 238 237 238 239 237 242 243 245 246 247 246 247 247 248 246 246 245 244 244 243 242 240 238 236 235 235 236 237 236 235 238 245 248 250 246 248 246 245 243 243 237 236 236 237 236 238 238 239 239 240 239 237 237 238 237 238 236 235 235 236 236 0 0 0 0 0
    0 0 0 0 0 0 0 0 0 0 0 0 0 0 0 0 0 0 0 0 0 0 0 0 0 0 0 0 0 0 0 0 0 0 0 0 0 0 0 0 0 0 0 0 0 0 0 0 0 0 0 0 0 0 0 0 0 0 0 0 0 0 0 0 0 0 0 0 0 246 245 245 246 245 243 245 243 243 243 245 246 246 246 246 247 248 247 247 247 247 248 248 248 248 248 249 247 247 246 247 247 247 247 247 247 248 248 249 249 248 248 248 248 248 243 245 242 243 243 243 243 244 244 248 246 247 247 247 242 242 242 242 241 242 242 241 238 244 244 244 244 244 243 243 243 243 243 243 242 242 242 242 242 243 242 241 244 244 242 242 240 241 241 242 243 242 243 243 244 245 245 245 244 243 241 243 242 242 242 241 242 243 242 244 242 244 241 245 243 240 240 240 239 239 239 239 238 239 240 239 241 242 242 239 243 239 238 239 239 239 238 237 238 236 238 239 238 238 236 238 239 240 242 242 244 244 244 244 245 243 244 241 240 239 239 239 237 238 238 237 238 239 239 240 238 241 243 240 239 240 238 239 238 238 238 237 238 239 237 241 242 244 245 246 246 247 247 247 245 246 244 243 243 243 242 241 238 237 235 237 236 236 236 234 237 242 246 249 245 247 245 244 243 242 238 236 236 236 236 237 237 239 238 239 239 238 238 239 238 238 237 236 237 237 237 0 0 0 0 0
    0 0 0 0 0 0 0 0 0 0 0 0 0 0 0 0 0 0 0 0 0 0 0 0 0 0 0 0 0 0 0 0 0 0 0 0 0 0 0 0 0 0 0 0 0 0 0 0 0 0 0 0 0 0 0 0 0 0 0 0 0 0 0 0 0 0 0 0 0 246 245 245 246 245 244 245 244 244 245 246 246 247 246 246 247 248 247 247 247 247 248 248 -193 248 248 249 247 248 247 247 247 247 247 247 247 248 248 249 249 248 248 249 248 249 244 245 243 243 243 243 243 -193 243 247 244 246 246 247 242 242 242 242 241 242 242 241 238 244 244 243 243 244 243 243 243 243 243 243 242 242 241 242 241 242 242 241 243 243 242 242 240 241 240 241 242 241 242 242 242 244 243 244 243 242 241 243 241 242 241 241 242 242 242 243 241 245 242 245 244 240 241 240 239 239 239 238 238 239 240 239 240 242 242 239 242 239 237 238 238 239 238 237 238 236 238 240 240 239 237 240 241 242 243 244 245 245 245 245 245 243 244 241 240 238 239 239 237 238 237 236 237 238 238 239 237 240 242 240 239 240 238 239 238 238 238 237 237 238 237 240 241 243 244 244 244 247 246 247 245 245 244 242 242 241 240 240 238 237 235 236 236 235 234 232 234 236 240 246 242 246 243 243 241 240 237 236 235 236 236 238 237 238 238 239 240 239 239 240 238 239 238 237 238 237 239 0 0 0 0 0
    0 0 0 0 0 0 0 0 0 0 0 0 0 0 0 0 0 0 0 0 0 0 0 0 0 0 0 0 0 0 0 0 0 0 0 0 0 0 0 0 0 0 0 0 0 0 0 0 0 0 0 0 0 0 0 0 0 0 0 0 0 0 0 0 0 0 0 0 0 245 245 245 246 244 244 245 244 243 244 246 245 246 245 245 246 247 246 246 247 247 247 248 248 248 247 249 247 247 246 246 246 246 246 247 246 248 247 249 249 248 249 249 248 248 245 246 243 243 243 242 242 242 242 245 242 244 245 246 241 241 242 241 240 242 241 240 237 242 243 242 242 243 242 243 243 242 242 242 242 242 240 241 240 240 242 241 243 243 242 242 240 241 240 241 242 241 241 241 241 243 242 243 242 242 241 242 240 241 241 240 241 241 241 242 241 245 242 245 244 241 242 240 239 239 239 239 239 239 240 239 241 242 242 240 242 239 237 238 238 239 238 237 238 237 239 240 241 240 239 241 242 243 244 244 245 245 245 245 245 243 244 241 241 239 240 240 238 238 238 236 237 237 238 238 237 239 241 240 239 240 238 239 238 239 238 237 237 238 237 239 240 242 243 243 244 246 245 246 245 244 243 241 241 240 239 239 237 237 235 235 235 234 233 231 232 232 234 243 239 244 241 243 240 240 238 237 236 237 236 238 237 238 238 239 241 240 241 243 240 241 240 239 240 239 240 0 0 0 0 0
    0 0 0 0 0 0 0 0 0 0 0 0 0 0 0 0 0 0 0 0 0 0 0 0 0 0 0 0 0 0 0 0 0 0 0 0 0 0 0 0 0 0 0 0 0 0 0 0 0 0 0 0 0 0 0 0 0 0 0 0 0 0 0 0 0 0 0 0 0 246 245 245 246 244 244 245 244 243 243 245 244 245 244 244 244 246 246 246 247 247 247 248 248 248 -193 -193 247 247 246 246 245 245 246 246 245 247 247 249 249 249 249 249 248 248 245 245 243 243 242 241 241 241 241 244 240 243 244 245 241 241 241 241 240 242 241 239 237 242 242 241 241 243 241 242 242 242 242 242 242 242 240 240 240 239 242 241 243 243 242 243 241 242 241 241 242 241 241 241 241 243 242 243 243 243 241 243 240 241 240 240 240 241 240 242 240 245 242 245 244 242 242 241 240 239 239 239 239 239 240 239 241 242 242 240 242 239 238 238 239 239 238 238 238 237 239 240 240 240 239 241 241 242 243 243 244 244 245 245 245 243 244 241 241 239 239 239 238 238 238 236 237 237 238 238 237 239 241 240 239 240 238 239 238 239 238 237 237 239 237 239 240 242 243 243 243 246 245 246 245 244 243 241 241 240 239 239 237 237 235 235 235 233 233 232 233 233 234 240 238 243 241 244 242 241 239 238 237 238 237 238 237 238 239 239 241 240 242 244 242 243 241 240 241 241 241 0 0 0 0 0
    0 0 0 0 0 0 0 0 0 0 0 0 0 0 0 0 0 0 0 0 0 0 0 0 0 0 0 0 0 0 0 0 0 0 0 0 0 0 0 0 0 0 0 0 0 0 0 0 0 0 0 0 0 0 0 0 0 0 0 0 0 0 0 0 0 0 0 0 0 246 245 246 246 244 245 245 245 243 244 246 245 246 245 245 245 246 246 246 247 246 247 248 248 248 -193 -193 247 246 246 245 245 245 245 246 245 247 246 249 249 248 249 249 248 247 245 245 243 243 242 241 241 241 241 243 240 242 244 244 241 241 241 240 240 242 241 239 238 242 243 242 242 243 242 243 243 242 243 243 243 243 241 241 241 240 243 242 243 243 242 243 241 242 241 241 242 241 242 242 241 243 242 243 243 244 243 243 241 242 240 240 241 241 240 241 240 244 242 246 244 242 242 241 240 239 239 239 238 239 240 239 241 242 242 241 243 239 238 238 239 239 239 238 238 237 239 239 240 239 238 240 241 241 243 243 243 243 243 244 243 240 243 239 240 238 238 238 237 237 237 236 237 237 238 237 237 238 241 240 239 240 238 239 238 239 239 237 238 239 237 239 241 242 243 243 243 245 243 245 244 243 242 240 241 240 239 239 237 237 236 236 236 234 234 233 234 233 233 236 236 242 241 245 242 242 240 239 238 239 237 239 237 238 239 239 241 240 241 244 242 243 241 240 241 241 242 0 0 0 0 0
    0 0 0 0 0 0 0 0 0 0 0 0 0 0 0 0 0 0 0 0 0 0 0 0 0 0 0 0 0 0 0 0 0 0 0 0 0 0 0 0 0 0 0 0 0 0 0 0 0 0 0 0 0 0 0 0 0 0 0 0 0 0 0 0 0 0 0 0 0 246 245 246 246 244 246 246 245 244 245 246 245 246 246 245 245 246 246 245 247 246 246 247 247 247 246 247 247 246 246 245 245 245 245 246 245 246 246 248 248 248 248 248 247 246 244 245 242 243 242 242 242 241 241 243 240 242 244 244 241 240 241 240 240 242 241 239 239 243 243 243 243 244 243 244 244 243 244 244 244 244 243 242 242 241 243 242 243 242 242 242 241 242 242 241 242 241 242 242 242 244 242 243 244 244 243 244 241 242 240 240 241 241 240 241 241 244 242 245 244 242 242 240 239 239 239 239 239 239 240 239 242 243 242 242 243 239 238 239 240 239 239 238 238 237 239 239 239 239 239 240 241 240 242 242 242 242 241 242 241 239 242 238 239 238 238 238 237 237 237 236 236 237 237 237 237 238 241 240 239 240 239 239 239 239 239 238 238 240 238 240 241 243 243 243 243 244 243 244 243 242 242 239 240 239 238 238 237 238 236 237 236 234 234 233 234 233 233 234 234 238 239 245 242 242 240 240 239 239 238 239 237 238 239 238 241 240 241 244 242 243 241 240 242 241 242 0 0 0 0 0
    0 0 0 0 0 0 0 0 0 0 0 0 0 0 0 0 0 0 0 0 0 0 0 0 0 0 0 0 0 0 0 0 0 0 0 0 0 0 0 0 0 0 0 0 0 0 0 0 0 0 0 0 0 0 0 0 0 0 0 0 0 0 0 0 0 0 0 0 0 246 245 246 246 244 246 246 245 244 244 246 245 246 245 245 245 246 246 245 246 246 246 246 247 247 246 247 246 245 246 244 245 245 245 245 244 246 245 248 248 247 248 247 247 245 244 245 242 242 242 242 241 241 242 243 240 242 244 243 240 240 241 240 240 242 241 239 240 244 244 245 245 245 244 245 245 245 245 245 245 245 243 243 243 242 243 242 242 241 241 242 241 241 242 241 242 241 242 242 242 243 242 242 243 243 243 244 241 243 241 241 242 241 241 242 241 244 241 245 243 242 242 240 239 239 238 239 239 239 240 240 242 243 242 242 243 239 239 239 241 239 240 239 239 237 239 239 239 239 239 239 240 240 241 242 241 241 240 241 240 238 241 239 239 239 238 238 237 237 237 236 236 236 237 236 237 238 241 240 240 240 239 239 239 239 239 238 238 240 238 240 241 243 243 243 242 244 242 243 242 241 240 238 239 238 238 238 237 238 237 238 237 235 234 234 234 233 233 233 233 235 237 244 241 242 241 240 240 240 239 240 237 239 239 238 241 240 242 244 243 243 240 239 242 241 242 0 0 0 0 0
    0 0 0 0 0 0 0 0 0 0 0 0 0 0 0 0 0 0 0 0 0 0 0 0 0 0 0 0 0 0 0 0 0 0 0 0 0 0 0 0 0 0 0 0 0 0 0 0 0 0 0 0 0 0 0 0 0 0 0 0 0 0 0 0 0 0 0 0 0 245 245 245 245 244 246 246 245 244 245 246 246 246 246 245 245 246 246 246 247 246 246 246 246 247 245 246 245 244 245 244 244 244 244 245 244 246 244 247 247 247 247 247 246 244 244 244 242 242 242 242 242 241 242 243 240 242 244 243 240 240 240 239 240 242 241 239 241 245 245 246 246 246 245 246 246 245 245 246 245 245 244 243 244 243 243 242 242 241 241 242 241 241 242 241 242 241 242 242 243 243 241 241 243 243 243 244 242 243 242 242 242 241 241 241 240 243 240 245 243 242 242 240 240 240 239 239 239 240 241 240 242 242 242 242 243 238 239 239 241 240 240 239 239 238 239 239 239 238 238 239 240 240 241 242 240 241 239 240 239 239 240 239 239 239 239 238 238 237 237 236 236 236 237 236 237 237 241 240 240 240 239 239 239 239 239 238 238 240 239 240 241 243 243 243 242 243 241 242 242 240 239 238 239 238 238 238 238 239 238 239 238 236 235 234 235 233 233 232 232 232 235 244 241 242 241 241 241 241 240 240 238 239 239 238 241 240 242 243 242 242 240 239 241 241 241 0 0 0 0 0
    0 0 0 0 0 0 0 0 0 0 0 0 0 0 0 0 0 0 0 0 0 0 0 0 0 0 0 0 0 0 0 0 0 0 0 0 0 0 0 0 0 0 0 0 0 0 0 0 0 0 0 0 0 0 0 0 0 0 0 0 0 0 0 0 0 0 0 0 0 245 244 244 245 244 246 246 246 245 246 247 246 246 246 245 245 246 247 246 247 245 246 246 246 246 244 245 244 243 244 243 243 243 243 245 243 245 243 246 247 246 246 245 244 243 242 243 241 242 241 242 242 241 243 244 241 243 245 243 241 241 241 240 240 242 241 240 242 246 246 246 246 246 245 246 245 245 244 245 245 245 244 244 244 243 244 243 242 241 241 241 240 241 242 240 241 240 242 241 243 243 241 241 243 243 243 244 242 243 242 242 242 241 241 241 240 243 240 245 243 242 242 241 240 240 239 240 239 240 241 240 241 242 241 241 242 238 238 239 241 239 240 239 240 238 239 239 239 238 239 239 240 239 240 242 240 240 239 239 239 239 240 239 239 240 239 238 238 238 237 236 236 236 237 236 238 237 241 240 240 240 239 239 239 238 240 238 239 240 239 241 242 244 244 243 242 243 240 241 241 239 238 237 238 237 238 238 238 239 239 239 238 236 236 235 235 234 234 233 232 231 235 244 240 242 241 241 241 240 240 240 238 239 239 238 240 241 241 243 242 242 240 238 241 240 239 0 0 0 0 0
    0 0 0 0 0 0 0 0 0 0 0 0 0 0 0 0 0 0 0 0 0 0 0 0 0 0 0 0 0 0 0 0 0 0 0 0 0 0 0 0 0 0 0 0 0 0 0 0 0 0 0 0 0 0 0 0 0 0 0 0 0 0 0 0 0 0 0 0 0 244 244 244 244 244 246 247 247 246 247 247 246 247 246 245 246 246 246 246 247 245 246 246 246 246 244 245 244 243 243 243 242 242 242 244 242 244 242 245 245 245 245 244 243 241 241 242 240 241 240 242 241 241 243 244 242 243 246 244 242 242 241 240 241 243 242 240 242 246 245 246 245 245 244 246 245 245 244 245 245 245 245 244 245 243 244 243 242 241 242 242 241 241 243 239 241 241 242 241 243 243 241 241 243 243 243 244 242 243 242 242 242 241 241 241 240 243 239 245 242 242 242 241 241 241 240 241 239 241 241 240 241 241 240 240 241 238 238 239 241 239 240 239 240 238 239 239 238 238 239 239 240 239 239 241 240 240 239 239 239 239 240 240 239 240 240 239 238 238 237 236 236 236 237 236 237 237 241 239 240 240 239 239 239 239 240 238 240 240 239 240 241 243 243 242 241 241 239 240 240 238 238 238 238 238 238 238 238 239 239 239 238 237 236 236 236 235 235 233 233 233 235 244 240 242 241 241 240 240 239 240 238 238 238 237 239 240 241 242 241 241 240 237 240 238 238 0 0 0 0 0
    0 0 0 0 0 0 0 0 0 0 0 0 0 0 0 0 0 0 0 0 0 0 0 0 0 0 0 0 0 0 0 0 0 0 0 0 0 0 0 0 0 0 0 0 0 0 0 0 0 0 0 0 0 0 0 0 0 0 0 0 0 0 0 0 0 0 0 0 0 244 244 243 243 243 246 246 247 246 247 247 247 247 246 246 246 246 246 245 247 245 245 245 245 246 244 245 244 243 243 243 242 242 242 244 242 243 241 244 243 243 243 243 242 240 240 242 241 242 242 243 242 242 245 245 243 244 246 244 242 242 242 241 241 243 242 240 243 246 246 246 245 245 244 245 245 245 244 -193 246 246 246 245 246 244 244 243 242 242 243 243 241 241 244 240 240 242 242 -193 -193 243 241 241 243 244 243 244 242 243 242 242 242 241 241 241 240 243 239 245 242 242 242 241 241 241 240 241 239 241 240 239 240 240 240 240 241 238 239 240 241 239 240 239 239 237 238 238 237 237 239 238 239 238 238 240 239 239 239 239 239 239 240 240 239 240 239 238 238 238 238 237 237 237 238 237 238 237 240 238 239 240 239 239 239 238 239 238 240 239 237 239 239 241 242 240 238 238 238 239 239 239 238 238 239 238 239 238 238 239 239 239 238 237 236 236 236 236 236 234 234 233 235 243 240 242 241 240 240 240 239 240 237 237 237 236 238 239 239 240 240 239 239 237 239 238 236 0 0 0 0 0
    0 0 0 0 0 0 0 0 0 0 0 0 0 0 0 0 0 0 0 0 0 0 0 0 0 0 0 0 0 0 0 0 0 0 0 0 0 0 0 0 0 0 0 0 0 0 0 0 0 0 0 0 0 0 0 0 0 0 0 0 0 0 0 0 0 0 0 0 0 244 243 243 243 244 246 247 247 247 247 248 247 247 247 246 246 246 246 245 246 245 245 245 245 245 244 245 244 242 243 243 242 242 241 243 241 243 240 243 241 241 240 241 241 239 240 243 242 243 243 244 244 244 246 246 244 245 246 244 242 242 242 240 242 243 243 241 244 246 246 247 246 245 245 246 -193 -193 -193 -193 246 247 247 246 246 244 244 243 242 241 242 242 240 238 240 238 237 241 242 -193 -193 243 241 242 244 244 244 244 242 243 242 243 243 242 242 241 240 243 239 245 241 241 241 241 241 241 240 241 239 240 240 239 240 240 240 240 242 238 239 240 241 239 239 238 239 237 238 237 237 236 238 237 239 237 238 240 240 240 239 239 239 239 240 240 239 240 239 238 239 238 238 237 237 237 238 237 239 238 241 238 239 240 238 239 238 238 239 237 239 238 236 239 238 241 241 239 237 238 237 240 238 239 237 238 239 239 239 239 238 239 239 239 239 238 237 236 236 236 235 234 234 233 234 243 240 242 241 239 239 239 239 239 236 236 236 235 237 238 238 239 239 239 238 237 239 237 236 0 0 0 0 0
    0 0 0 0 0 0 0 0 0 0 0 0 0 0 0 0 0 0 0 0 0 0 0 0 0 0 0 0 0 0 0 0 0 0 0 0 0 0 0 0 0 0 0 0 0 0 0 0 0 0 0 0 0 0 0 0 0 0 0 0 0 0 0 0 0 0 0 0 0 243 243 243 243 244 247 247 248 248 248 249 248 248 248 247 247 246 246 245 246 244 245 244 244 245 244 244 244 242 243 242 242 242 241 243 240 242 239 242 240 239 239 240 240 239 240 243 242 244 244 244 244 245 247 246 245 245 247 244 243 242 242 240 241 243 243 241 244 246 246 247 246 246 246 246 -193 -193 -193 -209 -193 246 246 246 246 244 244 242 241 241 241 240 238 237 238 236 237 240 241 -193 -193 243 240 241 243 243 243 244 242 242 242 243 243 241 241 241 240 243 239 244 241 240 241 240 240 240 239 241 238 240 240 239 240 240 239 240 241 238 239 240 241 239 239 238 239 237 237 236 236 236 237 237 238 237 237 241 240 240 240 239 239 239 240 240 239 240 239 239 239 239 239 237 238 237 238 237 239 238 240 238 239 240 239 239 238 238 238 237 239 238 237 239 239 242 242 241 239 240 239 242 239 239 237 238 238 238 238 239 238 239 239 239 239 238 237 237 236 236 235 234 234 232 233 241 239 241 240 238 239 238 238 238 236 236 235 234 237 238 239 239 238 238 238 237 238 237 236 0 0 0 0 0
    0 0 0 0 0 0 0 0 0 0 0 0 0 0 0 0 0 0 0 0 0 0 0 0 0 0 0 0 0 0 0 0 0 0 0 0 0 0 0 0 0 0 0 0 0 0 0 0 0 0 0 0 0 0 0 0 0 0 0 0 0 0 0 0 0 0 0 0 0 243 242 242 243 244 247 247 248 249 249 250 249 249 249 248 248 247 247 245 247 244 244 244 244 244 243 244 243 242 242 242 241 242 241 243 240 242 239 241 239 239 239 240 240 239 240 242 242 244 244 244 245 245 247 246 246 246 247 245 243 242 242 241 242 243 243 241 244 246 246 247 246 246 245 246 246 246 245 -209 -193 246 246 246 246 243 243 242 240 240 239 239 238 236 237 236 237 239 240 -193 241 241 239 239 242 242 242 243 241 241 241 242 242 240 241 240 239 242 238 244 241 240 241 240 240 240 239 241 238 239 240 239 240 239 239 239 241 239 239 240 242 239 239 238 239 237 237 237 236 235 237 237 239 237 237 241 241 241 240 239 240 240 241 240 240 240 240 240 240 239 239 238 238 237 238 237 239 238 240 238 239 239 238 238 238 237 238 237 238 238 237 239 239 243 243 242 241 242 241 243 239 239 236 238 238 238 238 239 238 239 239 239 239 239 238 237 237 236 235 234 234 231 233 239 237 241 239 238 238 238 237 237 236 236 235 234 237 238 239 238 238 237 238 237 238 237 236 0 0 0 0 0
    0 0 0 0 0 0 0 0 0 0 0 0 0 0 0 0 0 0 0 0 0 0 0 0 0 0 0 0 0 0 0 0 0 0 0 0 0 0 0 0 0 0 0 0 0 0 0 0 0 0 0 0 0 0 0 0 0 0 0 0 0 0 0 0 0 0 0 0 0 243 242 243 243 244 246 247 248 249 249 250 250 249 250 249 249 249 248 246 247 244 244 244 244 244 243 244 243 241 242 242 241 241 240 242 240 242 240 242 240 239 240 240 240 239 240 242 243 244 244 244 245 245 247 246 246 246 247 245 243 242 242 241 242 243 243 241 243 246 246 246 245 245 244 245 245 244 243 244 244 245 244 245 245 243 243 241 240 240 240 240 238 237 237 236 237 239 238 238 239 239 237 237 241 241 241 242 241 241 241 242 242 240 241 240 240 242 239 244 241 241 241 241 241 240 240 241 238 239 240 238 239 239 240 240 241 239 240 240 242 240 239 238 238 237 237 237 236 236 237 239 240 239 238 242 241 241 241 240 240 240 241 241 241 241 240 240 240 239 240 238 239 237 239 238 239 239 240 238 239 239 238 238 238 237 237 236 238 237 236 238 238 242 242 240 240 241 241 244 239 239 236 238 237 238 238 239 238 239 240 239 239 239 238 237 236 236 235 233 234 231 232 237 237 240 238 237 237 237 237 237 235 235 235 234 236 238 238 238 237 237 238 237 238 237 236 0 0 0 0 0
    0 0 0 0 0 0 0 0 0 0 0 0 0 0 0 0 0 0 0 0 0 0 0 0 0 0 0 0 0 0 0 0 0 0 0 0 0 0 0 0 0 0 0 0 0 0 0 0 0 0 0 0 0 0 0 0 0 0 0 0 0 0 0 0 0 0 0 0 0 243 242 243 243 244 247 247 248 249 250 251 251 250 250 250 250 249 248 247 247 245 245 245 244 245 244 244 243 241 241 242 241 241 240 242 240 241 240 242 240 240 241 241 241 240 241 242 243 244 245 245 246 246 247 246 246 246 247 245 243 242 242 241 241 243 243 242 242 246 246 246 245 245 243 244 243 242 241 242 242 243 243 244 244 242 243 242 240 241 240 241 239 238 238 237 238 239 238 238 238 238 237 237 241 241 241 242 240 240 241 241 242 240 241 240 240 242 239 244 242 241 242 241 241 240 240 242 238 240 240 239 240 240 241 241 241 240 240 241 242 240 239 238 238 237 237 237 237 236 238 239 240 240 238 242 242 242 241 240 240 240 242 241 241 241 241 240 240 239 240 238 239 237 238 237 238 240 239 238 238 238 238 238 237 237 237 236 237 236 235 237 236 240 239 237 238 239 239 243 238 239 236 238 237 238 237 239 237 239 239 238 239 238 238 237 236 236 235 234 234 232 233 237 237 240 238 237 236 237 237 237 235 235 235 234 235 237 237 237 237 237 237 237 238 237 236 0 0 0 0 0
    0 0 0 0 0 0 0 0 0 0 0 0 0 0 0 0 0 0 0 0 0 0 0 0 0 0 0 0 0 0 0 0 0 0 0 0 0 0 0 0 0 0 0 0 0 0 0 0 0 0 0 0 0 0 0 0 0 0 0 0 0 0 0 0 0 0 0 0 0 244 243 244 243 244 246 246 248 249 249 251 251 250 250 250 250 249 247 247 247 245 245 245 244 245 244 244 243 242 241 242 240 241 240 242 240 242 241 243 240 241 241 241 241 240 241 242 244 244 245 245 246 246 247 246 245 246 246 245 243 242 243 241 242 243 243 242 241 245 245 244 243 243 242 242 242 240 240 241 242 242 242 243 243 242 243 241 239 240 240 240 239 238 238 237 238 239 239 238 238 239 237 237 241 242 242 242 241 241 241 242 242 240 241 240 240 242 240 244 242 241 242 241 241 240 241 242 239 240 240 239 240 242 242 242 241 242 240 242 242 240 239 238 238 237 237 237 237 236 238 239 240 240 238 241 242 242 241 240 240 240 242 241 241 240 241 240 240 239 240 238 240 237 237 237 237 240 239 237 238 238 238 238 237 237 237 236 238 236 235 237 236 240 238 236 238 238 238 241 238 239 235 237 237 237 237 238 237 238 237 237 238 238 237 237 236 237 236 234 235 233 233 236 237 240 238 236 237 237 237 236 236 236 235 234 235 237 237 237 236 236 237 236 238 237 236 0 0 0 0 0
    0 0 0 0 0 0 0 0 0 0 0 0 0 0 0 0 0 0 0 0 0 0 0 0 0 0 0 0 0 0 0 0 0 0 0 0 0 0 0 0 0 0 0 0 0 0 0 0 0 0 0 0 0 0 0 0 0 0 0 0 0 0 0 0 0 0 0 0 0 243 243 243 242 243 245 245 246 247 248 250 250 249 249 249 249 248 247 247 247 245 246 245 245 245 244 245 243 242 241 241 240 241 241 242 241 242 241 243 241 241 241 242 242 241 242 243 244 245 246 246 247 246 247 246 245 246 246 245 243 242 243 241 241 242 242 241 240 243 244 243 241 243 241 242 242 240 241 242 242 243 243 243 243 241 242 241 239 239 240 239 238 238 238 238 239 240 240 239 239 240 237 238 240 241 241 242 241 241 241 242 243 241 242 240 240 242 242 244 242 241 242 241 241 240 240 241 238 239 240 239 240 243 243 243 242 242 241 242 242 240 239 238 237 237 236 236 236 236 237 238 240 240 238 241 242 242 241 240 240 240 242 240 241 241 241 241 240 239 240 237 239 237 237 237 237 241 239 238 238 239 238 239 237 238 236 236 238 236 235 237 236 240 237 236 237 237 238 239 236 238 235 236 236 237 236 238 236 237 237 237 238 237 237 237 236 236 235 234 235 232 232 235 237 240 238 236 237 236 236 236 236 236 235 234 236 236 237 237 236 236 237 236 237 237 236 0 0 0 0 0
    0 0 0 0 0 0 0 0 0 0 0 0 0 0 0 0 0 0 0 0 0 0 0 0 0 0 0 0 0 0 0 0 0 0 0 0 0 0 0 0 0 0 0 0 0 0 0 0 0 0 0 0 0 0 0 0 0 0 0 0 0 0 0 0 0 0 0 0 0 243 242 242 242 243 244 244 245 246 248 249 249 249 248 -193 248 247 246 246 246 0 -256 -1 -19569 245 244 244 242 242 241 241 240 240 240 242 241 243 242 243 242 242 242 243 243 242 242 244 245 245 247 246 247 246 247 246 246 246 245 245 243 241 242 241 240 241 241 240 239 240 243 241 239 242 241 243 243 241 242 243 243 244 244 244 244 241 243 241 239 239 240 239 238 238 238 238 239 240 240 240 240 241 238 238 241 241 241 242 241 241 241 242 243 242 243 241 241 242 242 244 242 241 242 240 240 240 240 241 239 239 241 240 242 244 243 244 242 243 241 242 241 241 239 238 237 237 236 236 236 236 237 238 240 240 238 241 242 242 240 239 239 239 242 240 241 241 241 241 240 239 240 237 239 237 236 238 237 242 239 238 239 239 238 239 237 238 236 236 237 235 235 238 235 241 237 236 237 238 237 238 236 237 234 236 236 237 236 238 237 238 239 237 239 237 237 237 235 235 -193 232 232 229 230 232 234 237 237 236 236 236 236 236 236 236 236 235 236 236 237 237 236 236 237 236 237 237 237 0 0 0 0 0
    0 0 0 0 0 0 0 0 0 0 0 0 0 0 0 0 0 0 0 0 0 0 0 0 0 0 0 0 0 0 0 0 0 0 0 0 0 0 0 0 0 0 0 0 0 0 0 0 0 0 0 0 0 0 0 0 0 0 0 0 0 0 0 0 0 0 0 0 0 243 242 242 242 243 243 244 245 246 248 249 249 249 248 -193 -193 247 246 246 246 245 246 245 245 245 244 245 242 242 240 240 239 240 240 241 241 242 242 243 242 242 243 244 244 242 242 243 245 245 246 246 246 245 247 246 245 246 245 245 243 241 242 241 240 240 240 240 237 239 241 239 237 241 240 243 244 241 242 243 244 244 245 245 244 242 243 242 239 238 239 239 238 238 238 238 239 240 241 240 240 241 239 239 241 241 241 242 241 241 241 242 243 242 243 241 241 242 242 244 242 240 242 240 240 239 239 241 239 240 241 241 243 244 244 244 242 243 242 242 242 242 240 239 238 239 237 237 237 238 238 240 241 242 240 242 243 243 241 239 239 240 241 240 240 241 240 241 239 239 240 237 239 237 236 238 237 242 239 237 239 238 238 238 237 238 236 236 238 236 236 240 236 243 239 237 238 239 238 238 237 239 236 237 238 238 236 240 239 239 240 237 239 -193 -193 235 233 233 231 231 231 228 229 232 233 235 236 236 236 236 236 236 236 236 237 235 237 237 238 238 237 237 237 236 237 237 237 0 0 0 0 0
    0 0 0 0 0 0 0 0 0 0 0 0 0 0 0 0 0 0 0 0 0 0 0 0 0 0 0 0 0 0 0 0 0 0 0 0 0 0 0 0 0 0 0 0 0 0 0 0 0 0 0 0 0 0 0 0 0 0 0 0 0 0 0 0 0 0 0 0 0 242 242 242 241 242 243 243 244 245 249 249 250 250 -193 -193 -193 248 247 -193 247 246 246 246 245 245 245 245 243 242 241 240 239 240 240 241 241 243 242 243 243 243 244 244 244 243 242 243 244 244 246 -193 246 244 246 246 245 246 245 245 243 241 242 241 240 240 239 239 237 237 239 238 236 239 239 241 243 240 241 243 244 244 245 245 244 242 244 243 239 238 239 238 238 238 238 238 239 240 241 240 240 241 239 238 240 240 240 240 240 240 240 242 243 242 243 241 241 242 242 244 241 240 242 240 240 239 240 241 239 240 242 241 243 244 244 244 242 243 242 243 242 243 240 240 239 240 238 238 238 238 239 241 241 242 241 243 243 243 241 239 239 240 241 239 240 241 240 241 239 240 240 238 239 238 237 238 237 242 239 237 239 238 238 238 237 238 237 237 239 236 237 240 236 241 237 236 237 238 236 236 237 239 235 236 237 236 235 238 238 237 240 237 239 -193 -193 -193 -209 -193 -193 230 230 228 228 231 232 234 236 235 235 235 236 236 236 237 237 236 237 238 238 238 237 237 237 236 237 237 237 0 0 0 0 0
    0 0 0 0 0 0 0 0 0 0 0 0 0 0 0 0 0 0 0 0 0 0 0 0 0 0 0 0 0 0 0 0 0 0 0 0 0 0 0 0 0 0 0 0 0 0 0 0 0 0 0 0 0 0 0 0 0 0 0 0 0 0 0 0 0 0 0 0 0 242 241 241 240 241 242 242 243 244 248 249 249 249 247 -193 -193 -193 -193 -193 -193 247 247 247 246 246 245 245 243 243 241 240 239 240 240 241 242 243 243 243 243 244 244 245 245 244 242 -193 -193 -193 -193 -193 -193 244 246 246 246 246 245 245 243 241 242 241 240 240 239 239 236 236 238 235 234 236 236 239 242 238 240 243 -193 245 246 246 245 244 244 244 239 237 239 238 237 238 238 238 240 241 241 240 240 241 239 238 240 239 239 240 240 240 240 242 243 243 243 241 242 242 242 244 241 241 242 240 241 239 240 241 239 241 242 242 243 244 244 244 242 244 242 243 243 243 241 241 239 241 238 238 238 239 239 241 242 243 242 243 243 242 241 239 239 240 240 239 240 241 241 241 239 240 240 238 239 238 237 239 237 242 240 237 239 238 238 238 237 238 237 237 239 236 237 241 237 240 237 236 237 237 236 -193 237 239 235 237 238 237 235 237 -193 -193 -209 -209 -193 -209 -209 -209 -209 -193 -193 229 229 228 228 232 232 234 236 235 235 235 236 236 236 237 238 236 238 238 239 239 238 239 239 238 239 239 238 0 0 0 0 0
    0 0 0 0 0 0 0 0 0 0 0 0 0 0 0 0 0 0 0 0 0 0 0 0 0 0 0 0 0 0 0 0 0 0 0 0 0 0 0 0 0 0 0 0 0 0 0 0 0 0 0 0 0 0 0 0 0 0 0 0 0 0 0 0 0 0 0 0 0 241 241 240 240 241 240 241 240 242 246 246 246 -209 243 245 -193 -193 -193 -193 -193 247 247 247 247 246 246 246 244 243 241 240 239 240 241 241 242 243 242 243 243 244 245 -193 246 -193 -209 -193 909 -193 -193 -193 -193 244 246 246 246 246 245 245 243 241 242 241 240 240 239 239 236 236 237 234 233 -193 -193 -209 241 -193 239 -193 -193 245 246 247 246 245 245 -193 240 237 240 239 237 239 239 239 240 242 242 240 241 242 240 239 240 240 240 240 241 241 241 243 -193 -193 -193 242 -193 241 243 245 241 240 242 240 241 239 241 241 239 242 242 242 243 245 244 244 243 244 243 244 243 244 241 242 239 241 237 238 238 239 239 241 242 243 242 243 243 242 241 240 239 241 241 239 239 241 241 241 238 239 239 238 238 238 236 239 237 243 240 237 239 239 238 238 237 238 237 237 239 -193 -193 -193 -209 237 236 -193 235 236 235 -193 -193 239 235 -193 239 237 -209 -209 -193 -193 -193 -209 -209 -209 -209 -209 -209 -209 -209 -193 229 228 228 232 -193 234 235 235 235 235 235 236 236 237 238 236 238 238 239 241 238 240 240 239 241 241 240 0 0 0 0 0
    0 0 0 0 0 0 0 0 0 0 0 0 0 0 0 0 0 0 0 0 0 0 0 0 0 0 0 0 0 0 0 0 0 0 0 0 0 0 0 0 0 0 0 0 0 0 0 0 0 0 0 0 0 0 0 0 0 0 0 0 0 0 0 0 0 0 0 0 0 239 239 239 238 239 238 239 237 240 244 245 242 -193 240 242 -193 -193 244 246 -193 247 247 247 247 247 246 246 243 243 241 240 238 240 240 241 242 243 241 242 241 243 -193 245 -193 -209 -209 -193 909 -193 -193 -193 -193 243 245 246 246 246 244 245 243 240 242 240 239 239 238 238 236 235 236 234 -209 -193 -193 -209 -193 -193 -209 -193 -193 -193 248 248 247 246 -193 -193 240 237 239 238 237 238 238 239 241 242 243 241 242 243 241 241 241 241 241 241 242 -193 -193 -193 -193 -209 -193 -193 -193 240 243 245 240 239 241 239 240 239 240 241 239 242 243 243 243 245 244 244 243 244 243 244 243 244 241 243 240 241 236 237 238 239 239 241 242 243 243 244 245 243 241 240 239 241 240 238 238 240 240 240 237 239 238 238 237 238 235 238 237 243 240 237 239 239 238 239 238 240 238 240 243 239 239 243 237 238 236 234 233 233 234 -193 234 236 234 -193 238 -209 235 -209 -209 -209 -209 -209 -209 -209 -209 -193 -193 -193 -193 -193 -193 -209 -193 232 232 233 235 234 234 234 235 236 235 236 237 236 238 238 240 242 239 241 241 240 242 241 241 0 0 0 0 0
    0 0 0 0 0 0 0 0 0 0 0 0 0 0 0 0 0 0 0 0 0 0 0 0 0 0 0 0 0 0 0 0 0 0 0 0 0 0 0 0 0 0 0 0 0 0 0 0 0 0 0 0 0 0 0 0 0 0 0 0 0 0 0 0 0 0 0 0 0 236 237 235 236 236 235 236 -225 -193 243 244 -193 -209 239 242 -193 -193 243 246 -193 245 246 246 245 245 244 245 240 243 241 238 237 238 239 242 242 244 242 -193 241 -209 -209 -193 -193 -193 -193 910 910 909 -193 -193 -209 242 244 246 245 246 243 244 243 240 242 241 239 238 237 237 236 234 235 -209 -209 -209 -209 -209 -193 -193 -193 -193 -193 -177 249 249 248 246 246 -193 241 236 240 238 236 237 237 238 240 243 243 241 242 244 242 242 241 -193 -193 -193 -193 -193 869 869 871 -209 -209 -193 -193 240 243 244 237 237 238 236 238 238 239 239 239 242 243 243 244 245 245 244 243 245 243 244 243 244 241 243 241 241 236 236 237 240 240 242 243 244 244 245 245 244 242 240 239 241 239 237 237 239 239 239 237 239 238 238 237 238 236 239 238 244 241 238 240 240 239 240 239 242 241 243 247 244 244 246 239 238 -193 231 232 233 234 234 236 240 239 239 244 -209 -209 -209 -209 -209 -209 -209 -209 -209 -209 -209 -193 -193 -193 -209 -193 -193 -193 -209 -193 231 232 233 233 233 234 235 235 236 236 236 238 239 242 244 242 244 243 243 245 244 243 0 0 0 0 0
    0 0 0 0 0 0 0 0 0 0 0 0 0 0 0 0 0 0 0 0 0 0 0 0 0 0 0 0 0 0 0 0 0 0 0 0 0 0 0 0 0 0 0 0 0 0 0 0 0 0 0 0 0 0 0 0 0 0 0 0 0 0 0 0 0 0 0 0 0 234 234 233 235 235 235 -225 -225 -225 -225 -225 -225 -225 -225 -193 -193 -193 241 245 243 245 245 245 244 245 244 244 236 241 237 -193 -193 -193 -193 -193 -193 -193 -193 -209 -209 -209 -209 -209 -225 -193 -193 -193 -193 -209 -193 -209 -209 -193 244 248 -225 -225 -193 -193 243 240 242 240 237 236 235 -193 -193 -209 -209 -209 -209 -209 -225 -225 -225 -225 -225 -225 -225 980 256 255 256 248 247 248 245 239 242 239 236 237 237 238 240 243 243 240 242 244 244 243 241 -193 863 -193 870 870 870 -193 870 -209 -209 -209 -177 -193 243 -193 -193 231 230 230 234 234 235 -209 239 242 243 244 244 246 245 244 243 244 243 243 242 244 241 -193 242 241 237 237 238 241 -209 -209 244 -193 -209 -193 -193 245 243 241 239 242 239 237 237 238 239 238 237 239 238 239 238 239 -193 -209 -209 244 242 238 241 241 241 240 241 243 244 246 249 248 249 -193 -209 239 233 233 234 235 236 235 239 246 247 -209 250 254 -209 -209 -209 -209 -209 -209 -209 -209 -209 -209 18 20 -193 -193 -177 -177 -177 25 -209 -209 -209 -209 -209 -209 -209 -193 -193 235 236 236 240 -193 -193 247 246 247 246 247 249 247 246 0 0 0 0 0
    0 0 0 0 0 0 0 0 0 0 0 0 0 0 0 0 0 0 0 0 0 0 0 0 0 0 0 0 0 0 0 0 0 0 0 0 0 0 0 0 0 0 0 0 0 0 0 0 0 0 0 0 0 0 0 0 0 0 0 0 0 0 0 0 0 0 0 0 0 -209 -209 -209 -225 -225 -225 -225 -225 -225 -225 -225 -225 -225 -225 -225 -225 -225 -225 -225 -225 -225 -225 -225 -225 -225 -225 -225 -225 -225 -225 -225 -225 -225 -225 -225 -209 -225 -225 -225 -225 -225 -225 -225 -225 -225 -225 -225 -225 -225 -225 -225 -225 -225 -225 -225 -225 -225 -225 114 112 110 -209 -209 -209 -193 -193 -177 -177 -177 -209 -193 -225 -225 -225 -225 -225 -225 -225 -225 -225 -225 -225 330 -209 -193 -209 252 251 241 244 -193 -193 669 -193 -177 -193 -209 -209 -209 -209 -209 -209 -209 -209 -209 -193 -177 -177 871 871 -193 -209 -209 749 748 749 751 -193 -193 -193 -209 215 216 -209 -209 -209 -209 -209 -209 -209 -193 245 246 245 -193 -209 -209 243 -193 -193 -193 117 119 -209 243 240 -209 -193 635 638 -209 -209 -209 -209 -209 -209 -209 244 243 239 243 239 236 236 237 237 236 236 239 239 239 239 240 -193 -193 -209 -193 -193 237 240 241 242 241 243 245 247 249 255 260 260 -193 -193 -209 -209 236 236 238 243 245 247 251 258 -209 262 -209 -209 -209 -209 -209 -209 -209 -209 -209 -209 14 17 19 21 21 -177 -177 -177 26 -193 -209 -209 -209 -193 -209 -209 -209 -193 234 235 236 239 -193 -193 249 248 249 248 249 250 248 247 0 0 0 0 0
    0 0 0 0 0 0 0 0 0 0 0 0 0 0 0 0 0 0 0 0 0 0 0 0 0 0 0 0 0 0 0 0 0 0 0 0 0 0 0 0 0 0 0 0 0 0 0 0 0 0 0 0 0 0 0 0 0 0 0 0 0 0 0 0 0 0 0 0 0 -225 -225 -225 -225 -225 -225 -225 -225 -225 -225 -225 -225 -225 -225 -225 -225 -225 -225 -225 -225 -225 -225 -225 -225 -225 -225 -225 -225 -225 -225 -225 -225 -225 -225 -225 -225 -225 -225 -225 -225 -225 -225 -225 -225 -225 -225 -225 -225 -225 -225 -225 -225 -225 -225 -225 -225 -225 -225 -225 -225 -225 -225 -225 -225 -225 -225 -225 -225 -225 -225 -225 -225 -225 -225 -225 -225 -225 -225 -225 -225 -225 -225 -225 -225 -225 -225 -225 -225 -225 -225 -225 -225 -225 -225 -225 -225 487 -193 -209 -209 -209 -225 -225 -225 -225 -225 -225 -225 -225 -225 -225 -209 -209 -193 -225 749 749 -193 -193 -193 213 212 210 -209 -209 -209 -209 -193 -209 -209 -193 188 -193 -193 -225 -225 -225 -225 -225 -225 -225 -225 -225 -225 -225 -225 -193 -193 -177 636 -209 -209 -209 -209 -209 -177 -177 -193 245 241 244 -193 -193 -193 236 237 236 237 240 241 242 243 -193 -209 -193 -209 -209 -209 -209 239 242 243 242 244 247 249 251 260 264 264 -193 -193 -193 -209 -209 243 245 248 251 254 260 266 270 -209 275 -209 -209 -209 -209 -209 -209 -209 -209 -209 14 18 19 22 23 26 -193 -177 -177 -209 -209 -209 118 122 124 128 -193 -193 233 -193 -193 241 -193 -193 250 250 250 250 250 251 249 249 0 0 0 0 0
    0 0 0 0 0 0 0 0 0 0 0 0 0 0 0 0 0 0 0 0 0 0 0 0 0 0 0 0 0 0 0 0 0 0 0 0 0 0 0 0 0 0 0 0 0 0 0 0 0 0 0 0 0 0 0 0 0 0 0 0 0 0 0 0 0 0 0 0 0 -225 -225 -225 -225 -225 -225 -225 -225 -225 -225 -225 -225 -225 -225 -225 -225 -225 -225 -225 -225 -225 -225 -225 -225 -225 -225 -225 -225 -225 -225 -225 -225 -225 -225 -225 -225 -225 -225 -225 -225 -225 -225 -225 -225 -225 -225 -225 -225 -225 -225 -225 -225 -225 -225 -225 -225 -225 -225 -225 -225 -225 -225 -225 -225 -225 -225 -225 -225 -225 -225 -225 -225 -225 -225 -225 -225 -225 -225 -225 -225 -225 -225 -225 -225 -225 -225 -225 -225 -225 -225 -225 -225 -225 -225 -225 -225 -225 -225 -225 -225 -225 -225 -225 -225 -225 -225 -225 -225 -225 -225 -225 -225 -225 -225 -225 -225 -225 -225 -225 -225 -225 -225 -225 -225 -225 -225 -225 -225 -225 -225 -225 -225 -225 -225 -225 -225 -225 -225 -225 -225 -225 -225 -225 -225 -225 -225 -225 -225 -225 148 149 150 -209 -177 -193 -193 -193 245 -225 -225 -225 -225 -225 -225 -225 -225 -193 238 242 243 243 244 -193 -193 -209 -209 -225 -225 -225 -209 -225 -209 244 246 248 252 255 264 265 -193 -193 -193 -193 -209 -209 -193 246 249 254 257 262 268 274 -209 277 -209 -209 -209 -209 -209 -209 -209 -209 9 13 21 -209 -209 -209 -209 36 35 -177 -209 -209 -209 -209 122 126 132 -209 -209 -209 -209 -193 -193 -209 -209 254 255 253 252 251 252 251 252 0 0 0 0 0
    0 0 0 0 0 0 0 0 0 0 0 0 0 0 0 0 0 0 0 0 0 0 0 0 0 0 0 0 0 0 0 0 0 0 0 0 0 0 0 0 0 0 0 0 0 0 0 0 0 0 0 0 0 0 0 0 0 0 0 0 0 0 0 0 0 0 0 0 0 -225 -225 -225 -225 -225 -225 -225 -225 -225 -225 -225 -225 -225 -225 -225 -225 -225 -225 -225 -225 -225 -225 -225 -225 -225 -225 -225 -225 -225 -225 -225 -225 -225 -225 -225 -225 -225 -225 -225 -225 -225 -225 -225 -225 -225 -225 -225 -225 -225 -225 -225 -225 -225 -225 -225 -225 -225 -225 -225 -225 -225 -225 -225 -225 -225 -225 -225 -225 -225 -225 -225 -225 -225 -225 -225 -225 -225 -225 -225 -225 -225 -225 -225 -225 -225 -225 -225 -225 -225 -225 -225 -225 -225 -225 -225 -225 -225 -225 -225 -225 -225 -225 -225 -225 -225 -225 -225 -225 -225 -225 -225 -225 -225 -225 -225 -225 -225 -225 -225 -225 -225 -225 -225 -225 -225 -225 -225 -225 -225 -225 -225 -225 -225 -225 -225 -225 -225 -225 -225 -225 -225 -225 -225 -225 -225 -225 -225 -225 -225 -225 -225 -225 -225 -225 -225 -225 -225 -225 -225 -225 -225 -225 -225 -225 -225 -225 -225 -225 -225 -225 -225 -225 -225 -225 -225 -225 -225 -225 -225 -225 -225 -225 246 247 249 256 260 266 266 266 266 267 -193 -193 -193 -193 247 250 256 260 264 268 274 -209 278 -209 -209 -209 -209 -209 -209 -209 -209 -209 -209 -209 -209 -209 -209 -209 -209 35 37 -193 -209 -209 -209 -209 -209 -209 -193 -209 -209 -209 -209 -209 -193 252 256 260 259 259 253 253 254 258 0 0 0 0 0
    0 0 0 0 0 0 0 0 0 0 0 0 0 0 0 0 0 0 0 0 0 0 0 0 0 0 0 0 0 0 0 0 0 0 0 0 0 0 0 0 0 0 0 0 0 0 0 0 0 0 0 0 0 0 0 0 0 0 0 0 0 0 0 0 0 0 0 0 0 -225 -225 -225 -225 -225 -225 -225 -225 -225 -225 -225 -225 -225 -225 -225 -225 -225 -225 -225 -225 -225 -225 -225 -225 -225 -225 -225 -225 -225 -225 -225 -225 -225 -225 -225 -225 -225 -225 -225 -225 -225 -225 -225 -225 -225 -225 -225 -225 -225 -225 -225 -225 -225 -225 -225 -225 -225 -225 -225 -225 -225 -225 -225 -225 -225 -225 -225 -225 -225 -225 -225 -225 -225 -225 -225 -225 -225 -225 -225 -225 -225 -225 -225 -225 -225 -225 -225 -225 -225 -225 -225 -225 -225 -225 -225 -225 -225 -225 -225 -225 -225 -225 -225 -225 -225 -225 -225 -225 -225 -225 -225 -225 -225 -225 -225 -225 -225 -225 -225 -225 -225 -225 -225 -225 -225 -225 -225 -225 -225 -225 -225 -225 -225 -225 -225 -225 -225 -225 -225 -225 -225 -225 -225 -225 -225 -225 -225 -225 -225 -225 -225 -225 -225 -225 -225 -225 -225 -225 -225 -225 -225 -225 -225 -225 -225 -225 -225 -225 -225 -225 -225 -225 -225 -225 -225 -225 -225 -225 -225 -225 -225 -225 247 247 249 258 261 267 267 267 267 268 267 266 267 -193 248 252 258 262 265 269 275 -209 278 -209 -209 -209 -209 -209 -209 -209 -209 -209 -209 -209 -209 -209 -209 -209 -209 -209 35 -209 -209 -177 -177 -177 54 55 -177 -209 -209 -209 -209 -193 -209 250 259 263 264 265 261 258 258 263 0 0 0 0 0
    0 0 0 0 0 0 0 0 0 0 0 0 0 0 0 0 0 0 0 0 0 0 0 0 0 0 0 0 0 0 0 0 0 0 0 0 0 0 0 0 0 0 0 0 0 0 0 0 0 0 0 0 0 0 0 0 0 0 0 0 0 0 0 0 0 0 0 0 0 -225 -225 -225 -225 -225 -225 -225 -225 -225 -225 -225 -225 -225 -225 -225 -225 -225 -225 -225 -225 -225 -225 -225 -225 -225 -225 -225 -225 -225 -225 -225 -225 -225 -225 -225 -225 -225 -225 -225 -225 -225 -225 -225 -225 -225 -225 -225 -225 -225 -225 -225 -225 -225 -225 -225 -225 -225 -225 -225 -225 -225 -225 -225 -225 -225 -225 -225 -225 -225 -225 -225 -225 -225 -225 -225 -225 -225 -225 -225 -225 -225 -225 -225 -225 -225 -225 -225 -225 -225 -225 -225 -225 -225 -225 -225 -225 -225 -225 -225 -225 -225 -225 -225 -225 -225 -225 -225 -225 -225 -225 -225 -225 -225 -225 -225 -225 -225 -225 -225 -225 -225 -225 -225 -225 -225 -225 -225 -225 -225 -225 -225 -225 -225 -225 -225 -225 -225 -225 -225 -225 -225 -225 -225 -225 -225 -225 -225 -225 -225 -225 -225 -225 -225 -225 -225 -225 -225 -225 -225 -225 -225 -225 -225 -225 -225 -225 -225 -225 -225 -225 -225 -225 -225 -225 -225 -225 -225 -225 -225 -225 -225 -225 -225 248 251 260 263 267 267 267 267 268 268 267 268 -193 249 253 259 262 265 269 275 -209 277 -209 -209 -209 -209 -209 -209 -209 -209 -209 -209 -209 -209 -209 -209 -209 -209 -209 -209 -209 -209 -177 -177 -177 -177 57 61 -177 -209 -209 -193 -177 -209 -209 259 264 265 266 265 263 262 265 0 0 0 0 0
    0 0 0 0 0 0 0 0 0 0 0 0 0 0 0 0 0 0 0 0 0 0 0 0 0 0 0 0 0 0 0 0 0 0 0 0 0 0 0 0 0 0 0 0 0 0 0 0 0 0 0 0 0 0 0 0 0 0 0 0 0 0 0 0 0 0 0 0 0 -225 -225 -225 -225 -225 -225 -225 -225 -225 -225 -225 -225 -225 -225 -225 -225 -225 -225 -225 -225 -225 -225 -225 -225 -225 -225 -225 -225 -225 -225 -225 -225 -225 -225 -225 -225 -225 -225 -225 -225 -225 -225 -225 -225 -225 -225 -225 -225 -225 -225 -225 -225 -225 -225 -225 -225 -225 -225 -225 -225 -225 -225 -225 -225 -225 -225 -225 -225 -225 -225 -225 -225 -225 -225 -225 -225 -225 -225 -225 -225 -225 -225 -225 -225 -225 -225 -225 -225 -225 -225 -225 -225 -225 -225 -225 -225 -225 -225 -225 -225 -225 -225 -225 -225 -225 -225 -225 -225 -225 -225 -225 -225 -225 -225 -225 -225 -225 -225 -225 -225 -225 -225 -225 -225 -225 -225 -225 -225 -225 -225 -225 -225 -225 -225 -225 -225 -225 -225 -225 -225 -225 -225 -225 -225 -225 -225 -225 -225 -225 -225 -225 -225 -225 -225 -225 -225 -225 -225 -225 -225 -225 -225 -225 -225 -225 -225 -225 -225 -225 -225 -225 -225 -225 -225 -225 -225 -225 -225 -225 -225 -225 -225 -225 248 252 262 266 269 268 268 268 268 268 267 268 266 260 261 263 265 267 272 276 272 -209 -209 -209 -209 -209 -209 -209 -209 -209 -209 -209 -209 -209 -209 -209 -209 -209 -209 -209 -209 -209 -177 -177 -177 -177 -177 -177 -193 -209 -209 -209 -177 -209 -209 -193 266 267 267 266 265 264 266 0 0 0 0 0
    0 0 0 0 0 0 0 0 0 0 0 0 0 0 0 0 0 0 0 0 0 0 0 0 0 0 0 0 0 0 0 0 0 0 0 0 0 0 0 0 0 0 0 0 0 0 0 0 0 0 0 0 0 0 0 0 0 0 0 0 0 0 0 0 0 0 0 0 0 -225 -225 -225 -225 -225 -225 -225 -225 -225 -225 -225 -225 -225 -225 -225 -225 -225 -225 -225 -225 -225 -225 -225 -225 -225 -225 -225 -225 -225 -225 -225 -225 -225 -225 -225 -225 -225 -225 -225 -225 -225 -225 -225 -225 -225 -225 -225 -225 -225 -225 -225 -225 -225 -225 -225 -225 -225 -225 -225 -225 -225 -225 -225 -225 -225 -225 -225 -225 -225 -225 -225 -225 -225 -225 -225 -225 -225 -225 -225 -225 -225 -225 -225 -225 -225 -225 -225 -225 -225 -225 -225 -225 -225 -225 -225 -225 -225 -225 -225 -225 -225 -225 -225 -225 -225 -225 -225 -225 -225 -225 -225 -225 -225 -225 -225 -225 -225 -225 -225 -225 -225 -225 -225 -225 -225 -225 -225 -225 -225 -225 -225 -225 -225 -225 -225 -225 -225 -225 -225 -225 -225 -225 -225 -225 -225 -225 -225 -225 -225 -225 -225 -225 -225 -225 -225 -225 -225 -225 -225 -225 -225 -225 -225 -225 -225 -225 -225 -225 -225 -225 -225 -225 -225 -225 -225 -225 -225 -225 -225 -225 -225 -225 -225 -225 254 263 267 272 268 269 269 269 268 268 269 267 263 264 265 268 271 275 278 -209 -209 -209 -209 -209 -209 -209 -209 -209 -209 -209 -209 -209 -209 -209 -209 -209 -209 -209 -209 -209 -209 -193 -177 -177 -177 53 58 -209 51 55 -209 -193 -209 -209 -209 266 268 268 267 -193 265 267 0 0 0 0 0
    0 0 0 0 0 0 0 0 0 0 0 0 0 0 0 0 0 0 0 0 0 0 0 0 0 0 0 0 0 0 0 0 0 0 0 0 0 0 0 0 0 0 0 0 0 0 0 0 0 0 0 0 0 0 0 0 0 0 0 0 0 0 0 0 0 0 0 0 0 -225 -225 -225 -225 -225 -225 -225 -225 -225 -225 -225 -225 -225 -225 -225 -225 -225 -225 -225 -225 -225 -225 -225 -225 -225 -225 -225 -225 -225 -225 -225 -225 -225 -225 -225 -225 -225 -225 -225 -225 -225 -225 -225 -225 -225 -225 -225 -225 -225 -225 -225 -225 -225 -225 -225 -225 -225 -225 -225 -225 -225 -225 -225 -225 -225 -225 -225 -225 -225 -225 -225 -225 -225 -225 -225 -225 -225 -225 -225 -225 -225 -225 -225 -225 -225 -225 -225 -225 -225 -225 -225 -225 -225 -225 -225 -225 -225 -225 -225 -225 -225 -225 -225 -225 -225 -225 -225 -225 -225 -225 -225 -225 -225 -225 -225 -225 -225 -225 -225 -225 -225 -225 -225 -225 -225 -225 -225 -225 -225 -225 -225 -225 -225 -225 -225 -225 -225 -225 -225 -225 -225 -225 -225 -225 -225 -225 -225 -225 -225 -225 -225 -225 -225 -225 -225 -225 -225 -225 -225 -225 -225 -225 -225 -225 -225 -225 -225 -225 -225 -225 -225 -225 -225 -225 -225 -225 -225 -225 -225 -225 -225 -225 -225 -225 -225 264 266 272 268 -193 269 270 271 270 273 269 266 268 271 273 275 275 -209 -209 -209 -209 -209 -209 -209 -209 -209 -209 -209 -209 -209 -209 -209 -209 -209 -209 -209 -209 -209 -209 -209 -193 47 50 46 51 57 -209 46 54 -209 -209 -193 0 -193 -193 -193 -193 -193 -193 -193 268 0 0 0 0 0
    0 0 0 0 0 0 0 0 0 0 0 0 0 0 0 0 0 0 0 0 0 0 0 0 0 0 0 0 0 0 0 0 0 0 0 0 0 0 0 0 0 0 0 0 0 0 0 0 0 0 0 0 0 0 0 0 0 0 0 0 0 0 0 0 0 0 0 0 0 -225 -225 -225 -225 -225 -225 -225 -225 -225 -225 -225 -225 -225 -225 -225 -225 -225 -225 -225 -225 -225 -225 -225 -225 -225 -225 -225 -225 -225 -225 -225 -225 -225 -225 -225 -225 -225 -225 -225 -225 -225 -225 -225 -225 -225 -225 -225 -225 -225 -225 -225 -225 -225 -225 -225 -225 -225 -225 -225 -225 -225 -225 -225 -225 -225 -225 -225 -225 -225 -225 -225 -225 -225 -225 -225 -225 -225 -225 -225 -225 -225 -225 -225 -225 -225 -225 -225 -225 -225 -225 -225 -225 -225 -225 -225 -225 -225 -225 -225 -225 -225 -225 -225 -225 -225 -225 -225 -225 -225 -225 -225 -225 -225 -225 -225 -225 -225 -225 -225 -225 -225 -225 -225 -225 -225 -225 -225 -225 -225 -225 -225 -225 -225 -225 -225 -225 -225 -225 -225 -225 -225 -225 -225 -225 -225 -225 -225 -225 -225 -225 -225 -225 -225 -225 -225 -225 -225 -225 -225 -225 -225 -225 -225 -225 -225 -225 -225 -225 -225 -225 -225 -225 -225 -225 -225 -225 -225 -225 -225 -225 -225 -225 -225 -225 -225 -225 -225 -225 -225 -225 -225 -209 -209 263 273 268 266 267 269 269 -209 -209 -209 -209 -209 -209 -209 -209 -209 -209 -209 -209 -209 -209 -209 -209 -209 -209 -209 -209 -209 -209 -209 -209 -209 40 45 48 45 47 -193 -209 -209 -209 -209 -209 0 0 0 -193 -209 -209 -193 -209 -209 268 0 0 0 0 0
    0 0 0 0 0 0 0 0 0 0 0 0 0 0 0 0 0 0 0 0 0 0 0 0 0 0 0 0 0 0 0 0 0 0 0 0 0 0 0 0 0 0 0 0 0 0 0 0 0 0 0 0 0 0 0 0 0 0 0 0 0 0 0 0 0 0 0 0 0 -225 -225 -225 -225 -225 -225 -225 -225 -225 -225 -225 -225 -225 -225 -225 -225 -225 -225 -225 -225 -225 -225 -225 -225 -225 -225 -225 -225 -225 -225 -225 -225 -225 -225 -225 -225 -225 -225 -225 -225 -225 -225 -225 -225 -225 -225 -225 -225 -225 -225 -225 -225 -225 -225 -225 -225 -225 -225 -225 -225 -225 -225 -225 -225 -225 -225 -225 -225 -225 -225 -225 -225 -225 -225 -225 -225 -225 -225 -225 -225 -225 -225 -225 -225 -225 -225 -225 -225 -225 -225 -225 -225 -225 -225 -225 -225 -225 -225 -225 -225 -225 -225 -225 -225 -225 -225 -225 -225 -225 -225 -225 -225 -225 -225 -225 -225 -225 -225 -225 -225 -225 -225 -225 -225 -225 -225 -225 -225 -225 -225 -225 -225 -225 -225 -225 -225 -225 -225 -225 -225 -225 -225 -225 -225 -225 -225 -225 -225 -225 -225 -225 -225 -225 -225 -225 -225 -225 -225 -225 -225 -225 -225 -225 -225 -225 -225 -225 -225 -225 -225 -225 -225 -225 -225 -225 -225 -225 -225 -225 -225 -225 -225 -225 -225 -225 -225 -225 -225 -225 -225 -225 -225 -225 -225 -225 -209 -209 -209 -209 -209 -209 -209 -209 -209 -209 -209 -209 -209 -209 -209 -209 -209 -209 -209 -209 -209 -209 -209 -209 -209 -209 -209 -209 -209 37 39 43 44 -193 43 -209 18 -209 -209 -209 -209 0 0 -193 -209 -209 -209 -209 -209 -209 -209 0 0 0 0 0
    0 0 0 0 0 0 0 0 0 0 0 0 0 0 0 0 0 0 0 0 0 0 0 0 0 0 0 0 0 0 0 0 0 0 0 0 0 0 0 0 0 0 0 0 0 0 0 0 0 0 0 0 0 0 0 0 0 0 0 0 0 0 0 0 0 0 0 0 0 -225 -225 -225 -225 -225 -225 -225 -225 -225 -225 -225 -225 -225 -225 -225 -225 -225 -225 -225 -225 -225 -225 -225 -225 -225 -225 -225 -225 -225 -225 -225 -225 -225 -225 -225 -225 -225 -225 -225 -225 -225 -225 -225 -225 -225 -225 -225 -225 -225 -225 -225 -225 -225 -225 -225 -225 -225 -225 -225 -225 -225 -225 -225 -225 -225 -225 -225 -225 -225 -225 -225 -225 -225 -225 -225 -225 -225 -225 -225 -225 -225 -225 -225 -225 -225 -225 -225 -225 -225 -225 -225 -225 -225 -225 -225 -225 -225 -225 -225 -225 -225 -225 -225 -225 -225 -225 -225 -225 -225 -225 -225 -225 -225 -225 -225 -225 -225 -225 -225 -225 -225 -225 -225 -225 -225 -225 -225 -225 -225 -225 -225 -225 -225 -225 -225 -225 -225 -225 -225 -225 -225 -225 -225 -225 -225 -225 -225 -225 -225 -225 -225 -225 -225 -225 -225 -225 -225 -225 -225 -225 -225 -225 -225 -225 -225 -225 -225 -225 -225 -225 -225 -225 -225 -225 -225 -225 -225 -225 -225 -225 -225 -225 -225 -225 -225 -225 -225 -225 -225 -225 -225 -225 -225 -225 -225 -225 -209 -209 -209 -209 -209 -209 -209 -209 -209 -209 -209 -209 -209 -209 -209 -209 -209 -209 -209 -209 -209 -209 -209 -209 -209 -209 -209 -209 34 37 42 -209 -193 42 -209 -193 -193 -209 -209 -209 -209 -209 -209 -209 -209 -209 -209 -209 -209 -193 0 0 0 0 0
    0 0 0 0 0 0 0 0 0 0 0 0 0 0 0 0 0 0 0 0 0 0 0 0 0 0 0 0 0 0 0 0 0 0 0 0 0 0 0 0 0 0 0 0 0 0 0 0 0 0 0 0 0 0 0 0 0 0 0 0 0 0 0 0 0 0 0 0 0 -225 -225 -225 -225 -225 -225 -225 -225 -225 -225 -225 -225 -225 -225 -225 -225 -225 -225 -225 -225 -225 -225 -225 -225 -225 -225 -225 -225 -225 -225 -225 -225 -225 -225 -225 -225 -225 -225 -225 -225 -225 -225 -225 -225 -225 -225 -225 -225 -225 -225 -225 -225 -225 -225 -225 -225 -225 -225 -225 -225 -225 -225 -225 -225 -225 -225 -225 -225 -225 -225 -225 -225 -225 -225 -225 -225 -225 -225 -225 -225 -225 -225 -225 -225 -225 -225 -225 -225 -225 -225 -225 -225 -225 -225 -225 -225 -225 -225 -225 -225 -225 -225 -225 -225 -225 -225 -225 -225 -225 -225 -225 -225 -225 -225 -225 -225 -225 -225 -225 -225 -225 -225 -225 -225 -225 -225 -225 -225 -225 -225 -225 -225 -225 -225 -225 -225 -225 -225 -225 -225 -225 -225 -225 -225 -225 -225 -225 -225 -225 -225 -225 -225 -225 -225 -225 -225 -225 -225 -225 -225 -225 -225 -225 -225 -225 -225 -225 -225 -225 -225 -225 -225 -225 -225 -225 -225 -225 -225 -225 -225 -225 -225 -225 -225 -225 -225 -225 -225 -225 -225 -225 -225 -225 -225 -225 -225 -209 -209 -209 -209 -209 -209 -209 -209 -209 -209 -209 -209 -209 -209 -209 -209 -209 -209 -209 -209 -209 -209 31 -209 -209 -209 -209 -209 -209 -193 44 52 45 44 46 25 -193 -193 54 -209 -209 -209 -209 -209 -209 -209 -193 316 -209 -209 0 0 0 0 0
    0 0 0 0 0 0 0 0 0 0 0 0 0 0 0 0 0 0 0 0 0 0 0 0 0 0 0 0 0 0 0 0 0 0 0 0 0 0 0 0 0 0 0 0 0 0 0 0 0 0 0 0 0 0 0 0 0 0 0 0 0 0 0 0 0 0 0 0 0 -225 -225 -225 -225 -225 -225 -225 -225 -225 -225 -225 -225 -225 -225 -225 -225 -225 -225 -225 -225 -225 -225 -225 -225 -225 -225 -225 -225 -225 -225 -225 -225 -225 -225 -225 -225 -225 -225 -225 -225 -225 -225 -225 -225 -225 -225 -225 -225 -225 -225 -225 -225 -225 -225 -225 -225 -225 -225 -225 -225 -225 -225 -225 -225 -225 -225 -225 -225 -225 -225 -225 -225 -225 -225 -225 -225 -225 -225 -225 -225 -225 -225 -225 -225 -225 -225 -225 -225 -225 -225 -225 -225 -225 -225 -225 -225 -225 -225 -225 -225 -225 -225 -225 -225 -225 -225 -225 -225 -225 -225 -225 -225 -225 -225 -225 -225 -225 -225 -225 -225 -225 -225 -225 -225 -225 -225 -225 -225 -225 -225 -225 -225 -225 -225 -225 -225 -225 -225 -225 -225 -225 -225 -225 -225 -225 -225 -225 -225 -225 -225 -225 -225 -225 -225 -225 -225 -225 -225 -225 -225 -225 -225 -225 -225 -225 -225 -225 -225 -225 -225 -225 -225 -225 -225 -225 -225 -225 -225 -225 -225 -225 -225 -225 -225 -225 -225 -225 -225 -225 -225 -225 -225 -225 -225 -225 -225 -209 -209 -209 -209 -209 -209 -209 -209 -209 -209 -209 -209 -209 -209 -209 -209 -209 -209 -209 -209 -209 -209 30 -209 -209 -209 -209 -209 -209 -177 42 47 45 44 46 -209 44 52 55 -193 -193 -209 -193 -193 -193 -193 315 316 -193 -209 0 0 0 0 0
    0 0 0 0 0 0 0 0 0 0 0 0 0 0 0 0 0 0 0 0 0 0 0 0 0 0 0 0 0 0 0 0 0 0 0 0 0 0 0 0 0 0 0 0 0 0 0 0 0 0 0 0 0 0 0 0 0 0 0 0 0 0 0 0 0 0 0 0 0 -225 -225 -225 -225 -225 -225 -225 -225 -225 -225 -225 -225 -225 -225 -225 -225 -225 -225 -225 -225 -225 -225 -225 -225 -225 -225 -225 -225 -225 -225 -225 -225 -225 -225 -225 -225 -225 -225 -225 -225 -225 -225 -225 -225 -225 -225 -225 -225 -225 -225 -225 -225 -225 -225 -225 -225 -225 -225 -225 -225 -225 -225 -225 -225 -225 -225 -225 -225 -225 -225 -225 -225 -225 -225 -225 -225 -225 -225 -225 -225 -225 -225 -225 -225 -225 -225 -225 -225 -225 -225 -225 -225 -225 -225 -225 -225 -225 -225 -225 -225 -225 -225 -225 -225 -225 -225 -225 -225 -225 -225 -225 -225 -225 -225 -225 -225 -225 -225 -225 -225 -225 -225 -225 -225 -225 -225 -225 -225 -225 -225 -225 -225 -225 -225 -225 -225 -225 -225 -225 -225 -225 -225 -225 -225 -225 -225 -225 -225 -225 -225 -225 -225 -225 -225 -225 -225 -225 -225 -225 -225 -225 -225 -225 -225 -225 -225 -225 -225 -225 -225 -225 -225 -225 -225 -225 -225 -225 -225 -225 -225 -225 -225 -225 -225 -225 -225 -225 -225 -225 -225 -225 -225 -225 -225 -225 -225 -209 -209 -209 -209 -209 -209 -209 -209 -209 -209 -209 -209 -209 -209 -209 -209 -209 -209 -209 -209 -209 26 31 -209 -209 -209 -209 -209 -209 -209 40 -209 42 42 -193 36 43 50 -209 -193 -209 -209 -193 -193 -193 -193 316 317 -193 -209 0 0 0 0 0
    0 0 0 0 0 0 0 0 0 0 0 0 0 0 0 0 0 0 0 0 0 0 0 0 0 0 0 0 0 0 0 0 0 0 0 0 0 0 0 0 0 0 0 0 0 0 0 0 0 0 0 0 0 0 0 0 0 0 0 0 0 0 0 0 0 0 0 0 0 -225 -225 -225 -225 -225 -225 -225 -225 -225 -225 -225 -225 -225 -225 -225 -225 -225 -225 -225 -225 -225 -225 -225 -225 -225 -225 -225 -225 -225 -225 -225 -225 -225 -225 -225 -225 -225 -225 -225 -225 -225 -225 -225 -225 -225 -225 -225 -225 -225 -225 -225 -225 -225 -225 -225 -225 -225 -225 -225 -225 -225 -225 -225 -225 -225 -225 -225 -225 -225 -225 -225 -225 -225 -225 -225 -225 -225 -225 -225 -225 -225 -225 -225 -225 -225 -225 -225 -225 -225 -225 -225 -225 -225 -225 -225 -225 -225 -225 -225 -225 -225 -225 -225 -225 -225 -225 -225 -225 -225 -225 -225 -225 -225 -225 -225 -225 -225 -225 -225 -225 -225 -225 -225 -225 -225 -225 -225 -225 -225 -225 -225 -225 -225 -225 -225 -225 -225 -225 -225 -225 -225 -225 -225 -225 -225 -225 -225 -225 -225 -225 -225 -225 -225 -225 -225 -225 -225 -225 -225 -225 -225 -225 -225 -225 -225 -225 -225 -225 -225 -225 -225 -225 -225 -225 -225 -225 -225 -225 -225 -225 -225 -225 -225 -225 -225 -225 -225 -225 -225 -225 -225 -225 -225 -225 -225 -225 -209 -209 -209 -209 -209 -209 -209 -209 -209 -209 -209 -209 -209 -209 -209 -209 -209 -209 -209 -209 -209 -209 -209 -209 -209 -209 -209 -209 -209 -209 -209 -209 -193 -209 -209 -209 -193 -209 -209 -209 -209 209 -193 320 322 319 317 317 318 316 0 0 0 0 0
    0 0 0 0 0 0 0 0 0 0 0 0 0 0 0 0 0 0 0 0 0 0 0 0 0 0 0 0 0 0 0 0 0 0 0 0 0 0 0 0 0 0 0 0 0 0 0 0 0 0 0 0 0 0 0 0 0 0 0 0 0 0 0 0 0 0 0 0 0 -225 -225 -225 -225 -225 -225 -225 -225 -225 -225 -225 -225 -225 -225 -225 -225 -225 -225 -225 -225 -225 -225 -225 -225 -225 -225 -225 -225 -225 -225 -225 -193 -193 365 365 -225 -225 -225 -225 -225 -225 -225 -225 -225 -225 -225 -225 -209 -209 -209 -209 -209 654 -193 -209 -209 -209 -209 -209 -209 358 -209 -225 -225 -225 -225 -225 -225 -225 -225 -225 -225 -225 36 -193 -225 -209 -225 -225 -225 -225 -225 -225 -225 -225 -225 -225 275 278 277 -209 -209 362 -209 -225 -225 -225 -225 -225 -225 -225 196 195 191 -177 -193 -193 -193 -193 -177 -209 -193 -193 351 352 353 351 355 -225 -225 -225 -225 -225 -225 -225 -225 -225 -225 -225 -225 -225 -225 -225 -225 -225 -225 -225 -225 -225 -225 -225 -225 -225 -225 -225 -225 -193 -193 -209 359 360 730 733 -193 -193 365 363 363 -193 -225 -225 -225 -225 -225 -225 -225 -225 -225 -225 -225 -225 -225 -225 -225 -225 -225 -225 -225 -225 -225 -225 -225 -225 -225 -225 -225 -225 -225 -225 -225 -225 -225 -225 -193 -209 -209 -209 -209 -209 -209 -209 -209 -209 -209 -209 -209 -209 -209 -209 -209 -209 -209 -209 -209 17 -209 -209 19 -209 -209 -209 -209 -209 -209 -209 -209 -209 -209 -209 -209 -209 -209 -209 -209 -209 -209 -209 -177 -209 323 324 322 319 319 320 318 0 0 0 0 0
    0 0 0 0 0 0 0 0 0 0 0 0 0 0 0 0 0 0 0 0 0 0 0 0 0 0 0 0 0 0 0 0 0 0 0 0 0 0 0 0 0 0 0 0 0 0 0 0 0 0 0 0 0 0 0 0 0 0 0 0 0 0 0 0 0 0 0 0 0 -225 -225 -225 -225 -225 -225 -193 -225 -177 -177 -209 -193 -193 -225 -225 -225 -193 -193 -193 -193 -193 368 365 364 365 -193 464 -193 -193 367 367 367 367 364 364 365 364 364 -225 -193 -225 -193 -225 -225 -225 -225 -209 -209 -209 -193 -209 -193 -209 361 360 360 -193 360 360 358 359 359 -209 -209 -193 -193 -209 -193 -209 -209 32 30 28 34 -193 -193 34 34 -193 -193 -209 -193 -209 282 285 284 -193 -193 -193 -209 -209 362 363 -177 363 -209 -209 -209 -209 -177 194 196 194 -177 -177 -209 -209 -193 -193 -177 -209 -193 -177 351 351 352 350 354 354 -193 -209 -225 -225 -225 -225 -225 -225 -225 -225 -225 -225 -225 -225 -225 -225 -225 -225 -225 -225 -225 -225 -209 -209 -209 353 354 357 359 360 360 360 -193 733 732 -193 -193 -193 -193 -193 -193 -193 -193 -209 -225 -225 -225 -225 -225 -225 -225 -225 -225 -225 -225 -225 -225 -225 -225 -225 -225 -225 -225 -225 -225 -225 -225 -225 -225 694 689 695 -193 -193 196 -209 -209 -209 -209 -209 -209 -209 -209 -209 -209 -209 -209 -209 -209 -209 -209 -209 -209 -209 -209 -209 -209 -209 17 23 30 -209 -209 -209 -209 -209 -209 -209 -209 -209 -209 -209 -209 -209 -209 -209 -209 -209 -193 -209 -193 324 322 319 319 322 321 0 0 0 0 0
    0 0 0 0 0 0 0 0 0 0 0 0 0 0 0 0 0 0 0 0 0 0 0 0 0 0 0 0 0 0 0 0 0 0 0 0 0 0 0 0 0 0 0 0 0 0 0 0 0 0 0 0 0 0 0 0 0 0 0 0 0 0 0 0 0 0 0 0 0 -177 -193 -193 60 50 51 -209 156 -193 -209 -193 -193 -193 -193 -193 -193 -193 -209 -193 -193 -193 370 -177 366 -177 367 -193 -193 369 367 367 366 367 364 364 365 364 364 -193 -193 -193 -193 -193 -209 -193 -209 -193 363 -193 -193 -193 -209 361 361 -193 361 -193 361 361 359 360 359 -209 360 360 -193 -209 -193 -209 -209 -193 -209 -193 -193 -193 -193 32 -193 -209 -209 361 363 -209 283 -193 283 -193 -193 -193 -193 -209 362 363 362 362 -209 -209 -209 -209 -209 193 194 193 -193 -193 -193 -193 356 -193 -193 -193 -177 -177 351 351 352 350 354 353 358 -193 -209 976 978 979 -225 -225 -225 -225 -225 -193 -225 -225 -225 -225 -225 -225 -225 346 353 -193 -193 -193 353 354 355 357 358 359 359 -193 -193 733 733 -193 -193 -193 -193 -193 362 362 -193 -193 355 -225 -225 -225 -225 -225 -225 -225 -225 -225 -225 -225 -225 -209 -209 -225 -225 -209 -225 -225 -225 -225 -225 688 688 -193 -193 -209 -209 -209 -209 350 -209 -209 -209 -209 -209 -209 -209 -209 -209 -209 -209 -209 -209 -209 -209 -209 -209 -209 -209 -209 -209 -209 14 19 23 -209 -209 -209 -209 -209 -209 -209 -209 -209 -193 -193 -193 -209 -209 -209 -209 -209 -209 -209 -209 -193 -209 -209 -193 329 -209 0 0 0 0 0
    0 0 0 0 0 0 0 0 0 0 0 0 0 0 0 0 0 0 0 0 0 0 0 0 0 0 0 0 0 0 0 0 0 0 0 0 0 0 0 0 0 0 0 0 0 0 0 0 0 0 0 0 0 0 0 0 0 0 0 0 0 0 0 0 0 0 0 0 0 -209 -177 -209 -209 48 50 -193 -193 -209 -193 -193 -193 -193 -193 -193 -193 365 -193 365 367 369 368 367 365 366 366 365 368 367 366 366 366 366 364 365 365 365 364 -193 362 365 364 367 -193 -193 -209 -193 363 -193 -209 -193 -209 361 361 360 360 360 360 361 359 360 360 -209 360 360 361 360 -209 -209 357 358 -209 -209 -193 -193 -193 -193 -193 -193 -193 363 364 364 -193 -193 -193 -209 -193 -193 -193 -209 361 362 362 362 363 -209 -193 362 -209 192 194 -193 -193 -193 -193 355 356 352 -193 354 -177 352 351 351 353 350 354 353 358 356 -193 -193 978 979 979 975 972 -193 -209 -209 -193 -193 351 350 355 -209 -193 348 352 355 358 358 354 354 355 356 358 358 358 357 -193 -193 -193 -193 -193 -193 -193 -193 361 361 -193 357 354 354 353 353 355 354 352 -193 -209 -209 -209 -209 -193 -193 -193 -193 -193 -193 -225 -225 -193 -209 -209 -177 -193 -193 192 -209 -209 -193 354 351 352 -193 -209 -209 -209 -209 -209 -209 -209 -209 -209 -209 -209 -193 347 -209 -209 -209 -209 -193 351 350 -193 17 21 23 -209 -209 -209 -209 -209 -209 -209 -209 -209 -209 -193 346 345 -193 -209 -209 -209 -209 -209 -209 -209 -209 -209 342 -193 0 0 0 0 0
    0 0 0 0 0 0 0 0 0 0 0 0 0 0 0 0 0 0 0 0 0 0 0 0 0 0 0 0 0 0 0 0 0 0 0 0 0 0 0 0 0 0 0 0 0 0 0 0 0 0 0 0 0 0 0 0 0 0 0 0 0 0 0 0 0 0 0 0 0 -193 -193 -209 -209 -177 -177 -193 -209 -209 -209 -193 -193 -193 367 367 -193 366 367 365 368 369 367 366 365 366 366 366 368 367 366 367 366 366 364 364 364 365 364 364 362 365 364 367 -193 -193 -209 -193 362 -193 -193 -193 -193 360 360 360 360 360 360 360 358 359 359 -193 -193 -193 361 360 -209 -209 358 359 -209 -209 -193 -193 -193 -209 -193 -193 -193 362 364 364 -193 364 -193 -193 -193 -193 -193 362 361 362 362 363 363 363 362 363 363 -193 -193 -193 -193 -193 358 356 356 353 -193 354 355 353 352 351 353 350 355 354 358 357 356 -193 978 978 979 976 973 -193 -193 -193 -193 349 352 351 354 -209 -193 348 351 354 357 357 354 354 354 356 357 358 357 356 -193 -209 -193 -193 -193 362 -193 361 -193 360 357 356 354 354 353 353 355 353 351 -193 -209 -193 -193 350 354 351 -193 -193 -193 -193 -209 -177 -193 -209 -209 -193 -193 189 193 -209 -209 -193 354 351 352 -193 -193 -193 -209 -209 -209 345 -193 -193 345 -193 346 347 347 347 -209 -209 -209 349 350 349 -193 -193 -193 -193 -209 -209 -193 -209 -209 347 -209 -209 -209 -209 -193 -193 345 346 346 345 -209 -209 -209 346 346 -209 -209 -209 346 0 0 0 0 0
    0 0 0 0 0 0 0 0 0 0 0 0 0 0 0 0 0 0 0 0 0 0 0 0 0 0 0 0 0 0 0 0 0 0 0 0 0 0 0 0 0 0 0 0 0 0 0 0 0 0 0 0 0 0 0 0 0 0 0 0 0 0 0 0 0 0 0 0 0 -177 -193 -209 -209 -177 -177 -209 -209 -193 -193 364 366 366 368 367 369 366 367 366 368 368 367 365 365 366 367 367 368 367 366 367 365 365 364 363 363 363 362 363 361 364 363 365 -193 365 364 -193 362 -193 -193 -193 360 360 360 359 360 360 359 360 358 359 359 359 360 360 362 360 -193 -193 359 360 -193 -193 -193 33 -193 -193 -209 -193 363 362 364 364 362 363 364 363 -193 -193 362 361 360 362 361 362 362 362 361 361 362 -193 358 356 357 357 358 356 357 354 -193 355 356 354 353 352 353 351 355 354 358 357 356 356 -193 -193 -193 -193 -193 352 354 -193 352 350 353 353 354 355 350 349 351 353 357 356 355 355 354 356 357 357 356 355 -193 -193 -193 -193 -193 361 361 360 -193 359 356 355 353 353 352 352 355 353 351 351 -209 -193 -193 352 355 353 -193 -193 -193 -193 -209 -193 -209 -209 -209 -193 -193 188 191 -209 -209 -193 352 350 351 350 347 -177 -193 346 -193 345 346 345 345 346 346 347 347 348 -209 -209 -193 349 350 349 346 -193 -193 -193 347 346 347 346 345 347 -193 -193 347 347 -193 346 345 346 346 345 348 347 -193 347 347 347 -193 -209 347 0 0 0 0 0
    0 0 0 0 0 0 0 0 0 0 0 0 0 0 0 0 0 0 0 0 0 0 0 0 0 0 0 0 0 0 0 0 0 0 0 0 0 0 0 0 0 0 0 0 0 0 0 0 0 0 0 0 0 0 0 0 0 0 0 0 0 0 0 0 0 0 0 0 0 -177 -177 -209 -209 -193 -209 -209 -193 -193 364 364 366 366 369 367 369 367 368 366 368 368 367 365 366 365 366 367 368 367 365 366 365 365 364 363 362 362 362 362 361 363 363 364 365 364 363 -193 361 -209 -193 361 360 360 360 359 360 360 360 360 359 360 359 360 361 360 362 361 -209 -193 359 361 362 362 -193 -193 -193 -193 -193 365 363 363 364 364 363 363 364 363 363 364 362 361 360 361 360 361 361 -193 360 360 360 358 357 356 357 357 357 356 356 354 357 355 356 354 353 352 353 351 355 355 359 359 357 357 358 356 357 356 353 353 354 -193 354 351 354 354 355 356 351 350 351 353 357 356 355 355 354 356 357 357 356 354 355 -193 -193 -193 361 361 360 359 358 358 355 354 352 353 352 353 354 353 351 352 351 354 350 352 355 353 353 354 355 354 351 -193 -209 -209 -209 -209 -209 -209 -193 -209 -209 352 351 349 350 349 347 345 346 346 345 345 346 345 345 346 347 348 347 348 348 346 348 349 350 349 346 346 347 347 347 346 347 346 345 348 350 347 347 347 347 346 345 346 347 346 349 348 348 348 348 348 -193 -193 347 0 0 0 0 0
    0 0 0 0 0 0 0 0 0 0 0 0 0 0 0 0 0 0 0 0 0 0 0 0 0 0 0 0 0 0 0 0 0 0 0 0 0 0 0 0 0 0 0 0 0 0 0 0 0 0 0 0 0 0 0 0 0 0 0 0 0 0 0 0 0 0 0 0 0 -193 -209 366 365 365 365 364 364 364 364 364 366 366 370 368 370 368 368 366 367 367 367 365 365 365 364 365 366 366 364 364 363 363 363 363 362 362 362 362 361 363 363 364 365 364 363 362 361 362 360 360 360 360 360 360 360 360 360 361 360 361 360 361 361 361 362 362 361 361 360 362 363 363 364 363 363 363 363 364 363 363 364 364 363 363 363 363 363 363 362 361 360 361 360 360 360 -193 359 359 359 357 357 356 357 357 357 356 357 355 357 356 356 355 354 353 354 352 355 355 358 358 356 356 357 356 357 356 353 353 354 355 354 353 356 355 355 356 353 352 352 354 357 356 355 355 354 356 356 357 356 354 355 358 -193 360 360 359 359 358 358 358 355 354 352 354 353 354 355 353 352 353 353 354 351 352 355 353 353 353 355 354 352 351 349 -209 -209 -209 -209 -209 350 -193 353 351 350 349 350 348 347 346 346 346 346 345 346 346 346 346 347 348 347 348 348 346 348 349 349 349 346 346 347 347 347 346 346 346 346 348 350 347 347 347 348 347 346 347 347 347 351 350 350 350 350 350 348 348 348 0 0 0 0 0
    0 0 0 0 0 0 0 0 0 0 0 0 0 0 0 0 0 0 0 0 0 0 0 0 0 0 0 0 0 0 0 0 0 0 0 0 0 0 0 0 0 0 0 0 0 0 0 0 0 0 0 0 0 0 0 0 0 0 0 0 0 0 0 0 0 0 0 0 0 367 366 365 365 365 364 364 363 364 364 364 365 366 370 368 370 369 368 367 -193 367 367 365 366 365 364 364 366 365 364 363 363 362 362 362 361 362 362 362 362 363 363 363 363 363 362 361 361 361 360 360 360 360 360 360 360 360 361 361 361 361 361 362 362 362 362 362 362 362 361 364 364 363 364 364 363 363 363 364 362 362 363 363 362 363 363 363 362 363 362 361 360 360 359 360 360 -193 359 358 359 357 358 357 357 357 357 356 357 356 357 356 356 356 355 354 354 353 354 355 357 358 355 355 356 355 356 355 354 354 354 355 355 354 356 355 356 356 354 355 353 354 356 355 355 355 354 355 355 356 356 352 353 355 357 358 358 357 357 357 357 356 354 354 352 354 353 354 355 353 353 353 353 354 352 353 355 353 353 353 354 352 351 350 349 349 -193 351 351 350 350 352 353 352 350 349 349 349 348 347 346 346 346 346 346 346 346 347 347 348 347 348 348 346 348 349 349 348 346 346 347 346 347 345 346 346 345 347 349 346 346 347 347 347 346 347 348 348 353 351 352 352 352 351 349 349 349 0 0 0 0 0
    0 0 0 0 0 0 0 0 0 0 0 0 0 0 0 0 0 0 0 0 0 0 0 0 0 0 0 0 0 0 0 0 0 0 0 0 0 0 0 0 0 0 0 0 0 0 0 0 0 0 0 0 0 0 0 0 0 0 0 0 0 0 0 0 0 0 0 0 0 366 366 365 364 365 364 363 363 364 363 363 365 365 369 367 368 368 367 366 -193 366 367 364 365 365 364 364 365 364 363 362 362 361 361 361 360 361 361 362 362 362 363 362 363 363 362 361 360 361 359 360 360 360 360 360 360 360 361 361 361 362 362 363 363 363 363 363 363 362 361 364 365 364 364 363 363 363 363 363 362 362 -193 363 362 363 362 362 362 363 361 360 359 360 359 359 359 360 359 358 359 358 358 358 358 358 357 357 358 358 358 357 357 357 356 355 355 354 353 355 355 357 354 354 355 354 355 355 354 354 353 354 354 354 355 355 355 355 355 356 354 354 356 355 355 354 354 354 353 354 354 349 350 350 353 355 354 355 355 355 355 355 353 353 352 354 353 353 354 352 352 353 353 354 352 353 355 353 353 354 352 351 350 349 349 349 350 350 350 350 350 351 352 351 350 350 349 348 348 348 347 347 347 347 347 347 347 347 347 348 347 347 347 346 348 348 348 347 -193 -193 346 -193 347 345 345 345 344 346 347 346 346 347 347 347 347 348 349 349 354 353 352 353 353 351 349 349 349 0 0 0 0 0
    0 0 0 0 0 0 0 0 0 0 0 0 0 0 0 0 0 0 0 0 0 0 0 0 0 0 0 0 0 0 0 0 0 0 0 0 0 0 0 0 0 0 0 0 0 0 0 0 0 0 0 0 0 0 0 0 0 0 0 0 0 0 0 0 0 0 0 0 0 366 365 365 364 365 364 364 363 364 363 363 364 364 368 366 367 367 366 366 366 366 367 364 365 364 363 363 364 364 363 362 362 361 361 361 360 361 361 362 362 363 363 363 363 363 362 362 361 361 360 360 360 360 359 360 360 360 360 361 362 362 362 363 363 363 364 364 363 362 361 364 365 365 365 363 363 363 363 363 362 -193 -193 362 362 362 361 361 361 361 360 359 359 359 358 359 359 359 359 358 359 358 359 359 359 359 358 358 360 360 360 359 358 358 357 357 356 356 354 355 355 357 355 355 354 353 354 354 354 354 353 354 354 354 354 354 355 355 354 356 354 354 356 355 355 354 354 353 352 352 353 348 348 347 350 353 353 354 354 355 354 354 353 353 352 354 353 352 353 352 352 352 352 353 351 352 354 353 352 353 353 351 351 350 350 349 350 350 350 350 350 350 350 349 348 348 348 347 347 347 347 347 347 346 347 347 347 346 346 347 347 346 346 345 346 347 348 347 -193 -193 346 -193 347 345 345 344 344 345 346 345 345 345 346 346 347 348 349 349 353 352 352 352 353 352 349 350 349 0 0 0 0 0
    0 0 0 0 0 0 0 0 0 0 0 0 0 0 0 0 0 0 0 0 0 0 0 0 0 0 0 0 0 0 0 0 0 0 0 0 0 0 0 0 0 0 0 0 0 0 0 0 0 0 0 0 0 0 0 0 0 0 0 0 0 0 0 0 0 0 0 0 0 365 364 364 364 364 364 364 363 365 363 364 365 364 369 366 367 367 366 366 366 365 366 363 365 364 363 363 364 364 363 362 363 361 361 361 360 361 361 362 363 363 364 363 363 364 363 362 361 361 360 359 360 359 359 359 359 359 360 361 362 361 362 363 363 363 364 365 363 363 362 365 366 366 366 364 364 364 363 363 362 -193 -193 362 362 362 361 361 361 362 360 359 359 359 358 359 359 359 359 358 358 358 359 359 360 360 360 360 362 362 362 361 360 -193 359 358 358 358 356 357 356 358 355 356 355 354 354 355 354 354 353 353 354 354 354 354 355 355 354 355 355 354 356 354 355 353 353 353 351 351 352 348 348 346 349 352 353 354 354 354 354 354 353 354 352 355 354 353 354 353 353 353 352 353 351 352 354 353 352 352 352 350 351 349 349 349 349 350 350 349 349 349 350 349 348 348 348 347 347 348 347 347 347 347 347 347 346 346 346 346 346 346 347 345 346 347 347 347 -193 -193 347 347 348 346 345 344 344 345 346 345 344 344 345 346 346 348 349 350 353 352 353 352 353 352 350 351 350 0 0 0 0 0
    0 0 0 0 0 0 0 0 0 0 0 0 0 0 0 0 0 0 0 0 0 0 0 0 0 0 0 0 0 0 0 0 0 0 0 0 0 0 0 0 0 0 0 0 0 0 0 0 0 0 0 0 0 0 0 0 0 0 0 0 0 0 0 0 0 0 0 0 0 364 363 364 364 364 364 363 363 365 363 365 365 365 369 366 367 367 366 -193 -193 365 367 364 365 364 363 363 365 364 364 362 363 361 361 361 360 360 360 362 362 362 363 362 363 363 362 362 361 361 361 360 361 360 359 360 360 360 360 361 362 361 362 363 363 363 364 365 364 363 362 366 366 365 365 364 364 364 363 363 -193 -193 -193 363 362 363 362 362 362 362 361 360 359 359 358 359 358 359 359 358 358 358 359 359 360 360 360 361 362 362 362 361 361 -193 360 359 359 359 357 358 357 359 356 357 355 355 354 355 354 354 353 354 355 355 355 355 356 355 355 355 355 354 356 354 355 353 353 352 351 350 352 348 348 345 347 352 352 354 354 354 354 354 354 355 353 356 355 354 355 354 355 355 355 354 353 354 356 354 353 351 351 349 350 348 348 348 348 348 349 348 349 349 349 349 348 348 349 348 348 348 348 348 347 346 346 346 346 346 345 345 346 346 347 345 345 347 348 347 345 -193 347 348 348 347 346 346 346 347 346 345 344 344 345 346 346 348 349 352 354 352 353 352 353 352 350 351 350 0 0 0 0 0
    0 0 0 0 0 0 0 0 0 0 0 0 0 0 0 0 0 0 0 0 0 0 0 0 0 0 0 0 0 0 0 0 0 0 0 0 0 0 0 0 0 0 0 0 0 0 0 0 0 0 0 0 0 0 0 0 0 0 0 0 0 0 0 0 0 0 0 0 0 365 364 364 363 364 363 364 363 365 363 364 364 365 369 366 367 367 365 -193 -193 365 367 363 365 364 363 363 365 364 363 361 361 360 360 360 359 360 360 361 361 362 363 362 363 363 362 362 362 361 361 360 363 361 360 361 361 361 361 362 363 362 362 364 364 364 364 365 364 363 362 366 365 365 364 364 363 363 363 363 362 362 363 363 363 363 362 362 363 362 361 360 359 359 358 358 358 358 358 357 357 357 358 359 360 360 361 361 362 363 362 361 361 361 360 359 359 359 358 358 358 359 356 357 355 356 354 355 355 354 353 354 355 355 355 355 356 355 355 356 356 354 356 354 355 353 353 352 350 350 352 348 348 346 348 352 353 355 355 355 355 355 355 356 355 357 357 355 356 356 357 357 357 355 354 355 357 356 354 351 352 349 350 349 349 348 349 349 349 348 349 349 349 349 349 349 349 348 348 348 348 348 347 346 346 346 345 345 345 344 345 345 346 344 345 347 348 347 346 346 348 349 349 347 347 346 347 347 346 345 344 345 346 346 347 349 350 353 354 353 354 352 353 352 350 350 349 0 0 0 0 0
    0 0 0 0 0 0 0 0 0 0 0 0 0 0 0 0 0 0 0 0 0 0 0 0 0 0 0 0 0 0 0 0 0 0 0 0 0 0 0 0 0 0 0 0 0 0 0 0 0 0 0 0 0 0 0 0 0 0 0 0 0 0 0 0 0 0 0 0 0 365 364 364 364 364 364 364 362 365 363 365 364 365 368 365 366 -193 364 -209 -209 -193 366 363 365 364 364 363 365 364 363 361 362 359 360 361 360 362 361 361 361 362 363 362 362 363 361 363 362 362 362 360 364 361 360 361 361 361 362 363 363 362 363 365 364 365 365 366 365 364 363 367 366 365 364 363 362 363 363 362 361 362 363 363 362 362 361 362 362 362 361 359 359 360 359 359 358 358 358 358 357 357 359 359 360 361 -193 361 362 363 362 361 360 360 359 359 359 359 358 359 357 359 356 357 355 356 354 355 354 354 352 353 354 355 355 355 357 355 355 356 356 354 356 354 355 353 353 352 350 349 352 349 349 347 349 352 353 355 356 355 356 356 355 357 357 358 358 356 357 356 358 357 357 355 355 355 357 356 355 352 353 349 351 350 350 349 349 350 350 349 350 350 350 350 349 -193 349 348 348 348 348 348 347 346 346 346 344 345 344 342 344 344 346 343 344 347 348 348 347 347 349 349 349 347 347 346 346 346 346 345 344 345 346 346 348 349 351 355 355 355 354 352 353 352 350 349 348 0 0 0 0 0
    0 0 0 0 0 0 0 0 0 0 0 0 0 0 0 0 0 0 0 0 0 0 0 0 0 0 0 0 0 0 0 0 0 0 0 0 0 0 0 0 0 0 0 0 0 0 0 0 0 0 0 0 0 0 0 0 0 0 0 0 0 0 0 0 0 0 0 0 0 364 363 364 363 363 363 363 362 365 363 365 364 365 368 365 365 365 364 -209 -209 -193 366 363 365 364 364 363 365 365 364 362 363 360 360 361 360 363 361 362 361 362 363 362 363 364 362 364 363 363 362 361 365 361 361 361 361 361 362 362 363 361 363 364 364 364 364 365 364 363 363 365 364 364 363 362 362 362 362 361 361 361 362 362 362 361 360 360 361 361 360 359 359 360 359 360 359 359 359 359 358 358 359 361 361 362 362 362 363 363 363 362 360 360 359 358 358 358 357 358 356 358 355 356 355 355 354 355 354 354 352 353 355 355 356 355 357 355 355 356 356 354 355 354 355 353 354 352 350 349 352 349 349 347 349 352 353 355 356 355 356 355 356 357 358 358 359 356 357 356 358 357 357 355 355 354 357 356 355 352 353 349 351 350 350 350 350 351 350 350 351 351 351 351 350 -193 349 349 348 348 348 348 347 347 347 346 345 345 343 341 343 342 345 342 343 346 347 347 347 347 349 349 349 347 347 346 346 346 345 345 344 344 346 346 348 351 353 356 356 355 354 350 351 350 349 348 347 0 0 0 0 0
    0 0 0 0 0 0 0 0 0 0 0 0 0 0 0 0 0 0 0 0 0 0 0 0 0 0 0 0 0 0 0 0 0 0 0 0 0 0 0 0 0 0 0 0 0 0 0 0 0 0 0 0 0 0 0 0 0 0 0 0 0 0 0 0 0 0 0 0 0 364 363 364 364 364 364 364 363 365 364 366 363 363 366 364 365 365 364 -193 -193 365 365 363 365 364 364 364 365 366 365 363 365 362 361 361 360 362 361 361 361 361 -193 362 363 364 362 364 363 363 363 361 365 361 361 361 361 361 361 362 362 361 363 364 363 363 364 363 362 362 362 363 363 362 361 360 361 362 362 361 360 361 362 362 361 361 359 360 360 360 359 359 359 360 359 360 359 359 359 359 359 359 360 362 362 363 363 362 363 364 363 362 360 360 359 358 359 358 358 358 356 358 355 357 355 355 355 355 355 355 353 354 355 355 356 355 357 355 354 356 356 354 355 354 354 352 353 352 350 349 351 349 349 346 348 351 352 355 356 354 356 354 355 357 357 357 358 354 356 355 358 357 356 354 355 354 357 356 354 351 352 349 350 349 350 350 350 352 351 351 353 352 352 352 -193 -193 349 349 348 348 348 348 347 346 346 346 345 344 342 341 342 342 344 342 343 346 346 347 347 347 349 349 349 347 347 345 346 345 345 344 344 344 345 345 348 352 354 357 356 355 353 349 350 349 348 347 346 0 0 0 0 0
    0 0 0 0 0 0 0 0 0 0 0 0 0 0 0 0 0 0 0 0 0 0 0 0 0 0 0 0 0 0 0 0 0 0 0 0 0 0 0 0 0 0 0 0 0 0 0 0 0 0 0 0 0 0 0 0 0 0 0 0 0 0 0 0 0 0 0 0 0 364 363 365 365 365 364 365 363 365 364 366 363 -209 -193 364 365 365 364 -193 -193 -193 366 363 366 364 365 364 366 367 366 365 366 363 361 361 360 361 361 361 -193 -209 -209 363 363 365 363 365 364 364 363 362 366 361 361 361 361 361 361 362 362 361 362 364 363 363 364 363 362 361 361 362 362 361 359 359 360 361 361 361 361 361 363 362 362 361 360 360 361 361 359 359 359 360 359 360 359 359 359 359 359 359 360 362 363 364 364 363 364 364 364 362 361 361 359 359 359 359 358 358 357 358 356 357 356 356 355 355 355 355 354 355 356 356 356 356 357 355 354 355 355 354 354 354 354 352 353 352 351 350 351 349 348 346 347 349 350 353 355 353 356 354 356 358 358 357 357 354 355 355 356 356 355 353 354 353 356 356 354 352 353 349 351 349 350 351 350 353 351 351 352 352 352 352 351 -193 349 350 348 348 348 348 347 346 346 346 344 344 343 341 342 342 344 343 344 346 347 348 348 348 350 350 349 348 348 346 346 345 345 344 343 344 345 345 348 351 354 357 356 355 353 349 350 348 348 346 345 0 0 0 0 0
    0 0 0 0 0 0 0 0 0 0 0 0 0 0 0 0 0 0 0 0 0 0 0 0 0 0 0 0 0 0 0 0 0 0 0 0 0 0 0 0 0 0 0 0 0 0 0 0 0 0 0 0 0 0 0 0 0 0 0 0 0 0 0 0 0 0 0 0 0 365 364 366 365 365 365 366 363 365 364 366 -193 -209 -209 -193 -193 365 -193 -209 -209 -209 -193 363 -193 363 363 363 365 367 365 366 365 362 360 360 359 360 360 -193 -209 -209 -209 -193 -193 365 364 365 364 364 364 363 367 362 361 362 361 361 361 362 363 361 362 364 363 364 364 363 362 361 362 362 361 360 359 359 360 361 361 361 361 362 363 363 362 362 360 361 361 360 359 359 359 360 359 360 360 360 359 359 358 359 359 361 362 -193 363 362 363 363 363 362 361 361 359 359 359 359 358 358 357 358 356 357 356 356 356 356 356 356 356 357 357 357 358 357 358 356 355 355 356 354 354 354 354 352 353 352 351 350 350 349 348 346 346 347 348 350 353 352 356 355 356 359 359 357 357 354 355 354 356 355 355 352 354 353 355 355 354 352 353 350 351 350 351 352 352 354 351 351 352 352 352 352 351 -193 349 350 349 349 349 348 347 346 346 345 344 344 343 342 342 342 345 344 346 348 348 349 349 349 352 352 350 349 350 347 346 345 345 344 343 343 344 343 347 349 353 355 356 354 352 348 349 348 347 345 344 0 0 0 0 0
    0 0 0 0 0 0 0 0 0 0 0 0 0 0 0 0 0 0 0 0 0 0 0 0 0 0 0 0 0 0 0 0 0 0 0 0 0 0 0 0 0 0 0 0 0 0 0 0 0 0 0 0 0 0 0 0 0 0 0 0 0 0 0 0 0 0 0 0 0 365 364 366 365 365 365 366 363 365 364 366 -209 -209 -209 -209 -209 -193 -193 -209 -209 -209 -209 -193 364 363 -193 363 365 365 364 366 364 361 360 360 358 360 360 360 -209 -209 -209 -193 -209 365 -193 -193 364 365 364 363 369 363 362 363 362 362 362 363 363 360 362 364 363 363 363 362 362 360 361 -193 361 360 360 359 361 361 362 361 361 362 362 362 362 361 360 360 360 360 359 359 358 359 359 359 359 359 359 359 358 358 359 360 -193 -209 -209 -193 362 362 362 362 361 361 359 358 358 358 358 357 357 357 355 356 355 356 356 357 357 357 357 358 359 359 359 359 359 357 356 356 356 354 355 354 354 351 352 352 351 350 350 348 348 346 346 347 347 348 350 352 355 355 356 358 358 357 357 355 355 355 356 355 355 353 354 353 354 355 354 352 353 350 350 349 350 352 352 354 350 350 351 352 352 352 352 -193 -193 352 350 350 349 349 348 346 346 345 344 344 343 343 344 343 346 345 348 349 349 349 350 350 353 353 351 350 351 347 347 346 345 344 343 343 344 343 346 348 353 354 355 353 351 348 348 348 347 345 344 0 0 0 0 0</data></disparity>
</opencv_storage>
