<?xml version="1.0"?>
<opencv_storage>
<gps_time_stamp>38042</gps_time_stamp>
<gps_x>-1.3539913177490234e+001</gps_x>
<gps_y>1.4421147108078003e+000</gps_y>
<gps_z>-3.9167504310607910e+000</gps_z>
<image_time_stamp>25964</image_time_stamp>
<disparity type_id="opencv-matrix">
  <rows>93</rows>
  <cols>320</cols>
  <dt>s</dt>
  <data>
    0 0 0 0 0 0 0 0 0 0 0 0 0 0 0 0 0 0 0 0 0 0 0 0 0 0 0 0 0 0 0 0 0 0 0 0 0 0 0 0 0 0 0 0 0 0 0 0 0 0 0 0 0 0 0 0 0 0 0 0 0 0 0 0 0 0 0 0 0 0 0 0 0 0 9 9 9 0 0 9 10 9 9 0 0 0 0 0 0 0 0 0 0 0 0 0 0 0 0 0 0 0 0 0 0 0 0 0 0 9 9 13 9 9 0 9 9 0 0 0 0 0 0 0 9 0 9 9 9 9 9 9 9 0 9 0 0 0 0 9 9 10 11 15 15 16 14 14 12 13 12 10 9 0 0 0 0 9 -193 0 -193 9 10 10 10 10 10 11 10 11 12 11 11 11 10 9 0 0 0 0 0 0 9 0 0 0 0 9 9 0 9 9 11 13 13 18 13 13 11 10 9 0 0 0 0 0 0 9 9 15 12 12 12 12 12 12 15 12 9 10 13 13 13 14 13 12 14 19 15 14 14 14 13 15 15 18 12 15 19 17 16 18 17 17 15 19 18 16 17 19 17 19 19 18 18 22 22 23 23 23 23 23 23 23 22 21 20 23 24 24 25 25 25 24 23 22 22 23 23 22 22 22 21 23 25 24 24 22 26 30 28 30 29 29 29 30 30 29 30 30 30 30 32 33 32 34 37 36 40 42 44 44 43 43 43 0 0 0 0 0
    0 0 0 0 0 0 0 0 0 0 0 0 0 0 0 0 0 0 0 0 0 0 0 0 0 0 0 0 0 0 0 0 0 0 0 0 0 0 0 0 0 0 0 0 0 0 0 0 0 0 0 0 0 0 0 0 0 0 0 0 0 0 0 0 0 0 0 0 0 0 0 0 0 0 9 0 0 0 0 0 9 9 0 0 0 0 0 0 0 0 0 0 0 0 0 0 0 0 0 0 0 0 0 0 0 0 0 0 0 0 0 11 9 0 0 0 9 0 0 0 0 0 0 0 10 9 10 9 9 9 9 10 10 0 0 0 0 0 0 9 0 10 10 13 12 13 12 13 11 12 11 9 0 0 0 0 0 9 -193 0 -193 9 10 10 10 11 10 11 11 11 11 11 12 11 -193 10 0 0 0 0 -193 0 10 0 0 9 9 10 10 9 10 9 11 12 12 17 12 12 10 10 9 0 0 0 0 0 0 0 0 14 12 12 11 12 12 12 15 12 9 10 13 13 13 14 13 12 14 20 15 14 14 15 13 14 15 18 12 15 19 17 16 17 17 17 15 19 18 15 18 19 17 20 19 19 19 22 22 22 22 22 22 22 22 23 21 20 19 22 23 23 23 25 24 24 22 22 22 22 22 22 22 22 21 23 24 24 23 25 -193 32 -193 31 30 30 29 30 30 29 30 30 30 29 31 32 31 33 35 33 38 40 40 41 40 42 41 0 0 0 0 0
    0 0 0 0 0 0 0 0 0 0 0 0 0 0 0 0 0 0 0 0 0 0 0 0 0 0 0 0 0 0 0 0 0 0 0 0 0 0 0 0 0 0 0 0 0 0 0 0 0 0 0 0 0 0 0 0 0 0 0 0 0 0 0 0 0 0 0 0 0 0 0 0 0 0 9 9 0 0 0 0 9 9 0 0 0 0 0 0 0 0 0 0 0 0 0 0 0 0 0 0 0 0 0 0 0 0 0 0 0 0 0 9 9 0 0 0 0 0 0 0 0 0 0 0 11 10 10 10 9 9 9 10 10 0 0 0 0 0 0 9 0 10 10 12 11 12 12 12 11 13 10 10 9 0 0 9 0 10 -193 -193 -193 9 10 10 10 11 -209 11 -193 -193 -193 -193 11 -193 -193 10 -193 -193 -193 -193 -193 -193 10 9 9 10 10 11 11 10 10 9 11 12 11 15 11 12 10 9 9 0 0 0 0 0 0 0 0 14 11 11 11 12 12 12 16 12 9 10 14 13 12 13 12 11 13 19 14 14 14 15 14 15 16 18 12 15 19 16 16 17 17 16 16 18 18 15 18 18 18 20 19 20 19 21 21 21 21 21 21 21 20 22 20 19 21 23 24 24 24 26 25 24 22 21 21 22 21 21 21 21 20 23 24 25 23 26 28 34 -193 31 30 30 29 30 30 29 30 30 29 29 30 31 30 31 33 31 35 37 38 38 37 39 38 0 0 0 0 0
    0 0 0 0 0 0 0 0 0 0 0 0 0 0 0 0 0 0 0 0 0 0 0 0 0 0 0 0 0 0 0 0 0 0 0 0 0 0 0 0 0 0 0 0 0 0 0 0 0 0 0 0 0 0 0 0 0 0 0 0 0 0 0 0 0 0 0 0 0 0 0 0 0 0 9 9 0 0 0 0 10 9 0 0 0 0 0 0 0 0 0 0 0 0 0 0 0 0 0 0 0 0 0 0 0 0 0 0 0 0 0 10 9 0 0 0 0 0 0 0 0 0 0 0 12 10 11 10 9 9 9 10 10 0 0 0 0 0 0 9 8 10 9 12 11 11 11 12 11 13 10 11 -177 9 9 10 9 11 -193 9 -193 -193 10 -193 -193 -193 -193 -193 268 270 -193 -193 -209 -209 -209 -193 -209 -209 -193 -193 -193 -193 11 10 9 11 10 11 11 10 10 0 10 12 11 13 10 11 10 9 9 0 0 0 0 0 0 0 0 13 11 11 11 12 12 12 17 13 9 12 14 14 12 14 13 12 13 19 14 14 14 15 14 15 16 17 12 15 19 16 16 17 16 16 16 18 18 14 18 19 18 20 20 21 20 21 22 21 21 21 21 21 20 22 20 17 22 25 26 27 26 28 28 25 21 21 21 22 21 21 21 20 19 23 24 25 23 27 29 35 -193 31 30 30 29 29 30 29 30 30 30 29 30 31 30 31 32 30 34 36 37 36 36 38 36 0 0 0 0 0
    0 0 0 0 0 0 0 0 0 0 0 0 0 0 0 0 0 0 0 0 0 0 0 0 0 0 0 0 0 0 0 0 0 0 0 0 0 0 0 0 0 0 0 0 0 0 0 0 0 0 0 0 0 0 0 0 0 0 0 0 0 0 0 0 0 0 0 0 0 0 0 0 0 0 9 9 0 0 0 0 9 9 0 0 0 0 0 0 0 0 0 0 0 0 0 0 0 0 0 0 0 0 9 8 0 0 0 0 9 10 9 11 9 0 0 0 0 0 0 0 0 0 0 0 12 10 10 9 9 9 9 10 9 0 0 0 0 0 0 9 0 10 9 11 10 10 10 11 11 13 10 11 -177 9 9 10 0 11 -193 -193 -193 -193 -193 -193 -209 -209 -209 -193 268 270 -193 271 -209 -209 -193 -209 -193 -209 -209 -209 -193 -193 11 10 10 11 11 12 11 10 10 0 10 12 11 12 10 11 10 9 9 0 0 0 0 0 0 0 0 13 11 11 11 12 12 12 16 13 10 14 14 15 13 14 13 12 14 19 14 14 14 15 14 15 16 17 12 15 19 15 16 17 17 16 15 18 18 15 18 18 18 20 21 22 20 21 22 20 20 20 20 20 20 22 21 16 25 28 29 30 28 30 29 27 22 21 21 22 21 20 20 20 19 23 24 25 24 27 30 35 30 31 30 30 29 29 30 30 30 30 30 29 30 31 30 30 31 30 32 34 35 34 33 36 34 0 0 0 0 0
    0 0 0 0 0 0 0 0 0 0 0 0 0 0 0 0 0 0 0 0 0 0 0 0 0 0 0 0 0 0 0 0 0 0 0 0 0 0 0 0 0 0 0 0 0 0 0 0 0 0 0 0 0 0 0 0 0 0 0 0 0 0 0 0 0 0 0 0 0 0 0 0 0 0 0 0 0 0 0 0 9 9 0 0 0 0 0 0 0 0 0 0 0 0 0 0 0 0 0 0 0 9 9 9 9 9 0 9 11 10 0 10 9 0 0 0 0 0 0 0 0 0 0 0 12 10 10 9 0 9 9 9 9 0 0 0 0 0 0 9 9 10 9 11 10 10 10 11 10 12 9 10 9 9 -177 -177 -177 -193 0 -193 -193 -193 -193 -193 140 143 -193 -193 -193 270 -193 270 -193 -193 -193 -193 -209 -193 -209 -193 -209 -193 12 11 10 12 12 12 12 10 11 0 10 11 11 11 10 11 10 9 9 0 0 0 0 0 0 0 0 12 10 10 10 12 11 12 15 13 10 15 14 16 13 14 13 12 14 19 14 14 14 16 15 16 16 17 12 15 18 15 16 17 16 16 15 17 17 15 18 18 17 21 21 21 20 21 22 20 20 20 20 20 20 22 21 16 25 28 30 30 29 31 29 28 22 21 21 22 21 20 20 20 19 24 25 26 25 28 30 34 30 31 30 30 29 29 30 30 29 30 30 29 29 31 30 30 30 30 30 31 33 32 31 34 31 0 0 0 0 0
    0 0 0 0 0 0 0 0 0 0 0 0 0 0 0 0 0 0 0 0 0 0 0 0 0 0 0 0 0 0 0 0 0 0 0 0 0 0 0 0 0 0 0 0 0 0 0 0 0 0 0 0 0 0 0 0 0 0 0 0 0 0 0 0 0 0 0 0 0 0 0 0 0 0 0 0 0 0 0 0 0 0 0 0 0 0 0 0 0 0 0 0 0 0 0 0 0 0 0 0 0 9 10 10 10 10 0 11 12 11 0 10 9 0 0 0 0 0 0 9 0 0 0 0 12 10 10 9 0 0 0 9 9 0 0 0 0 0 0 9 9 10 9 10 -193 10 10 11 11 12 9 10 -193 9 -177 -177 -177 -193 -193 -193 -193 -193 -193 -193 140 144 -193 -193 -193 -193 -193 271 -193 -193 -193 -193 397 397 -193 -177 -209 -209 12 11 11 12 12 12 12 10 11 0 10 11 10 11 9 10 9 9 9 0 0 0 0 0 0 0 0 12 10 10 10 12 11 12 15 13 11 16 14 17 13 14 14 13 14 19 14 15 14 16 15 16 16 17 12 16 17 15 16 16 16 16 15 17 17 15 17 18 19 22 22 22 20 21 22 20 20 20 20 19 20 22 21 15 25 28 29 30 28 31 30 29 22 21 21 23 21 21 21 21 20 24 26 27 26 29 30 34 30 31 31 30 29 29 30 30 29 30 30 29 29 30 29 29 29 29 -193 30 32 31 30 33 31 0 0 0 0 0
    0 0 0 0 0 0 0 0 0 0 0 0 0 0 0 0 0 0 0 0 0 0 0 0 0 0 0 0 0 0 0 0 0 0 0 0 0 0 0 0 0 0 0 0 0 0 0 0 0 0 0 0 0 0 0 0 0 0 0 0 0 0 0 0 0 0 0 0 0 0 0 0 0 0 0 0 0 0 0 0 0 0 0 0 0 0 0 0 0 0 0 0 0 0 0 0 0 0 0 0 0 10 10 10 10 11 9 13 14 13 0 10 9 0 0 0 0 0 0 10 0 0 0 0 12 10 10 9 0 0 0 9 9 0 0 0 0 0 0 9 9 10 -193 10 -193 9 10 11 10 12 9 -193 -193 9 -177 -193 -193 -193 -193 -193 -193 -193 -193 -193 140 144 139 141 -193 -193 -193 -193 -193 -193 -193 -193 396 397 -193 397 -209 -209 12 11 11 12 -193 -193 -193 10 11 0 10 11 10 10 9 10 10 9 9 9 0 0 0 0 0 0 0 11 9 10 9 12 11 12 14 13 11 17 14 17 13 14 14 13 14 18 13 15 14 16 16 16 17 17 13 16 17 15 16 16 15 16 15 16 17 15 17 18 21 22 22 22 20 21 22 20 20 20 20 19 19 21 21 13 25 27 27 29 28 31 29 29 22 21 21 23 21 21 21 22 20 25 26 27 26 29 30 33 29 30 30 30 29 29 30 31 29 30 30 29 29 30 29 29 28 29 -193 30 31 31 30 33 31 0 0 0 0 0
    0 0 0 0 0 0 0 0 0 0 0 0 0 0 0 0 0 0 0 0 0 0 0 0 0 0 0 0 0 0 0 0 0 0 0 0 0 0 0 0 0 0 0 0 0 0 0 0 0 0 0 0 0 0 0 0 0 0 0 0 0 0 0 0 0 0 0 0 0 0 0 0 0 0 0 0 0 0 0 0 0 0 0 0 0 0 0 0 0 0 0 0 0 0 0 0 0 0 0 0 0 10 10 11 10 11 9 15 16 15 0 12 9 9 9 9 0 0 9 10 0 9 0 0 12 10 10 9 0 0 0 9 9 0 0 0 9 9 9 9 9 10 -193 10 -193 9 10 11 10 12 -193 -193 -193 -193 -193 -193 -177 -193 -177 -193 -193 -193 -193 -193 140 143 139 140 -193 -193 -193 -193 -193 -193 -193 -193 396 -193 -193 397 -209 -209 12 11 11 13 13 14 -193 11 11 0 10 11 10 10 9 10 10 9 10 9 0 0 0 0 0 0 0 11 9 10 9 12 11 12 14 13 11 17 14 17 13 14 14 13 14 18 13 15 14 16 16 16 17 17 13 16 17 15 15 15 15 15 14 15 16 14 17 19 23 23 23 22 20 21 22 20 20 19 19 18 19 21 20 12 25 27 27 28 28 31 30 29 22 22 22 24 22 22 22 22 21 25 27 27 25 29 30 32 29 29 29 30 29 29 29 30 29 31 30 29 29 30 29 30 29 30 28 30 30 31 30 33 31 0 0 0 0 0
    0 0 0 0 0 0 0 0 0 0 0 0 0 0 0 0 0 0 0 0 0 0 0 0 0 0 0 0 0 0 0 0 0 0 0 0 0 0 0 0 0 0 0 0 0 0 0 0 0 0 0 0 0 0 0 0 0 0 0 0 0 0 0 0 0 0 0 0 0 0 0 0 0 0 0 0 0 0 0 0 0 9 0 0 0 0 0 0 0 0 0 0 0 0 0 0 0 0 0 0 0 10 10 11 10 11 9 16 17 15 9 13 10 10 9 10 9 0 9 10 0 9 0 0 11 10 9 0 0 0 0 0 0 0 0 0 9 9 9 10 9 10 -193 10 -193 9 10 11 10 12 -193 -193 -209 -193 -193 -209 -193 -193 -177 -193 -193 -193 -209 -193 140 143 139 140 -193 -209 -209 -193 -193 -193 397 -193 -193 -193 -193 -209 -209 -193 12 -193 11 12 13 14 12 10 11 0 10 11 10 10 9 11 11 10 11 11 9 9 0 0 0 0 0 12 9 10 9 12 11 12 14 13 11 17 14 17 13 13 13 13 13 17 13 15 14 16 16 17 17 17 13 16 17 14 15 15 15 15 14 15 16 13 17 20 23 23 23 22 20 21 22 20 20 19 19 19 19 21 20 12 25 27 26 28 28 31 30 29 22 22 22 24 22 22 22 22 21 25 27 27 25 29 30 31 29 29 29 30 29 29 29 31 29 31 31 30 30 30 30 30 29 30 28 30 30 31 30 33 32 0 0 0 0 0
    0 0 0 0 0 0 0 0 0 0 0 0 0 0 0 0 0 0 0 0 0 0 0 0 0 0 0 0 0 0 0 0 0 0 0 0 0 0 0 0 0 0 0 0 0 0 0 0 0 0 0 0 0 0 0 0 0 0 0 0 0 0 0 0 0 0 0 0 0 0 0 0 0 0 0 9 0 0 0 0 9 9 0 0 0 0 0 9 0 0 0 0 0 0 0 0 0 0 0 0 0 10 10 11 11 11 9 15 16 14 10 13 11 10 10 10 9 0 9 9 0 0 0 0 10 9 8 0 0 0 0 0 0 0 0 0 10 9 10 10 9 11 9 11 -193 10 11 11 10 -193 -193 -193 -193 -209 -193 -209 -209 -193 0 -193 -193 -193 -209 -193 -193 143 -193 -193 -193 -209 -209 -209 -209 -193 396 -193 -193 -193 -193 -209 -209 -209 12 11 11 12 -193 13 -193 10 11 0 10 11 10 10 9 11 11 10 11 11 10 11 10 11 0 9 9 13 10 10 9 12 11 12 13 12 11 17 13 17 13 13 13 13 13 17 12 15 14 16 16 17 17 17 13 16 16 14 15 15 14 15 14 15 16 13 17 20 23 23 23 22 20 21 23 20 20 20 20 19 20 22 21 12 25 26 25 27 27 30 29 29 22 21 22 24 22 22 22 22 21 25 27 27 24 29 30 31 29 29 29 30 30 30 29 31 30 32 32 31 30 31 31 30 29 31 28 30 30 31 31 34 34 0 0 0 0 0
    0 0 0 0 0 0 0 0 0 0 0 0 0 0 0 0 0 0 0 0 0 0 0 0 0 0 0 0 0 0 0 0 0 0 0 0 0 0 0 0 0 0 0 0 0 0 0 0 0 0 0 0 0 0 0 0 0 0 0 0 0 0 0 0 0 0 0 0 0 0 0 0 0 0 0 9 0 0 0 0 0 0 0 0 0 0 9 9 9 9 0 9 0 0 0 0 0 0 0 0 0 10 11 11 11 12 9 14 15 14 10 13 11 11 9 10 9 0 9 0 0 0 0 0 0 0 0 0 0 0 0 0 0 0 0 0 10 10 10 10 9 10 9 10 -193 9 10 11 10 -193 10 11 -193 -193 -209 9 -193 -193 0 -193 -193 -193 9 -193 -193 -193 -193 -193 -193 -193 -209 -209 -209 -193 -209 -193 -209 -209 -209 -209 -209 -193 14 12 12 -193 -193 13 -193 11 11 0 10 11 10 10 10 11 11 11 11 12 11 12 11 12 0 0 9 12 10 10 10 12 11 12 13 12 11 16 13 16 13 14 13 13 13 16 12 15 14 16 16 17 17 17 14 16 16 14 15 15 14 15 14 15 16 13 17 20 22 23 22 21 20 21 23 20 20 20 20 20 21 22 21 12 24 25 24 26 27 29 28 28 21 21 22 24 22 22 22 22 20 25 27 27 25 29 30 31 30 30 30 30 31 30 30 32 30 32 32 32 31 31 31 31 29 31 28 30 30 31 31 35 35 0 0 0 0 0
    0 0 0 0 0 0 0 0 0 0 0 0 0 0 0 0 0 0 0 0 0 0 0 0 0 0 0 0 0 0 0 0 0 0 0 0 0 0 0 0 0 0 0 0 0 0 0 0 0 0 0 0 0 0 0 0 0 0 0 0 0 0 0 0 0 0 0 0 0 0 0 0 0 0 9 9 0 0 0 0 0 0 0 0 9 9 10 10 9 9 9 10 9 0 0 0 0 0 0 0 0 10 11 12 11 12 10 15 15 14 10 14 11 11 10 10 9 9 9 0 0 0 0 0 0 0 0 0 0 0 0 0 0 0 0 0 11 10 10 9 0 0 0 0 0 0 10 10 9 10 9 10 10 -193 -193 10 0 11 0 10 10 9 9 10 0 -193 -193 -193 -193 -193 11 -193 -193 12 -193 -193 -209 -193 -193 -209 271 -193 15 12 13 -193 -193 -193 -193 11 12 0 10 10 10 10 10 11 11 11 11 11 10 11 11 11 0 0 0 12 10 10 10 12 11 13 12 12 11 16 13 16 13 14 12 13 13 16 12 15 14 16 17 18 17 18 15 16 17 15 15 15 15 15 14 15 16 12 17 19 21 22 21 19 19 20 23 20 20 20 20 20 22 22 21 12 23 24 23 23 26 27 26 26 20 20 21 24 22 22 22 22 20 26 27 28 25 29 31 31 30 31 31 31 31 31 30 32 30 32 32 32 31 30 31 31 29 32 28 30 31 32 32 35 36 0 0 0 0 0
    0 0 0 0 0 0 0 0 0 0 0 0 0 0 0 0 0 0 0 0 0 0 0 0 0 0 0 0 0 0 0 0 0 0 0 0 0 0 0 0 0 0 0 0 0 0 0 0 0 0 0 0 0 0 0 0 0 0 0 0 0 0 0 0 0 0 0 0 0 0 0 0 0 0 9 9 0 0 0 0 0 0 8 0 10 10 11 12 10 10 10 10 0 0 0 0 0 0 0 0 0 10 11 12 12 12 10 14 13 13 10 13 12 11 10 11 10 10 10 0 0 0 0 0 0 0 0 0 0 0 0 0 0 0 0 0 11 12 11 0 0 0 0 0 0 0 0 9 9 9 9 10 10 -193 10 10 9 11 10 11 11 9 9 9 0 10 0 9 9 10 10 10 11 11 11 11 -209 -209 -193 -209 -209 -193 18 13 13 -193 -193 -193 -193 11 12 9 10 10 10 11 10 11 12 11 11 11 10 11 10 11 0 0 0 11 10 10 9 11 10 12 12 12 10 15 13 15 12 13 12 13 13 15 12 15 15 16 17 19 18 19 16 17 18 15 15 15 15 15 13 15 15 11 15 17 20 21 20 18 19 20 23 21 21 20 21 21 22 22 21 13 22 22 22 19 24 24 24 24 19 19 20 23 22 22 22 22 21 26 28 28 26 30 32 31 31 31 31 31 32 31 29 31 30 31 32 31 31 30 31 31 29 32 29 31 31 32 33 35 37 0 0 0 0 0
    0 0 0 0 0 0 0 0 0 0 0 0 0 0 0 0 0 0 0 0 0 0 0 0 0 0 0 0 0 0 0 0 0 0 0 0 0 0 0 0 0 0 0 0 0 0 0 0 0 0 0 0 0 0 0 0 0 0 0 0 0 0 0 0 0 0 0 0 0 0 0 0 0 0 8 9 0 0 0 0 0 0 9 0 9 10 11 12 10 9 9 9 0 0 0 0 0 8 8 8 0 10 11 11 11 12 9 13 12 11 10 12 11 11 10 11 9 10 9 0 0 0 0 0 0 0 0 0 0 0 0 0 0 0 0 0 10 13 12 0 0 0 0 0 0 0 0 0 0 0 0 9 10 -193 11 12 10 12 12 12 12 0 0 0 0 0 0 0 0 0 9 0 9 9 10 10 -193 -209 -193 -209 -209 9 19 13 14 -193 -193 -193 -193 12 12 9 10 10 10 11 11 11 12 12 12 11 10 11 11 13 9 0 0 11 9 9 9 11 10 12 11 11 10 14 13 14 12 13 11 12 12 14 12 15 14 16 17 19 18 20 16 16 18 16 15 15 15 15 13 15 16 11 17 20 21 22 19 19 19 21 24 21 21 21 21 22 22 22 21 12 21 21 21 17 22 22 22 23 19 19 20 23 22 22 23 23 21 26 28 28 26 30 33 31 31 30 31 31 32 31 29 30 30 31 32 31 31 30 31 31 29 32 29 31 30 31 32 34 36 0 0 0 0 0
    0 0 0 0 0 0 0 0 0 0 0 0 0 0 0 0 0 0 0 0 0 0 0 0 0 0 0 0 0 0 0 0 0 0 0 0 0 0 0 0 0 0 0 0 0 0 0 0 0 0 0 0 0 0 0 0 0 0 0 0 0 0 0 0 0 0 0 0 0 0 0 0 0 0 0 9 0 0 0 0 9 9 10 9 10 9 10 11 0 0 0 0 0 0 0 0 0 9 9 9 0 10 10 11 11 11 9 11 11 10 9 10 10 10 9 10 0 9 9 0 0 0 0 0 0 0 0 0 0 0 0 0 0 0 0 0 10 14 19 9 0 0 0 0 0 0 0 0 0 0 0 9 10 -193 11 13 11 12 12 11 11 9 0 0 0 0 0 0 0 0 0 0 0 0 9 9 -193 -209 -193 -209 -209 -193 19 13 13 -193 -193 -193 -193 12 12 9 10 11 10 11 11 12 13 13 13 12 11 11 11 13 9 0 0 10 9 9 9 10 9 11 11 10 10 13 12 12 11 12 10 11 11 12 11 14 14 15 16 18 19 20 16 16 19 16 16 15 15 15 13 15 16 10 19 21 21 22 18 18 18 21 23 21 21 21 21 22 23 23 22 13 21 21 21 16 21 21 21 23 18 18 20 23 22 22 23 23 21 27 28 29 26 30 34 31 31 31 31 31 32 30 29 30 30 31 32 31 31 30 32 32 30 33 30 31 30 31 32 33 35 0 0 0 0 0
    0 0 0 0 0 0 0 0 0 0 0 0 0 0 0 0 0 0 0 0 0 0 0 0 0 0 0 0 0 0 0 0 0 0 0 0 0 0 0 0 0 0 0 0 0 0 0 0 0 0 0 0 0 0 0 0 0 0 0 0 0 0 0 0 0 0 0 0 0 0 0 0 0 0 0 0 0 0 0 9 9 10 10 10 10 9 10 10 0 0 0 0 0 0 0 0 0 9 9 9 9 10 10 11 10 11 9 10 9 9 9 9 9 9 9 9 0 9 0 0 0 9 0 0 0 0 0 0 0 0 0 0 0 0 0 0 10 13 13 0 9 0 0 0 0 0 0 0 0 0 0 10 11 -193 11 14 12 13 12 12 12 11 0 0 0 -193 0 0 0 0 0 0 0 0 0 0 0 -209 -209 -209 -209 -193 19 13 13 -193 -193 -193 -193 11 12 9 9 10 10 11 11 12 13 13 12 11 10 11 10 12 0 0 0 9 0 0 9 9 0 10 9 9 9 11 11 11 10 11 9 10 10 12 11 12 14 15 15 18 19 20 16 16 19 16 16 16 15 15 14 16 16 10 19 21 21 21 18 17 17 20 23 21 21 21 22 23 23 23 22 13 21 21 20 16 21 20 20 22 18 18 19 22 22 22 22 23 20 27 28 29 26 31 35 31 32 31 32 31 32 30 29 30 30 31 31 30 32 30 33 32 30 33 30 31 31 30 32 33 35 0 0 0 0 0
    0 0 0 0 0 0 0 0 0 0 0 0 0 0 0 0 0 0 0 0 0 0 0 0 0 0 0 0 0 0 0 0 0 0 0 0 0 0 0 0 0 0 0 0 0 0 0 0 0 0 0 0 0 0 0 0 0 0 0 0 0 0 0 0 0 0 0 0 0 -193 0 0 0 0 0 0 0 0 0 9 10 10 10 11 10 9 9 9 0 0 0 0 0 0 0 0 0 8 8 8 0 10 10 11 10 11 9 10 9 9 0 0 0 0 0 9 0 0 0 0 0 9 0 0 0 0 0 0 0 0 0 0 0 0 0 0 10 12 0 0 0 0 0 0 0 0 0 0 0 0 0 9 10 -193 12 16 14 15 14 15 15 15 0 0 0 -193 -193 -193 -193 -193 -193 0 0 0 0 0 0 0 0 -209 -209 -177 18 13 13 -193 -193 -193 -193 11 12 9 9 10 10 11 10 12 12 12 12 11 10 11 9 12 0 0 0 9 0 0 0 0 0 9 9 9 9 11 11 10 10 11 10 10 10 13 12 13 15 15 15 18 19 19 15 16 20 16 16 16 16 15 14 16 17 11 22 22 21 21 18 18 17 20 -193 21 21 21 22 22 23 23 22 14 21 20 20 15 20 19 19 22 17 17 19 22 22 22 22 22 19 27 28 28 26 30 35 31 32 31 32 32 32 30 29 29 30 30 31 30 31 31 33 32 30 33 31 31 31 31 31 33 35 0 0 0 0 0
    0 0 0 0 0 0 0 0 0 0 0 0 0 0 0 0 0 0 0 0 0 0 0 0 0 0 0 0 0 0 0 0 0 0 0 0 0 0 0 0 0 0 0 0 0 0 0 0 0 0 0 0 0 0 0 0 0 0 0 0 0 0 0 0 0 0 0 0 0 -193 0 0 0 -193 9 9 9 0 0 9 10 9 9 10 0 0 0 0 0 0 0 0 0 0 0 0 0 0 0 0 0 -193 10 11 10 11 9 10 0 0 0 0 0 0 0 0 0 0 0 0 0 9 0 0 0 0 0 0 0 0 0 0 0 0 0 0 11 12 10 0 9 0 0 0 0 0 0 0 0 0 0 0 0 0 10 14 -225 13 -225 14 13 13 0 0 0 -193 -193 -193 -193 -193 -193 -193 -193 0 0 0 0 0 0 -209 -193 -177 18 13 13 13 -193 -193 -193 12 12 0 9 10 9 10 10 11 12 12 11 11 10 10 8 11 9 0 9 9 0 0 0 0 0 0 0 0 9 11 11 10 10 12 10 11 11 15 12 13 15 15 15 18 19 19 15 16 20 16 16 16 16 15 14 17 18 13 25 26 25 24 21 21 20 22 -193 21 21 21 21 22 23 23 22 14 21 21 20 14 21 19 19 22 17 16 19 21 22 21 22 22 19 26 27 28 26 30 34 31 32 31 32 31 32 30 29 29 30 30 31 30 32 31 32 33 30 33 31 31 31 30 31 33 34 0 0 0 0 0
    0 0 0 0 0 0 0 0 0 0 0 0 0 0 0 0 0 0 0 0 0 0 0 0 0 0 0 0 0 0 0 0 0 0 0 0 0 0 0 0 0 0 0 0 0 0 0 0 0 0 0 0 0 0 0 0 0 0 0 0 0 0 0 0 0 0 0 0 0 -177 -193 -193 0 -193 9 9 9 0 0 10 10 9 0 9 0 0 0 0 0 0 0 0 0 0 0 0 0 -193 9 9 0 -193 10 11 11 12 9 10 0 0 0 0 0 0 0 0 0 9 9 9 0 9 0 0 0 0 0 0 0 0 0 0 0 0 0 0 11 12 10 0 10 0 0 0 0 0 0 0 0 0 0 0 0 0 0 11 0 10 -225 -209 9 0 0 0 0 -193 -193 -193 -193 -193 -193 -193 -193 -193 0 0 0 0 0 -209 0 0 -177 13 13 13 -193 -193 -193 12 12 0 9 9 9 10 10 11 12 12 11 10 9 10 0 10 0 9 0 0 0 0 0 0 0 0 0 0 0 11 11 11 11 12 11 12 12 16 13 14 14 15 14 17 19 18 14 16 20 16 16 16 16 15 15 18 19 14 26 29 29 27 24 23 23 23 24 21 21 20 21 21 22 22 21 15 22 21 21 15 22 19 19 22 17 16 19 21 21 21 22 22 19 26 27 28 26 30 34 31 32 30 32 31 31 30 29 29 29 29 30 29 32 30 32 32 30 33 32 31 31 31 32 33 33 0 0 0 0 0
    0 0 0 0 0 0 0 0 0 0 0 0 0 0 0 0 0 0 0 0 0 0 0 0 0 0 0 0 0 0 0 0 0 0 0 0 0 0 0 0 0 0 0 0 0 0 0 0 0 0 0 0 0 0 0 0 0 0 0 0 0 0 0 0 0 0 0 0 0 -177 -193 -193 -193 -177 9 9 9 0 9 10 11 10 0 9 0 0 0 0 0 0 0 0 0 0 0 0 0 -193 -193 9 0 -209 10 11 11 12 10 11 9 9 0 0 0 0 0 0 0 0 0 9 0 9 0 0 0 0 0 0 0 0 0 0 0 0 0 0 10 12 10 9 10 0 0 0 0 0 0 0 0 0 0 0 0 0 0 0 -225 -225 -225 -225 0 0 0 0 0 -193 -193 -193 -193 -193 -193 -193 -193 0 0 0 0 0 0 -209 0 0 -177 12 13 13 -193 -193 -193 11 12 0 9 9 9 10 10 11 11 11 11 10 10 10 0 10 9 9 9 0 0 0 0 0 0 0 0 0 0 11 11 11 11 12 11 13 13 17 13 14 14 15 14 16 19 18 14 16 20 16 16 16 16 15 15 19 20 16 27 31 32 30 27 25 25 24 24 21 21 20 20 20 22 22 20 15 22 21 21 15 22 20 20 22 17 16 19 21 21 21 22 22 20 26 27 27 26 30 34 31 32 30 31 30 30 30 29 28 29 28 30 29 32 30 31 32 30 32 32 31 31 31 32 32 33 0 0 0 0 0
    0 0 0 0 0 0 0 0 0 0 0 0 0 0 0 0 0 0 0 0 0 0 0 0 0 0 0 0 0 0 0 0 0 0 0 0 0 0 0 0 0 0 0 0 0 0 0 0 0 0 0 0 0 0 0 0 0 0 0 0 0 0 0 0 0 0 0 0 0 -193 -193 -193 -209 -177 9 9 9 0 9 10 11 10 0 9 0 0 0 0 0 0 0 0 0 0 0 0 0 -177 -193 0 0 -209 10 11 10 11 9 11 9 8 0 0 0 0 0 0 0 0 0 9 0 9 0 0 0 0 0 0 0 0 0 0 0 0 0 0 10 12 10 9 10 0 0 0 0 0 0 0 0 0 0 0 0 0 0 -225 -225 -225 -225 -225 0 0 0 0 0 -193 -193 -193 -193 -193 -193 -193 -193 0 0 0 0 0 0 -209 0 0 -193 12 12 12 -193 -193 -193 11 12 9 9 9 9 10 10 12 12 11 11 10 10 10 0 10 9 9 0 0 0 0 0 0 0 0 0 0 0 11 10 11 11 12 11 13 13 18 13 14 14 15 14 16 19 17 13 16 20 16 16 16 16 15 16 19 20 18 29 32 34 32 29 27 26 25 24 21 20 20 20 19 21 21 18 14 21 20 20 14 22 20 21 23 18 17 20 21 21 21 22 21 20 25 26 27 26 29 34 31 31 30 31 30 30 29 29 28 28 28 29 29 31 30 31 31 31 32 32 31 31 31 33 33 33 0 0 0 0 0
    0 0 0 0 0 0 0 0 0 0 0 0 0 0 0 0 0 0 0 0 0 0 0 0 0 0 0 0 0 0 0 0 0 0 0 0 0 0 0 0 0 0 0 0 0 0 0 0 0 0 0 0 0 0 0 0 0 0 0 0 0 0 0 0 0 0 0 0 0 -193 -193 9 -209 -177 9 9 9 0 10 11 12 11 9 9 0 0 0 0 0 0 0 0 0 0 0 0 0 -177 -193 0 0 -193 10 11 10 11 9 11 10 0 0 0 0 0 0 0 0 0 0 9 0 0 0 0 0 0 0 0 0 0 0 0 0 0 0 0 10 12 10 9 10 0 0 0 0 0 0 0 0 0 0 0 0 0 0 -225 -225 -225 -225 -193 0 0 0 0 0 -193 -193 -193 -193 -193 -193 -193 -193 0 0 0 0 0 -193 -209 0 0 -193 12 12 12 11 -193 -193 11 12 9 9 9 9 10 10 12 12 11 10 11 10 10 0 9 0 9 0 0 0 0 0 0 0 0 0 0 0 11 10 11 11 11 11 12 12 17 13 14 13 15 14 16 19 16 13 16 20 16 16 16 16 14 17 20 21 21 29 33 34 33 29 27 26 25 24 21 20 20 19 19 20 20 17 14 20 20 20 14 22 21 22 23 19 18 21 21 21 21 21 21 20 25 25 26 26 29 33 31 31 30 31 30 29 29 30 28 28 28 30 29 31 30 30 31 30 31 31 30 31 31 34 33 32 0 0 0 0 0
    0 0 0 0 0 0 0 0 0 0 0 0 0 0 0 0 0 0 0 0 0 0 0 0 0 0 0 0 0 0 0 0 0 0 0 0 0 0 0 0 0 0 0 0 0 0 0 0 0 0 0 0 0 0 0 0 0 0 0 0 0 0 0 0 0 0 0 0 0 -193 -193 9 -193 -177 -193 10 10 0 11 13 13 12 9 9 0 0 0 0 0 0 0 0 0 0 0 0 0 -177 -193 0 0 599 10 12 11 12 10 11 10 9 0 0 0 0 0 0 0 0 0 9 0 0 0 0 0 0 0 0 0 0 0 0 0 0 0 0 10 11 8 0 9 0 0 0 0 0 0 0 0 0 0 0 0 0 0 0 0 0 0 0 0 8 0 0 9 9 -193 -193 -193 -193 -193 -193 -193 0 0 0 0 0 -193 -209 0 0 15 12 12 12 11 -193 9 10 11 9 9 9 9 10 10 12 11 10 10 11 11 10 0 0 0 0 0 0 0 0 0 0 0 0 0 0 0 11 10 11 10 11 11 12 12 17 12 13 13 15 14 16 19 15 12 17 19 16 16 16 16 14 19 -193 22 25 31 34 35 33 30 27 26 25 23 20 20 19 19 18 20 20 16 14 21 20 20 14 23 21 23 24 20 20 22 22 21 21 22 21 20 24 24 26 26 29 33 31 32 30 32 30 29 29 30 28 28 28 30 29 30 29 30 30 30 31 31 30 31 31 35 34 33 0 0 0 0 0
    0 0 0 0 0 0 0 0 0 0 0 0 0 0 0 0 0 0 0 0 0 0 0 0 0 0 0 0 0 0 0 0 0 0 0 0 0 0 0 0 0 0 0 0 0 0 0 0 0 0 0 0 0 0 0 0 0 0 0 0 0 0 0 0 0 0 0 0 0 9 9 10 9 -193 9 10 10 9 11 13 13 12 9 9 0 0 0 0 0 0 0 0 0 0 0 0 0 -193 -193 0 0 -193 10 12 11 12 10 12 11 10 0 0 0 0 0 0 0 0 0 9 0 0 0 0 0 0 0 0 0 0 0 0 0 0 0 0 10 11 0 0 9 0 0 0 0 0 0 0 0 0 0 0 0 0 0 0 0 0 0 0 0 0 0 0 10 9 0 0 -193 -193 -193 9 -193 0 0 0 0 0 -193 -193 0 0 15 11 12 11 10 -193 9 10 11 0 8 9 9 10 10 12 11 10 10 10 10 10 0 0 0 0 0 0 0 0 0 0 0 0 0 0 0 10 10 11 10 10 11 11 11 16 12 13 13 15 15 16 19 15 12 18 18 15 15 16 16 15 21 -193 23 26 31 34 34 33 30 27 27 25 23 20 19 18 18 17 19 19 15 14 21 20 20 14 23 21 22 24 21 20 22 22 21 21 22 21 20 24 24 25 26 29 32 31 31 29 32 30 29 29 30 28 28 27 30 29 30 29 29 30 30 30 31 30 31 32 35 34 33 0 0 0 0 0
    0 0 0 0 0 0 0 0 0 0 0 0 0 0 0 0 0 0 0 0 0 0 0 0 0 0 0 0 0 0 0 0 0 0 0 0 0 0 0 0 0 0 0 0 0 0 0 0 0 0 0 0 0 0 0 0 0 0 0 0 0 0 0 0 0 0 0 0 0 9 9 10 9 10 9 10 10 9 12 13 13 12 10 9 0 0 0 0 0 0 0 0 0 0 0 0 0 -193 0 0 0 -193 10 12 11 13 10 13 11 10 0 0 0 0 0 0 0 0 0 9 0 0 0 0 0 0 0 0 0 0 0 0 0 0 0 0 10 11 9 0 10 0 0 0 0 0 0 0 0 0 0 0 0 0 0 0 0 0 0 0 0 0 0 0 9 9 0 0 0 0 -193 9 -193 0 0 0 0 0 -193 -193 9 9 15 11 12 11 10 -193 9 10 11 0 0 0 9 10 11 12 11 10 10 10 10 10 0 0 0 0 0 0 0 0 0 0 0 0 0 0 0 11 10 11 10 10 11 11 11 16 12 13 13 16 15 16 18 15 12 19 18 15 15 16 17 16 22 23 24 27 32 33 33 32 31 27 26 25 22 20 19 18 17 17 18 18 14 14 20 20 20 13 23 20 22 24 21 21 23 21 21 21 22 21 20 23 23 25 26 29 31 31 31 29 32 30 29 29 31 28 28 28 31 29 29 28 29 30 30 30 31 30 31 32 35 34 32 0 0 0 0 0
    0 0 0 0 0 0 0 0 0 0 0 0 0 0 0 0 0 0 0 0 0 0 0 0 0 0 0 0 0 0 0 0 0 0 0 0 0 0 0 0 0 0 0 0 0 0 0 0 0 0 0 0 0 0 0 0 0 0 0 0 0 0 0 0 0 0 0 0 0 9 9 10 9 10 9 10 11 10 13 14 13 13 11 10 0 0 0 0 0 0 0 0 0 0 0 0 0 0 0 0 0 9 10 12 12 13 10 12 11 10 0 0 0 0 0 0 0 0 0 0 0 0 0 0 0 0 0 0 0 0 0 0 0 0 0 0 9 11 9 9 10 9 0 0 0 0 0 0 0 0 0 0 0 0 0 0 0 0 0 0 0 0 0 0 9 0 0 0 0 0 0 0 0 0 0 0 9 9 -193 12 9 10 14 11 11 10 10 9 0 9 10 0 0 0 9 10 11 12 12 10 10 11 11 10 0 0 0 0 0 0 0 0 0 0 0 0 0 0 0 11 11 11 10 10 11 11 11 15 12 12 13 16 16 17 19 16 12 20 18 15 15 16 17 16 22 23 24 27 32 33 33 32 30 26 26 24 22 19 18 17 17 17 18 18 14 15 21 20 20 13 22 20 23 24 22 22 23 21 21 21 22 21 21 22 22 24 26 29 31 31 31 30 33 31 29 30 32 29 28 28 31 30 29 28 28 30 30 30 30 29 30 32 35 34 32 0 0 0 0 0
    0 0 0 0 0 0 0 0 0 0 0 0 0 0 0 0 0 0 0 0 0 0 0 0 0 0 0 0 0 0 0 0 0 0 0 0 0 0 0 0 0 0 0 0 0 0 0 0 0 0 0 0 0 0 0 0 0 0 0 0 0 0 0 0 0 0 0 0 0 9 9 10 9 10 9 10 11 10 13 14 14 14 12 11 0 0 0 0 0 0 0 0 0 0 0 0 0 0 0 0 0 9 10 12 12 13 10 11 11 10 0 0 0 0 0 0 0 0 0 0 0 0 0 0 0 0 0 0 0 0 0 0 0 0 0 0 0 10 0 9 9 0 0 0 0 0 0 0 0 0 0 0 0 0 0 0 0 0 0 0 9 0 0 0 9 0 0 0 0 0 0 0 0 0 0 0 9 10 10 12 10 10 14 11 11 10 9 0 0 9 9 0 0 0 9 10 11 13 12 10 10 11 11 10 0 0 0 0 0 0 0 0 0 0 0 0 0 0 0 12 11 11 10 10 11 11 11 15 12 12 14 16 16 17 19 16 13 21 18 16 16 16 17 16 22 23 23 27 31 33 32 32 29 25 24 24 21 18 18 17 16 17 18 18 13 15 20 20 19 13 20 18 22 23 22 22 23 21 21 21 22 21 21 22 22 -193 27 30 31 31 31 30 33 31 29 30 32 29 28 29 32 30 29 28 28 30 30 30 30 29 -193 32 35 33 31 0 0 0 0 0
    0 0 0 0 0 0 0 0 0 0 0 0 0 0 0 0 0 0 0 0 0 0 0 0 0 0 0 0 0 0 0 0 0 0 0 0 0 0 0 0 0 0 0 0 0 0 0 0 0 0 0 0 0 0 0 0 0 0 0 0 0 0 0 0 0 0 0 0 0 9 9 10 0 10 9 10 11 10 14 15 14 14 13 12 0 0 0 0 0 0 0 0 0 0 0 0 0 0 0 0 0 9 10 12 11 12 10 10 10 10 0 0 0 0 0 0 0 0 0 0 0 0 0 0 0 0 0 0 0 0 0 0 0 0 0 0 0 9 0 0 0 0 0 0 0 0 0 0 0 0 0 0 0 0 0 0 0 0 0 0 9 0 0 0 0 0 0 0 0 0 9 9 0 0 0 -193 10 11 10 12 11 11 14 11 11 10 9 0 0 0 9 0 0 0 9 9 12 13 13 10 10 12 12 11 10 0 0 0 0 0 0 0 0 0 0 0 0 0 0 12 11 11 10 10 11 11 11 15 12 12 14 17 17 18 19 17 13 21 18 16 16 17 17 16 22 22 21 27 30 32 31 30 26 23 22 23 19 18 17 17 16 17 18 18 13 16 20 20 19 12 18 15 22 23 22 22 23 20 21 21 22 21 21 22 22 -193 27 30 32 31 31 30 34 32 30 31 32 29 29 29 32 30 28 28 28 30 30 29 30 28 -193 32 34 32 30 0 0 0 0 0
    0 0 0 0 0 0 0 0 0 0 0 0 0 0 0 0 0 0 0 0 0 0 0 0 0 0 0 0 0 0 0 0 0 0 0 0 0 0 0 0 0 0 0 0 0 0 0 0 0 0 0 0 0 0 0 0 0 0 0 0 0 0 0 0 0 0 0 0 0 9 9 9 0 10 9 11 12 11 14 15 14 14 13 12 10 9 9 0 0 0 0 0 0 0 0 0 0 0 0 0 0 9 10 12 11 12 9 10 10 10 0 0 0 0 0 0 0 0 0 0 0 0 0 0 0 0 0 0 0 0 0 0 0 0 0 0 0 9 0 9 0 0 0 0 0 0 0 0 0 0 0 0 0 0 0 0 0 0 0 0 0 0 0 0 0 0 0 0 0 0 9 9 9 9 9 9 11 11 11 13 11 11 13 10 11 9 9 0 0 0 9 9 0 0 9 9 12 13 13 10 10 12 12 11 10 0 0 0 0 0 0 0 0 0 0 0 0 0 0 12 11 11 11 10 11 11 11 15 12 12 15 17 18 18 19 17 14 21 18 16 16 17 18 17 22 22 19 27 29 31 30 29 23 20 20 22 18 17 17 16 15 17 18 18 13 18 21 20 19 12 15 13 21 22 22 22 23 20 20 20 22 21 21 21 22 23 27 30 32 31 30 30 34 33 30 31 32 29 28 29 33 29 28 28 28 30 30 30 29 28 29 32 33 32 29 0 0 0 0 0
    0 0 0 0 0 0 0 0 0 0 0 0 0 0 0 0 0 0 0 0 0 0 0 0 0 0 0 0 0 0 0 0 0 0 0 0 0 0 0 0 0 0 0 0 0 0 0 0 0 0 0 0 0 0 0 0 0 0 0 0 0 0 0 0 0 0 0 0 0 9 0 9 0 10 9 12 12 13 15 15 14 13 14 12 11 10 11 9 0 0 9 9 0 0 0 0 0 0 0 0 0 9 10 11 11 12 9 9 9 9 0 0 0 0 0 0 0 0 0 0 0 0 0 0 0 0 0 0 0 0 0 0 0 0 0 0 0 9 0 9 9 0 0 0 9 0 0 0 0 0 0 0 0 0 0 0 0 0 0 0 0 0 0 0 0 0 0 0 9 9 9 10 10 9 10 10 12 11 11 13 11 11 12 10 10 9 9 0 0 0 9 9 0 0 9 9 12 13 13 10 10 13 13 12 11 0 0 0 0 0 0 0 0 0 0 0 0 0 9 13 11 11 11 10 11 11 11 15 12 12 15 17 18 18 19 17 14 21 18 16 16 17 18 17 22 22 19 26 29 30 29 27 22 18 19 21 18 17 16 16 15 18 18 18 12 19 21 21 19 12 13 12 21 22 21 21 23 21 21 21 22 22 22 22 22 23 27 30 31 31 29 29 33 32 30 30 31 29 28 30 33 30 28 28 28 31 30 30 29 28 29 32 33 31 29 0 0 0 0 0
    0 0 0 0 0 0 0 0 0 0 0 0 0 0 0 0 0 0 0 0 0 0 0 0 0 0 0 0 0 0 0 0 0 0 0 0 0 0 0 0 0 0 0 0 0 0 0 0 0 0 0 0 0 0 0 0 0 0 0 0 0 0 0 0 0 0 0 0 0 9 0 9 0 10 9 14 13 14 15 15 14 14 14 12 13 12 13 10 10 10 10 10 10 0 0 0 0 0 0 0 0 9 10 11 11 12 9 0 0 9 0 0 0 0 0 0 0 0 0 0 0 0 0 0 0 0 0 0 0 0 0 0 0 0 0 0 0 9 9 10 9 0 9 9 9 0 0 0 0 0 0 0 0 0 0 0 0 0 0 0 0 0 0 0 0 0 0 0 9 9 9 10 10 10 10 11 12 11 11 13 11 11 11 10 10 9 9 0 0 0 9 0 0 0 9 9 12 13 13 10 11 13 13 12 11 8 0 0 9 0 0 0 0 0 0 0 0 0 9 13 12 12 11 11 12 12 12 16 12 13 16 17 18 18 19 17 14 21 18 15 17 17 18 17 22 21 18 26 27 28 27 25 21 18 18 21 17 17 16 16 15 18 18 18 12 20 21 21 19 12 12 11 21 21 21 21 23 21 21 21 22 22 22 22 22 24 27 30 31 31 29 29 32 32 30 31 31 29 29 31 33 30 28 29 29 31 31 30 30 29 29 31 32 31 28 0 0 0 0 0
    0 0 0 0 0 0 0 0 0 0 0 0 0 0 0 0 0 0 0 0 0 0 0 0 0 0 0 0 0 0 0 0 0 0 0 0 0 0 0 0 0 0 0 0 0 0 0 0 0 0 0 0 0 0 0 0 0 0 0 0 0 0 0 0 0 0 0 0 0 10 9 10 -193 -193 12 18 14 15 15 15 14 14 14 13 13 13 14 11 11 11 11 11 11 9 0 0 0 9 9 9 9 9 9 11 10 11 9 0 0 9 0 9 0 0 0 0 9 0 0 0 0 0 0 0 0 0 0 0 0 0 0 0 0 0 0 0 0 9 10 11 10 9 9 9 9 9 0 0 0 0 0 0 0 0 0 0 0 0 0 0 0 0 0 0 0 0 0 0 9 9 9 10 10 10 10 11 11 11 11 13 11 10 11 10 10 9 9 0 0 0 9 9 0 0 9 9 11 12 12 10 10 12 12 11 11 0 0 0 9 0 0 0 0 0 9 0 0 0 9 14 13 13 12 12 13 13 13 18 13 13 17 17 19 18 19 18 15 21 18 16 17 17 18 17 21 21 17 25 25 25 25 24 19 17 18 20 17 17 16 16 14 18 18 18 12 21 22 22 21 16 19 16 23 -193 23 23 24 22 21 22 22 22 22 22 22 23 26 30 31 31 29 30 32 33 30 31 31 29 29 31 33 30 29 29 29 31 31 30 30 29 29 31 31 30 28 0 0 0 0 0
    0 0 0 0 0 0 0 0 0 0 0 0 0 0 0 0 0 0 0 0 0 0 0 0 0 0 0 0 0 0 0 0 0 0 0 0 0 0 0 0 0 0 0 0 0 0 0 0 0 0 0 0 0 0 0 0 0 0 0 0 0 0 0 0 0 0 0 0 0 10 9 9 -193 -193 11 18 15 15 16 15 14 14 15 14 14 13 14 12 11 12 12 11 12 9 0 0 0 9 9 9 9 9 9 11 10 11 0 0 0 0 0 0 0 0 0 0 9 9 0 0 0 0 0 0 0 0 0 0 0 0 0 0 0 0 0 0 0 9 10 10 10 0 9 9 9 0 0 0 0 0 0 0 0 0 0 0 0 0 0 0 0 0 0 0 0 0 0 0 -193 9 9 10 10 10 10 10 10 11 11 13 10 10 -193 9 10 9 9 0 0 0 9 9 0 0 9 9 11 12 12 10 10 12 12 11 11 9 0 0 9 0 0 0 0 0 11 9 0 0 10 15 14 14 13 12 14 15 15 19 13 14 18 17 19 18 19 18 15 21 18 16 17 16 17 16 19 19 14 22 22 23 22 23 18 16 17 20 17 17 16 16 14 18 18 18 11 22 23 23 23 23 26 28 30 29 25 25 25 23 22 22 22 22 22 22 22 22 26 29 30 31 29 30 32 33 30 32 31 29 29 31 32 30 29 29 29 31 31 30 30 29 29 30 30 30 27 0 0 0 0 0
    0 0 0 0 0 0 0 0 0 0 0 0 0 0 0 0 0 0 0 0 0 0 0 0 0 0 0 0 0 0 0 0 0 0 0 0 0 0 0 0 0 0 0 0 0 0 0 0 0 0 0 0 0 0 0 0 0 0 0 0 0 0 0 0 0 0 0 0 0 10 9 10 9 12 12 18 15 15 16 15 15 14 14 13 14 13 14 12 11 12 12 12 12 10 0 0 0 9 9 9 9 9 0 10 9 10 0 0 0 0 0 0 0 0 9 9 9 9 9 9 0 0 0 0 0 0 0 0 0 0 0 0 0 0 0 0 0 0 9 10 10 0 0 9 9 0 0 0 0 0 0 0 0 0 0 0 0 0 0 0 0 0 0 0 0 0 0 0 -193 9 9 10 10 9 9 10 10 10 10 13 10 10 -193 9 10 9 9 0 0 0 9 9 0 0 9 9 11 11 12 10 10 12 13 12 12 9 9 9 10 0 0 0 9 9 12 10 10 10 11 16 15 15 15 13 15 15 16 19 14 14 18 16 19 18 19 18 15 21 18 15 17 16 17 15 18 18 12 20 20 21 20 22 17 16 17 20 17 16 16 16 14 18 18 18 11 23 24 24 25 28 30 35 37 36 27 26 26 24 22 22 23 22 22 23 23 23 26 29 30 31 29 30 32 33 30 32 31 29 29 30 32 30 28 29 29 31 31 30 30 29 29 30 30 29 27 0 0 0 0 0
    0 0 0 0 0 0 0 0 0 0 0 0 0 0 0 0 0 0 0 0 0 0 0 0 0 0 0 0 0 0 0 0 0 0 0 0 0 0 0 0 0 0 0 0 0 0 0 0 0 0 0 0 0 0 0 0 0 0 0 0 0 0 0 0 0 0 0 0 0 10 9 10 9 -193 11 18 14 14 16 15 14 14 13 13 13 13 14 12 11 12 12 12 12 10 0 0 0 9 9 9 9 9 0 10 9 10 0 0 0 0 0 0 0 0 9 9 10 9 9 9 0 0 0 0 0 0 0 0 0 0 0 0 0 0 0 0 0 0 9 10 10 9 9 9 9 9 0 0 0 0 0 0 0 0 0 0 0 0 0 0 0 0 0 0 0 0 0 9 9 9 9 10 10 9 9 9 9 9 10 14 11 10 10 10 10 9 9 0 0 0 9 9 9 0 9 9 10 11 11 10 10 12 13 13 14 10 10 10 11 0 0 9 9 10 14 12 12 11 12 16 15 16 15 13 15 14 16 19 14 14 18 16 18 18 19 18 15 21 18 15 17 16 17 15 18 18 12 20 20 21 20 22 17 16 17 20 17 17 16 16 14 18 19 19 12 23 24 25 28 35 36 40 41 41 30 28 29 24 22 23 22 21 22 23 23 24 26 30 31 35 32 32 34 34 31 33 33 30 29 31 32 30 29 30 30 32 33 32 32 31 31 32 31 30 27 0 0 0 0 0
    0 0 0 0 0 0 0 0 0 0 0 0 0 0 0 0 0 0 0 0 0 0 0 0 0 0 0 0 0 0 0 0 0 0 0 0 0 0 0 0 0 0 0 0 0 0 0 0 0 0 0 0 0 0 0 0 0 0 0 0 0 0 0 0 0 0 0 0 0 10 9 9 9 12 11 17 14 14 15 15 14 13 13 13 13 13 14 12 12 12 12 12 13 11 9 0 0 9 9 9 9 9 0 9 9 10 0 0 0 0 0 0 0 0 10 10 10 9 9 10 0 0 0 0 0 0 0 0 0 0 0 0 0 0 0 0 0 0 8 10 11 9 9 9 9 9 0 0 0 0 0 0 0 0 0 0 0 0 0 0 0 0 0 0 0 0 0 9 9 9 9 10 10 -193 9 9 0 0 9 13 10 10 9 9 9 9 9 0 0 0 0 9 9 0 9 9 10 11 11 10 10 12 12 14 14 10 10 10 12 0 9 10 10 10 15 12 13 12 13 16 15 16 16 14 16 14 16 20 14 14 18 16 19 18 19 17 15 21 18 15 17 15 17 16 18 18 12 20 21 21 21 22 17 16 17 21 17 17 17 16 15 19 19 19 13 24 26 27 31 38 37 40 41 41 31 30 30 25 22 23 22 21 23 23 24 25 26 32 34 38 36 36 36 36 33 35 35 31 30 31 32 31 30 32 33 34 36 36 36 36 36 35 33 32 29 0 0 0 0 0
    0 0 0 0 0 0 0 0 0 0 0 0 0 0 0 0 0 0 0 0 0 0 0 0 0 0 0 0 0 0 0 0 0 0 0 0 0 0 0 0 0 0 0 0 0 0 0 0 0 0 0 0 0 0 0 0 0 0 0 0 0 0 0 0 0 0 0 0 0 9 0 9 9 11 11 17 14 14 15 15 14 13 13 13 13 13 14 12 12 12 13 13 13 11 9 0 0 9 0 0 9 9 0 9 9 10 0 0 0 0 0 0 0 9 10 10 10 10 10 10 0 0 0 0 0 0 0 0 0 0 0 0 0 0 0 0 0 0 9 9 11 10 9 10 9 10 9 0 0 0 0 0 0 0 0 0 0 0 0 0 0 0 0 0 0 0 0 0 9 9 9 9 9 0 0 0 0 0 0 11 10 9 0 0 9 0 9 0 0 0 0 9 9 0 9 9 10 10 10 9 10 12 12 14 13 9 10 9 12 0 0 10 10 10 16 13 15 13 13 17 16 16 16 14 16 14 17 19 14 14 18 16 19 18 19 17 15 21 18 15 17 15 17 16 18 18 13 21 22 22 22 23 18 17 18 21 17 17 17 16 15 20 20 20 14 25 30 31 35 39 39 41 41 41 33 31 31 25 23 23 22 21 23 23 24 26 27 34 37 40 39 38 38 37 35 37 38 33 31 32 34 34 34 36 37 36 40 40 41 41 41 -193 36 -193 33 0 0 0 0 0
    0 0 0 0 0 0 0 0 0 0 0 0 0 0 0 0 0 0 0 0 0 0 0 0 0 0 0 0 0 0 0 0 0 0 0 0 0 0 0 0 0 0 0 0 0 0 0 0 0 0 0 0 0 0 0 0 0 0 0 0 0 0 0 0 0 0 0 0 0 10 0 9 9 11 11 17 14 14 16 16 15 14 13 13 14 13 15 13 13 13 13 13 13 11 10 0 0 9 0 0 0 0 0 9 0 9 0 0 0 -193 0 9 0 9 10 10 10 10 10 11 0 0 0 0 0 0 0 0 0 0 0 0 0 0 0 0 0 0 0 0 10 9 9 10 9 10 9 0 0 0 0 0 0 0 0 0 0 0 0 0 0 0 0 0 0 0 0 9 9 9 0 -193 -193 0 -193 -193 0 0 0 11 9 9 0 0 0 0 0 0 0 0 0 9 9 0 9 9 9 10 10 10 10 12 12 13 13 9 9 8 12 9 9 11 10 11 17 14 16 13 14 17 16 17 17 14 16 14 16 19 14 14 18 16 18 17 19 17 15 21 18 15 17 15 17 16 18 18 13 23 24 24 24 24 19 18 19 21 18 18 18 17 16 -193 22 21 18 26 33 33 36 40 39 41 42 41 35 33 34 27 23 24 23 22 24 25 25 27 28 36 38 41 40 40 39 39 37 39 41 36 34 34 36 36 38 40 40 -193 42 44 44 44 -193 -193 -193 -193 37 0 0 0 0 0
    0 0 0 0 0 0 0 0 0 0 0 0 0 0 0 0 0 0 0 0 0 0 0 0 0 0 0 0 0 0 0 0 0 0 0 0 0 0 0 0 0 0 0 0 0 0 0 0 0 0 0 0 0 0 0 0 0 0 0 0 0 0 0 0 0 0 0 0 0 10 9 10 10 12 11 17 14 14 16 16 16 15 14 14 14 13 15 13 13 13 13 13 13 12 10 8 0 9 0 0 0 0 0 9 0 9 0 0 0 0 0 9 9 9 10 10 10 10 10 10 0 0 0 0 0 0 0 0 0 0 0 0 0 0 0 0 0 0 0 0 9 0 9 9 9 9 0 0 0 0 0 0 0 0 0 0 0 0 0 0 0 0 0 0 0 0 0 0 -193 0 0 -193 -193 0 0 0 0 0 9 10 9 9 0 0 0 0 0 0 0 0 0 9 9 0 9 9 9 10 10 10 10 12 12 14 13 9 9 0 11 8 0 11 10 11 18 14 17 14 15 17 16 17 17 14 16 13 17 19 14 14 19 16 19 18 19 18 16 21 18 15 17 15 17 16 19 19 13 24 27 26 26 28 21 20 21 22 20 19 19 -193 17 -193 -193 23 22 27 35 35 36 40 40 41 42 41 36 35 36 30 24 24 24 23 25 25 26 28 29 37 40 42 42 41 40 40 39 40 43 38 37 35 38 39 41 42 -193 -193 -193 47 47 46 -193 -193 -193 -193 40 0 0 0 0 0
    0 0 0 0 0 0 0 0 0 0 0 0 0 0 0 0 0 0 0 0 0 0 0 0 0 0 0 0 0 0 0 0 0 0 0 0 0 0 0 0 0 0 0 0 0 0 0 0 0 0 0 0 0 0 0 0 0 0 0 0 0 0 0 0 0 0 0 0 0 9 0 9 9 11 11 16 14 14 16 16 16 15 13 14 13 13 14 12 12 12 12 13 13 12 12 9 9 10 0 0 0 0 0 0 0 9 0 0 9 0 9 10 9 10 10 10 10 10 10 10 0 9 0 0 0 0 0 0 0 0 0 0 0 0 0 0 0 0 0 0 0 0 0 9 9 9 0 0 0 0 0 0 0 0 0 0 0 0 0 0 0 0 0 0 0 0 0 0 -193 0 0 0 0 0 0 0 0 0 9 10 9 9 0 0 0 0 0 0 0 0 0 9 9 9 9 9 9 10 11 10 10 13 14 15 14 11 10 9 11 9 0 11 10 10 18 15 17 14 15 17 17 17 17 14 17 13 16 19 14 13 -193 16 18 18 19 17 16 21 18 15 17 15 17 17 19 19 14 24 28 27 28 30 -193 22 22 23 21 19 20 -193 -193 -193 -193 25 25 29 37 36 37 41 40 41 42 41 37 36 37 33 25 25 25 25 26 27 28 31 32 38 41 42 43 42 41 42 41 43 44 40 39 37 40 41 42 43 -193 -193 -193 48 48 46 -193 -193 -193 43 42 0 0 0 0 0
    0 0 0 0 0 0 0 0 0 0 0 0 0 0 0 0 0 0 0 0 0 0 0 0 0 0 0 0 0 0 0 0 0 0 0 0 0 0 0 0 0 0 0 0 0 0 0 0 0 0 0 0 0 0 0 0 0 0 0 0 0 0 0 0 0 0 0 0 0 9 0 9 10 10 11 16 14 14 16 16 16 15 13 13 13 12 14 12 12 12 12 13 14 14 14 11 11 12 10 9 0 0 0 0 0 0 0 0 9 9 10 10 10 10 11 10 10 10 10 10 0 9 0 0 0 0 0 0 0 0 0 0 0 0 0 0 0 0 0 0 0 0 0 9 9 9 0 0 0 0 0 0 0 0 0 0 0 0 0 0 0 0 0 0 0 0 0 -177 -193 0 0 0 0 0 0 0 0 0 0 9 9 9 0 0 0 0 0 0 0 0 0 10 10 9 9 10 9 10 11 10 10 13 13 15 13 12 11 11 12 10 9 12 10 11 18 15 18 15 15 17 17 17 17 14 17 12 16 18 13 13 1008 16 19 18 19 17 16 21 18 15 17 15 17 17 19 19 14 25 28 27 29 31 35 25 25 24 23 22 23 -193 -193 -193 27 26 27 31 37 37 37 41 40 41 42 41 38 37 38 36 27 27 27 27 28 35 35 38 37 41 42 44 45 43 42 43 42 44 45 42 41 39 42 42 43 44 44 45 47 48 48 46 -193 -193 -193 43 42 0 0 0 0 0
    0 0 0 0 0 0 0 0 0 0 0 0 0 0 0 0 0 0 0 0 0 0 0 0 0 0 0 0 0 0 0 0 0 0 0 0 0 0 0 0 0 0 0 0 0 0 0 0 0 0 0 0 0 0 0 0 0 0 0 0 0 0 0 0 0 0 0 0 0 10 9 10 10 11 13 17 15 14 16 17 16 15 13 13 12 12 14 12 12 13 13 14 16 16 18 14 16 13 10 9 0 0 0 0 0 0 0 0 10 10 10 12 10 11 11 11 10 10 9 10 0 10 9 9 0 0 0 0 0 0 0 0 0 0 0 0 0 0 0 0 0 0 0 0 9 9 0 0 0 0 0 0 0 0 0 0 0 0 0 0 0 0 0 0 0 0 0 -177 -193 0 0 0 0 0 0 0 0 0 0 0 9 9 0 0 0 0 0 -193 0 0 0 10 11 10 11 11 10 11 11 11 11 13 13 14 13 13 12 12 12 10 10 12 11 11 18 15 18 15 16 17 17 17 17 14 17 12 16 18 14 14 1008 16 19 19 19 18 17 22 18 15 17 16 17 17 19 19 15 25 27 27 30 32 37 29 30 29 28 26 27 -193 25 27 29 29 30 33 38 38 38 41 41 42 43 42 40 39 40 41 30 33 32 32 34 41 41 42 41 42 44 45 46 44 44 44 43 44 45 43 42 41 43 43 44 45 46 47 48 49 48 46 48 -193 -193 44 43 0 0 0 0 0
    0 0 0 0 0 0 0 0 0 0 0 0 0 0 0 0 0 0 0 0 0 0 0 0 0 0 0 0 0 0 0 0 0 0 0 0 0 0 0 0 0 0 0 0 0 0 0 0 0 0 0 0 0 0 0 0 0 0 0 0 0 0 0 0 0 0 0 0 0 10 9 10 11 12 14 18 16 15 17 17 17 16 14 14 12 12 13 12 13 13 13 15 17 18 21 19 24 15 10 0 0 0 0 0 0 9 0 9 10 11 11 13 11 12 11 11 10 10 9 9 0 10 9 9 0 0 0 0 0 0 0 0 0 0 0 0 0 0 0 0 0 0 0 0 0 9 0 0 0 0 0 0 0 0 0 0 0 0 0 0 0 0 0 0 0 0 0 0 -193 0 0 0 0 0 0 0 0 0 0 0 0 0 0 0 -193 0 -193 -177 -193 0 0 11 13 12 16 15 12 15 15 12 13 14 13 14 13 13 12 12 12 10 10 13 11 12 18 15 18 15 16 17 17 18 18 14 18 12 17 19 14 -193 -177 17 19 19 19 18 17 22 18 16 17 15 16 17 18 19 15 25 27 27 31 33 37 33 34 34 34 30 32 30 30 29 32 32 34 36 38 39 39 41 41 42 43 42 41 41 41 42 36 38 38 38 39 42 42 44 43 44 45 45 46 45 44 44 44 44 45 44 44 42 44 44 45 46 47 48 49 49 48 47 48 46 45 44 43 0 0 0 0 0
    0 0 0 0 0 0 0 0 0 0 0 0 0 0 0 0 0 0 0 0 0 0 0 0 0 0 0 0 0 0 0 0 0 0 0 0 0 0 0 0 0 0 0 0 0 0 0 0 0 0 0 0 0 0 0 0 0 0 0 0 0 0 0 0 0 0 0 0 0 10 10 11 11 12 14 17 16 16 17 18 17 16 14 14 13 12 13 12 13 15 15 17 19 20 24 24 26 19 9 0 0 0 0 0 0 9 0 9 10 10 11 13 10 12 11 10 9 9 9 9 0 10 9 9 0 0 0 0 0 0 0 0 0 0 0 0 0 0 0 0 0 0 0 0 0 0 0 0 0 0 0 0 0 0 0 0 0 0 0 0 0 0 0 0 -193 0 0 -193 -193 0 0 0 0 0 0 0 0 0 0 0 0 0 0 0 -193 -193 -177 -177 -193 0 0 13 17 15 23 22 18 21 19 15 15 14 14 14 13 13 12 12 12 10 10 12 10 11 18 15 18 15 16 17 17 18 18 14 18 13 18 19 14 -193 1008 17 19 19 19 18 17 22 18 16 18 15 16 17 18 19 16 25 28 27 32 34 37 35 36 35 36 34 35 35 35 33 35 34 37 37 38 39 39 41 41 42 42 42 41 41 41 42 39 41 41 41 41 43 43 44 44 45 45 45 46 45 44 44 44 45 45 45 45 44 45 45 45 46 46 47 48 49 48 47 48 46 45 44 43 0 0 0 0 0
    0 0 0 0 0 0 0 0 0 0 0 0 0 0 0 0 0 0 0 0 0 0 0 0 0 0 0 0 0 0 0 0 0 0 0 0 0 0 0 0 0 0 0 0 0 0 0 0 0 0 0 0 0 0 0 0 0 0 0 0 0 0 0 0 0 0 0 0 0 11 11 12 12 13 14 16 17 17 17 18 17 16 15 15 13 13 13 13 14 17 17 19 21 23 26 26 27 24 9 0 0 0 0 0 0 0 0 9 10 9 10 11 10 11 10 9 0 9 0 0 0 11 9 10 0 0 0 0 0 -177 0 0 0 0 0 0 0 0 0 0 0 0 0 0 0 0 0 0 0 0 0 0 0 0 0 0 0 0 0 0 0 0 0 0 -177 0 -193 -193 -193 0 0 0 0 0 0 0 0 0 0 0 0 0 0 0 -193 -193 926 925 -193 0 0 15 -209 -193 25 25 22 24 22 18 16 15 14 14 13 13 12 12 12 10 10 11 10 11 17 14 18 15 15 17 18 18 17 14 17 12 17 18 14 14 1008 17 19 19 19 18 16 22 18 16 18 15 16 18 19 19 17 25 28 27 32 34 37 36 37 36 37 36 37 37 37 35 36 36 38 38 38 39 39 41 41 42 42 42 41 43 43 45 42 42 42 42 43 43 44 45 45 45 46 45 46 45 45 45 45 45 45 46 46 45 46 46 45 46 46 48 48 48 48 47 48 47 46 45 44 0 0 0 0 0
    0 0 0 0 0 0 0 0 0 0 0 0 0 0 0 0 0 0 0 0 0 0 0 0 0 0 0 0 0 0 0 0 0 0 0 0 0 0 0 0 0 0 0 0 0 0 0 0 0 0 0 0 0 0 0 0 0 0 0 0 0 0 0 0 0 0 0 0 0 12 12 13 13 14 14 16 18 17 18 19 18 17 16 15 14 14 14 13 15 18 18 20 -209 25 27 26 27 19 9 9 0 0 0 0 0 0 0 9 10 9 10 10 9 10 9 0 0 0 0 0 0 11 9 10 0 0 0 0 0 0 0 0 0 0 0 0 0 0 0 0 0 0 0 0 0 0 0 0 0 0 0 0 0 0 0 0 0 0 0 0 0 0 0 0 -177 -193 -193 -193 -193 -193 0 0 0 0 0 0 0 0 9 0 0 9 0 0 -177 -177 -177 -177 -193 0 9 16 -209 -209 -193 26 24 25 23 20 17 15 14 14 13 13 12 12 12 10 10 10 10 11 16 14 18 15 15 16 18 18 17 14 17 13 17 19 15 14 18 17 19 19 19 18 16 22 18 16 18 15 16 17 18 19 17 25 28 27 33 34 37 36 37 36 37 37 37 37 38 36 37 37 39 38 38 39 38 41 41 42 42 42 42 45 44 47 43 44 44 44 44 44 45 46 45 46 46 46 46 45 45 45 45 45 45 46 47 46 46 46 45 47 46 47 48 48 48 48 48 48 46 45 44 0 0 0 0 0
    0 0 0 0 0 0 0 0 0 0 0 0 0 0 0 0 0 0 0 0 0 0 0 0 0 0 0 0 0 0 0 0 0 0 0 0 0 0 0 0 0 0 0 0 0 0 0 0 0 0 0 0 0 0 0 0 0 0 0 0 0 0 0 0 0 0 0 0 0 13 12 13 14 15 14 15 19 18 17 19 18 17 16 16 15 15 14 15 17 20 20 22 -193 27 28 27 28 -193 14 12 0 0 0 0 0 9 0 10 10 9 10 0 9 10 0 0 0 0 0 0 0 11 9 9 0 0 0 -177 -177 0 0 0 0 0 0 0 0 0 0 0 9 0 0 0 0 0 0 0 0 0 0 0 0 0 0 0 0 0 0 0 0 0 0 0 398 -193 -193 -193 -193 -193 0 0 0 0 0 0 0 0 9 0 0 9 0 0 927 926 926 -177 -193 0 10 19 -209 -209 27 29 26 27 24 21 18 16 15 14 13 13 12 12 12 10 10 10 10 11 16 13 17 14 14 16 18 17 17 15 17 13 17 19 16 15 19 18 20 20 19 18 17 21 18 17 18 15 15 17 18 19 17 25 28 28 34 34 37 37 37 36 37 37 38 38 38 37 -193 38 39 39 38 39 39 41 41 42 42 41 42 46 45 47 43 45 44 45 44 44 45 46 45 47 46 46 46 45 46 45 45 44 45 46 47 46 46 46 45 47 46 48 48 47 47 48 47 47 45 45 44 0 0 0 0 0
    0 0 0 0 0 0 0 0 0 0 0 0 0 0 0 0 0 0 0 0 0 0 0 0 0 0 0 0 0 0 0 0 0 0 0 0 0 0 0 0 0 0 0 0 0 0 0 0 0 0 0 0 0 0 0 0 0 0 0 0 0 0 0 0 0 0 0 0 0 13 13 14 14 15 14 15 19 18 18 19 19 18 17 17 17 17 16 18 20 -193 24 25 28 28 29 29 28 25 16 14 9 0 10 9 0 10 10 11 11 11 12 0 9 10 0 0 0 0 0 0 0 11 9 9 0 0 0 -177 0 0 0 0 0 0 0 0 0 0 0 0 10 0 0 -177 0 0 0 0 0 0 0 0 0 0 0 0 0 0 0 0 0 0 0 0 396 -193 -193 -193 393 -209 9 9 9 0 0 0 0 0 9 0 0 10 0 0 926 925 -177 -177 -193 10 13 22 25 -193 30 33 30 29 25 22 20 16 15 14 13 13 12 12 12 10 10 10 10 11 15 13 17 14 14 15 18 17 17 15 17 13 17 19 17 15 19 19 20 20 19 19 17 21 18 17 18 16 15 17 18 19 17 25 27 28 35 34 37 37 37 36 37 37 38 37 38 38 -193 -193 40 39 38 39 39 41 40 41 42 41 42 46 45 47 44 45 45 45 45 44 45 46 45 47 46 46 46 45 46 45 45 44 44 45 46 46 46 46 45 47 47 48 48 47 47 47 47 47 45 45 44 0 0 0 0 0
    0 0 0 0 0 0 0 0 0 0 0 0 0 0 0 0 0 0 0 0 0 0 0 0 0 0 0 0 0 0 0 0 0 0 0 0 0 0 0 0 0 0 0 0 0 0 0 0 0 0 0 0 0 0 0 0 0 0 0 0 0 0 0 0 0 0 0 0 0 14 13 14 15 16 15 15 19 18 18 20 20 20 19 20 20 19 20 22 23 27 27 27 30 31 32 30 29 25 15 14 11 10 11 10 10 11 12 13 13 12 12 10 10 11 9 9 0 0 0 0 9 11 9 10 0 0 0 0 0 0 0 0 0 0 0 0 0 0 0 0 10 9 0 9 9 0 9 9 9 0 0 0 0 0 0 -193 -209 -209 -209 -193 -209 -193 -193 -193 -177 -193 -193 -193 393 -193 10 12 11 0 10 12 10 0 12 0 0 9 0 -193 -177 -177 -177 -177 -193 12 16 24 27 29 32 34 32 32 27 24 21 17 16 15 13 13 12 12 12 10 10 10 10 11 15 13 16 14 13 15 18 17 16 15 17 13 17 19 18 16 19 19 20 21 20 19 18 21 18 18 18 15 15 17 17 18 17 24 27 28 36 35 37 38 37 37 37 38 38 37 39 38 -193 -193 -193 38 38 39 38 40 40 41 41 39 42 46 45 47 44 45 45 45 45 44 45 46 45 46 46 46 46 46 46 45 45 44 44 45 46 45 45 46 45 47 46 48 47 47 47 47 47 47 45 46 44 0 0 0 0 0
    0 0 0 0 0 0 0 0 0 0 0 0 0 0 0 0 0 0 0 0 0 0 0 0 0 0 0 0 0 0 0 0 0 0 0 0 0 0 0 0 0 0 0 0 0 0 0 0 0 0 0 0 0 0 0 0 0 0 0 0 0 0 0 0 0 0 0 0 0 15 14 15 16 16 14 15 20 18 18 21 20 21 21 22 22 21 23 24 25 30 29 28 30 32 32 30 30 -193 11 12 12 10 12 11 12 13 17 17 18 14 15 19 14 16 14 14 9 0 0 10 10 12 10 10 0 0 0 -177 0 0 0 0 0 0 0 0 0 0 9 9 12 11 -177 10 10 10 10 11 11 0 9 0 9 -177 22 28 29 28 28 -193 -209 -177 -177 -193 -177 -193 394 394 -193 394 12 16 17 13 19 25 -193 -209 17 -193 0 -209 0 0 -193 924 -193 -193 12 16 20 26 29 31 34 35 34 35 30 27 22 18 17 15 13 13 12 12 12 10 10 10 10 12 14 13 16 14 13 15 18 16 16 16 17 14 17 19 19 16 19 19 20 21 20 20 19 20 17 18 18 16 15 17 17 18 17 24 26 29 37 35 37 38 38 37 38 38 38 37 39 39 38 38 -193 38 38 39 39 40 40 41 41 38 42 46 45 47 44 45 45 44 45 44 44 45 44 46 46 46 46 45 46 45 45 44 44 45 46 45 45 46 45 46 46 48 47 47 47 47 47 48 46 46 45 0 0 0 0 0
    0 0 0 0 0 0 0 0 0 0 0 0 0 0 0 0 0 0 0 0 0 0 0 0 0 0 0 0 0 0 0 0 0 0 0 0 0 0 0 0 0 0 0 0 0 0 0 0 0 0 0 0 0 0 0 0 0 0 0 0 0 0 0 0 0 0 0 0 0 15 14 15 16 17 14 14 20 17 18 21 20 21 22 23 23 23 25 27 27 30 29 28 30 30 31 30 30 26 21 21 21 14 14 14 16 16 21 21 23 19 21 25 21 23 23 24 23 13 16 13 13 15 12 13 0 0 9 -193 -193 -193 -193 0 0 9 9 0 9 0 10 11 16 19 13 13 15 15 16 -193 16 -193 13 22 24 -193 26 30 30 29 29 28 27 -209 -177 -177 -193 -193 -193 -193 -193 -193 15 20 22 21 25 27 -193 -193 -193 -193 -193 -193 0 0 -193 -193 -193 13 17 20 22 27 30 33 34 35 34 35 32 30 23 19 18 16 14 13 12 12 13 11 10 10 10 12 14 12 16 14 12 15 18 16 16 16 17 14 16 19 19 16 20 20 20 21 20 20 19 19 17 19 18 16 15 17 18 18 19 25 26 30 37 35 37 38 38 37 38 38 38 37 39 39 38 39 -209 38 39 -193 39 -193 -193 41 41 37 42 46 45 46 44 45 44 44 44 44 44 45 44 45 46 45 45 45 46 45 45 45 45 45 46 45 45 45 45 46 46 47 47 47 47 47 46 48 47 47 46 0 0 0 0 0
    0 0 0 0 0 0 0 0 0 0 0 0 0 0 0 0 0 0 0 0 0 0 0 0 0 0 0 0 0 0 0 0 0 0 0 0 0 0 0 0 0 0 0 0 0 0 0 0 0 0 0 0 0 0 0 0 0 0 0 0 0 0 0 0 0 0 0 0 0 15 14 15 16 17 14 14 20 16 18 21 20 21 -193 23 24 24 26 29 28 31 30 29 31 31 31 31 30 28 26 27 26 23 20 20 21 21 23 24 25 23 25 28 25 26 26 27 27 21 -193 20 20 22 16 19 0 10 14 -193 -177 -177 -193 -193 0 10 11 9 10 10 12 18 21 25 22 22 23 23 -193 -193 22 21 20 25 25 26 27 31 31 29 30 29 28 27 -193 -193 -193 -193 -193 9 14 16 19 23 25 25 26 28 28 27 -193 -193 -193 13 -193 9 11 11 12 17 21 23 24 28 32 33 34 36 35 35 34 32 23 20 19 17 14 13 13 12 13 11 10 9 10 12 13 12 16 13 12 14 18 16 15 16 17 14 16 19 20 16 20 20 20 21 20 20 20 18 16 19 17 16 -193 19 19 20 21 25 27 30 37 34 37 38 38 37 38 38 38 37 39 39 38 39 -193 -193 -193 -193 -193 606 608 40 41 35 42 46 46 46 44 45 44 44 44 44 43 44 43 45 45 45 46 45 46 45 46 45 45 45 45 45 44 45 45 46 46 48 47 47 47 47 47 48 47 48 46 0 0 0 0 0
    0 0 0 0 0 0 0 0 0 0 0 0 0 0 0 0 0 0 0 0 0 0 0 0 0 0 0 0 0 0 0 0 0 0 0 0 0 0 0 0 0 0 0 0 0 0 0 0 0 0 0 0 0 0 0 0 0 0 0 0 0 0 0 0 0 0 0 0 0 16 15 16 17 18 14 14 20 16 18 -193 20 21 -193 -193 26 25 28 30 30 31 31 30 32 32 31 31 30 28 27 29 27 25 23 23 25 24 25 26 26 25 27 31 28 29 28 30 29 26 26 24 23 25 21 -193 20 14 23 -193 -193 -177 -193 -193 9 11 12 10 11 11 14 23 24 28 26 26 26 26 26 26 25 25 24 26 27 27 29 33 32 30 32 31 30 29 28 27 23 14 12 12 19 21 22 25 27 26 28 29 29 28 -193 -193 -193 15 11 10 12 12 13 20 24 25 25 29 34 34 35 36 35 35 35 33 24 20 19 17 14 13 13 12 13 11 10 10 10 13 13 12 16 13 12 14 18 16 15 17 17 14 16 18 20 16 20 20 21 22 21 21 21 17 16 19 17 17 -177 -193 20 21 23 25 27 31 37 34 37 37 37 37 39 38 38 37 39 39 39 39 -209 -193 -193 -193 -193 -177 -193 40 40 34 42 46 46 46 44 45 44 44 44 44 42 43 42 44 44 45 45 45 47 45 46 45 45 45 45 45 44 45 45 46 47 48 47 48 47 47 47 48 47 48 47 0 0 0 0 0
    0 0 0 0 0 0 0 0 0 0 0 0 0 0 0 0 0 0 0 0 0 0 0 0 0 0 0 0 0 0 0 0 0 0 0 0 0 0 0 0 0 0 0 0 0 0 0 0 0 0 0 0 0 0 0 0 0 0 0 0 0 0 0 0 0 0 0 0 0 16 15 16 17 18 15 15 21 17 19 -193 21 22 -193 25 27 27 29 31 31 32 33 31 34 33 32 32 31 30 30 31 28 27 25 25 26 26 27 28 28 27 29 32 30 30 29 30 31 28 29 26 25 28 24 33 30 24 27 -193 -193 -177 -193 -193 10 11 12 10 11 11 15 25 25 30 28 28 28 27 28 28 26 27 25 27 28 29 31 34 33 31 32 32 31 31 30 29 25 24 23 21 23 25 25 26 29 28 30 31 30 29 -193 -209 0 15 -193 11 12 13 15 24 26 28 28 30 34 34 34 36 35 35 34 32 24 21 20 18 14 14 13 12 14 11 11 10 11 14 13 13 16 14 13 14 18 16 14 17 18 14 16 18 21 17 21 21 21 22 21 21 21 17 17 19 17 17 -177 -193 21 21 24 26 27 31 37 34 37 37 37 37 39 38 38 38 39 39 39 40 -193 -193 -193 -209 39 -193 -193 39 39 33 41 46 46 46 45 45 44 44 43 43 42 43 42 43 43 44 45 45 47 45 46 46 45 46 46 45 44 45 45 46 47 48 47 48 47 48 48 49 48 48 48 0 0 0 0 0
    0 0 0 0 0 0 0 0 0 0 0 0 0 0 0 0 0 0 0 0 0 0 0 0 0 0 0 0 0 0 0 0 0 0 0 0 0 0 0 0 0 0 0 0 0 0 0 0 0 0 0 0 0 0 0 0 0 0 0 0 0 0 0 0 0 0 0 0 0 16 15 17 18 19 15 16 21 17 19 -193 22 23 -193 26 29 29 30 33 32 34 34 32 35 33 33 34 32 31 32 32 30 29 27 26 27 27 28 29 29 29 31 33 31 32 30 32 32 29 30 27 26 30 31 37 37 30 33 -193 -193 -177 -209 -209 10 10 11 10 10 -193 16 26 26 32 31 30 30 30 30 29 28 28 26 29 30 31 33 35 34 31 33 33 31 32 31 30 27 27 27 26 25 27 26 27 30 29 31 32 30 30 -193 -193 0 15 -193 11 12 14 18 26 28 30 29 31 35 35 34 36 34 35 34 32 26 22 21 19 15 14 14 12 15 12 12 11 12 16 14 13 17 14 13 15 18 15 14 17 17 14 16 18 20 16 21 21 21 23 21 21 22 16 17 19 16 17 -177 -193 21 21 24 26 27 31 37 34 36 37 37 38 39 38 39 38 40 40 39 40 41 39 40 -193 39 -193 38 39 39 33 41 45 45 45 45 45 44 44 43 43 42 43 41 43 43 44 45 45 47 46 46 46 45 46 45 45 44 44 45 45 46 48 47 48 48 48 49 50 49 50 49 0 0 0 0 0
    0 0 0 0 0 0 0 0 0 0 0 0 0 0 0 0 0 0 0 0 0 0 0 0 0 0 0 0 0 0 0 0 0 0 0 0 0 0 0 0 0 0 0 0 0 0 0 0 0 0 0 0 0 0 0 0 0 0 0 0 0 0 0 0 0 0 0 0 0 17 16 17 18 19 16 16 21 18 20 -193 22 24 27 28 31 30 32 34 34 35 36 34 36 34 35 35 34 33 33 33 30 29 27 26 28 28 29 30 30 30 32 33 32 31 31 32 31 30 32 28 27 33 36 39 40 36 38 -193 -193 -193 -209 -209 -193 9 9 9 9 -193 -193 -209 -193 33 34 33 33 32 33 31 29 29 26 29 31 32 34 36 34 32 34 34 32 33 32 32 28 30 31 29 28 29 28 29 33 31 33 33 32 31 -193 -209 -193 15 -193 12 -193 14 20 28 31 31 31 31 35 35 34 35 34 34 34 33 29 -193 22 20 16 15 14 12 15 12 13 12 12 17 15 14 17 15 14 15 18 16 14 17 17 14 16 18 20 16 21 21 21 23 21 21 22 16 17 19 16 17 -177 -193 21 21 25 26 27 31 37 33 36 37 37 37 38 38 38 38 39 40 39 40 42 39 40 40 40 39 39 39 38 33 41 44 45 45 45 45 44 44 43 43 42 43 42 43 44 44 45 46 47 46 46 46 45 45 45 44 44 44 45 45 46 48 47 49 49 49 49 50 49 50 50 0 0 0 0 0
    0 0 0 0 0 0 0 0 0 0 0 0 0 0 0 0 0 0 0 0 0 0 0 0 0 0 0 0 0 0 0 0 0 0 0 0 0 0 0 0 0 0 0 0 0 0 0 0 0 0 0 0 0 0 0 0 0 0 0 0 0 0 0 0 0 0 0 0 0 18 16 18 19 20 16 17 22 18 20 -193 23 24 29 29 31 31 32 35 34 35 36 34 36 35 35 35 35 34 35 34 31 29 27 26 28 28 29 30 30 31 32 33 32 31 30 31 31 30 32 28 27 36 38 40 40 38 40 -193 -193 -209 -209 -209 -193 -193 9 9 -193 -177 -193 295 -193 34 36 35 35 34 34 32 30 29 27 28 31 31 34 36 34 32 35 35 33 34 34 34 31 34 36 33 32 33 31 32 35 33 35 35 34 33 -209 -209 -193 16 -193 -193 -193 15 22 29 32 31 31 31 34 34 34 34 34 35 35 35 31 -193 -193 22 17 15 15 12 16 12 13 13 13 18 15 14 18 15 14 16 19 16 14 17 17 14 16 18 21 17 21 21 21 23 21 21 22 16 17 20 16 17 -193 20 22 21 25 26 26 30 36 32 36 37 36 37 38 38 38 38 39 39 39 40 42 40 41 41 41 39 39 39 38 34 40 43 45 44 45 45 45 44 43 44 42 44 42 44 44 45 45 46 48 46 46 46 45 46 45 45 44 44 45 44 47 48 48 50 50 49 50 50 49 49 49 0 0 0 0 0
    0 0 0 0 0 0 0 0 0 0 0 0 0 0 0 0 0 0 0 0 0 0 0 0 0 0 0 0 0 0 0 0 0 0 0 0 0 0 0 0 0 0 0 0 0 0 0 0 0 0 0 0 0 0 0 0 0 0 0 0 0 0 0 0 0 0 0 0 0 19 18 19 20 21 18 19 22 19 21 23 23 24 29 28 31 31 32 34 34 35 36 34 36 36 35 35 35 34 35 34 31 29 27 26 28 28 29 30 30 31 32 33 32 31 31 31 31 30 32 28 28 36 39 42 41 40 41 -209 -209 -209 -209 -209 -209 -193 -193 -193 -193 -177 -177 -209 31 35 36 36 35 35 34 32 30 29 26 28 29 30 32 36 33 32 35 35 34 34 34 35 32 36 37 -193 35 35 34 34 36 35 36 36 35 -193 -209 -209 -193 17 16 14 15 17 22 29 32 32 31 32 35 35 35 35 35 35 36 36 33 29 -193 -193 18 17 16 12 17 12 14 14 14 19 15 15 18 16 15 16 19 16 14 18 17 14 16 18 21 17 21 21 22 23 22 21 22 16 18 20 17 18 -193 21 -193 22 26 27 27 31 36 32 35 36 36 37 38 38 38 37 39 39 39 41 42 40 41 41 41 40 40 40 39 35 40 43 45 44 45 46 45 44 43 44 42 44 42 43 44 44 45 45 47 46 46 46 45 45 45 45 45 44 45 45 48 49 49 51 50 49 50 50 49 49 50 0 0 0 0 0
    0 0 0 0 0 0 0 0 0 0 0 0 0 0 0 0 0 0 0 0 0 0 0 0 0 0 0 0 0 0 0 0 0 0 0 0 0 0 0 0 0 0 0 0 0 0 0 0 0 0 0 0 0 0 0 0 0 0 0 0 0 0 0 0 0 0 0 0 0 20 20 21 21 22 20 21 24 21 22 24 23 24 29 29 31 31 33 34 34 35 36 34 36 35 35 35 34 34 35 32 30 29 26 26 27 28 29 30 31 32 33 33 32 31 31 32 32 31 33 30 31 37 40 41 40 39 41 -209 -209 -193 -193 -177 -193 -193 -193 -193 -177 287 293 -209 32 35 36 36 36 35 35 33 30 30 26 28 30 29 32 36 33 32 35 35 34 34 34 35 31 35 37 -193 34 34 35 35 37 36 37 37 36 -193 -209 -193 -209 17 17 14 16 17 22 28 33 32 31 32 35 35 35 35 35 35 36 36 34 31 28 26 19 19 17 13 17 12 14 15 14 19 16 15 19 16 16 17 19 17 14 18 17 15 16 19 21 18 21 22 22 23 22 22 22 16 18 20 17 18 -193 22 -193 -209 26 28 27 31 35 31 34 35 34 36 37 37 37 37 39 39 39 41 42 40 41 42 42 40 40 40 39 37 41 44 46 44 46 46 46 45 44 44 43 43 42 43 43 43 44 44 46 45 45 46 45 45 45 44 44 44 45 45 49 49 49 52 50 49 49 50 49 48 49 0 0 0 0 0
    0 0 0 0 0 0 0 0 0 0 0 0 0 0 0 0 0 0 0 0 0 0 0 0 0 0 0 0 0 0 0 0 0 0 0 0 0 0 0 0 0 0 0 0 0 0 0 0 0 0 0 0 0 0 0 0 0 0 0 0 0 0 0 0 0 0 0 0 0 22 22 23 23 24 24 24 26 24 24 26 24 25 31 30 32 32 34 35 35 35 36 35 36 36 36 35 34 32 33 30 27 27 24 24 27 28 30 31 31 33 33 33 32 30 31 31 33 33 35 33 36 38 40 40 40 40 41 -177 -193 -177 -177 -177 -209 -209 -193 -193 -193 -177 -193 -209 33 36 37 37 37 36 36 34 31 30 27 28 30 30 32 36 34 32 35 35 34 34 34 34 31 34 36 -193 34 34 36 35 37 36 37 37 36 -193 -209 -193 -193 17 -193 15 17 17 23 29 34 33 33 33 35 35 35 35 35 35 36 36 34 33 30 28 21 21 19 13 18 12 15 15 15 20 16 15 19 16 17 17 19 17 15 18 17 15 16 19 21 18 21 -193 22 24 22 22 22 17 19 21 18 19 -193 22 -193 -209 26 28 28 31 34 31 34 34 33 34 36 37 37 37 38 39 38 40 41 40 40 41 41 40 40 40 39 38 41 44 46 44 47 47 46 45 45 44 43 43 41 42 42 42 43 43 45 44 44 45 44 44 44 44 44 44 45 45 49 49 49 52 50 49 49 49 48 48 49 0 0 0 0 0
    0 0 0 0 0 0 0 0 0 0 0 0 0 0 0 0 0 0 0 0 0 0 0 0 0 0 0 0 0 0 0 0 0 0 0 0 0 0 0 0 0 0 0 0 0 0 0 0 0 0 0 0 0 0 0 0 0 0 0 0 0 0 0 0 0 0 0 0 0 26 27 30 31 31 31 32 33 31 29 30 27 26 33 31 33 33 35 35 36 35 37 36 37 37 37 35 34 32 32 28 26 26 23 24 28 28 30 31 31 33 32 32 31 30 31 30 32 33 35 34 37 38 40 40 41 40 42 -193 -177 -177 -177 -177 -209 -209 0 -209 -209 -193 -209 -209 35 37 38 37 37 37 36 35 32 31 28 29 34 34 36 38 36 34 36 36 35 35 34 35 32 34 36 33 35 35 36 36 37 37 38 38 38 -209 769 770 771 -193 -193 -193 18 17 24 30 34 34 34 35 36 36 37 36 36 36 37 37 35 35 32 31 23 23 21 14 20 13 19 19 18 21 18 17 20 17 18 18 19 17 15 18 17 15 16 19 21 18 21 22 23 25 23 22 23 18 20 21 19 19 20 23 24 -209 27 29 28 31 34 32 33 34 32 33 35 37 36 37 38 38 38 40 41 39 40 41 41 40 40 40 39 39 42 44 47 45 47 47 47 46 46 45 44 44 42 42 42 42 42 43 44 44 43 45 44 44 44 44 44 44 45 45 49 49 48 52 49 48 48 49 48 47 48 0 0 0 0 0
    0 0 0 0 0 0 0 0 0 0 0 0 0 0 0 0 0 0 0 0 0 0 0 0 0 0 0 0 0 0 0 0 0 0 0 0 0 0 0 0 0 0 0 0 0 0 0 0 0 0 0 0 0 0 0 0 0 0 0 0 0 0 0 0 0 0 0 0 0 30 33 37 39 38 36 36 37 34 31 31 29 28 34 32 33 32 34 35 36 35 37 36 37 37 37 35 35 33 34 28 27 27 24 25 28 28 31 30 32 33 32 32 31 30 31 30 32 32 35 35 37 38 40 40 42 42 43 -193 -193 -177 -177 -177 -209 -209 -209 -209 -209 -209 -209 -209 38 39 39 39 39 38 38 37 36 35 32 33 38 36 37 39 36 35 37 36 36 35 34 34 31 34 35 32 35 36 37 37 38 38 39 39 39 -209 768 769 771 -193 -193 -193 18 18 24 31 35 35 35 36 37 37 37 37 37 37 38 37 36 36 35 34 31 29 26 19 22 18 23 24 23 23 20 19 21 20 19 19 20 18 16 18 17 15 15 19 21 20 22 23 25 26 24 24 24 21 22 23 21 21 21 23 24 -193 27 31 28 32 33 33 33 35 33 33 33 36 36 36 37 37 36 39 40 39 39 40 41 40 40 40 39 40 43 45 47 45 48 48 48 47 47 46 45 45 42 42 42 42 42 43 43 44 43 44 43 43 44 43 44 43 44 44 49 48 48 52 49 48 48 48 47 47 48 0 0 0 0 0
    0 0 0 0 0 0 0 0 0 0 0 0 0 0 0 0 0 0 0 0 0 0 0 0 0 0 0 0 0 0 0 0 0 0 0 0 0 0 0 0 0 0 0 0 0 0 0 0 0 0 0 0 0 0 0 0 0 0 0 0 0 0 0 0 0 0 0 0 0 35 36 39 40 40 38 39 38 36 30 31 28 28 34 33 33 32 35 35 36 35 37 36 36 37 37 35 35 33 34 27 27 27 24 25 29 29 31 31 32 33 32 32 32 30 32 30 33 33 35 35 37 38 40 41 43 45 44 46 -193 -193 -193 -209 -209 -209 -209 -209 -209 -209 -209 42 41 41 41 40 40 40 40 40 40 39 39 38 41 39 38 39 37 36 37 36 36 35 34 34 31 34 35 32 36 36 37 38 39 39 39 39 39 -209 768 769 771 -193 -193 -193 20 19 24 32 36 35 36 37 37 37 38 37 37 37 38 37 37 38 38 38 40 37 35 26 27 28 31 31 28 26 22 22 23 23 22 22 22 21 20 21 20 17 16 21 23 23 25 27 27 29 26 26 25 24 25 24 23 23 23 25 25 24 25 33 28 31 31 33 32 35 34 34 33 36 35 36 37 37 35 38 39 38 38 40 41 39 40 40 40 40 43 45 48 45 48 48 48 47 47 47 45 45 43 43 42 42 42 43 43 -193 42 44 43 43 43 43 44 43 44 44 49 47 47 52 48 47 47 48 47 47 48 0 0 0 0 0
    0 0 0 0 0 0 0 0 0 0 0 0 0 0 0 0 0 0 0 0 0 0 0 0 0 0 0 0 0 0 0 0 0 0 0 0 0 0 0 0 0 0 0 0 0 0 0 0 0 0 0 0 0 0 0 0 0 0 0 0 0 0 0 0 0 0 0 0 0 39 39 40 41 41 38 39 38 37 30 31 29 30 34 34 33 33 36 36 37 36 37 37 37 38 37 36 36 33 35 27 27 27 25 26 30 29 32 31 32 33 31 32 32 30 32 30 34 34 36 36 38 39 40 42 44 47 46 47 46 49 -209 -209 -209 -209 -209 -209 -209 -209 -209 45 48 45 43 43 43 41 41 42 42 41 41 41 43 39 39 40 38 37 37 37 36 35 34 35 32 35 35 33 37 37 37 38 39 39 39 39 39 -193 -193 -193 -193 -193 -193 20 22 21 25 33 36 35 37 37 37 37 38 37 38 38 39 38 38 39 40 39 41 38 37 29 31 33 36 32 28 27 24 25 27 28 28 28 29 30 32 35 36 38 41 41 38 35 33 35 31 33 30 29 28 28 27 28 28 28 28 29 29 29 28 35 27 28 28 31 30 33 32 32 33 36 34 35 36 36 35 38 38 38 38 40 41 39 40 40 40 41 43 45 48 45 48 48 48 47 47 47 45 45 43 43 42 42 42 -193 -193 -193 42 43 43 43 43 44 44 44 44 44 49 47 46 51 47 46 46 46 46 46 48 0 0 0 0 0
    0 0 0 0 0 0 0 0 0 0 0 0 0 0 0 0 0 0 0 0 0 0 0 0 0 0 0 0 0 0 0 0 0 0 0 0 0 0 0 0 0 0 0 0 0 0 0 0 0 0 0 0 0 0 0 0 0 0 0 0 0 0 0 0 0 0 0 0 0 39 38 40 39 38 37 38 37 37 34 33 34 34 35 35 32 33 36 36 36 35 36 36 35 37 37 34 35 31 34 27 27 29 26 27 32 30 33 31 34 33 31 32 32 31 34 30 36 36 36 37 39 40 42 44 46 50 48 50 48 51 -193 50 -209 -209 -209 -193 -193 54 51 48 51 48 45 47 46 43 43 43 44 43 43 43 44 40 40 40 38 37 38 37 36 35 34 35 32 35 35 34 37 37 38 38 39 39 39 39 39 -193 -193 -193 -193 28 -193 22 -193 -193 27 35 37 36 38 38 38 38 38 38 39 39 40 39 39 40 41 40 41 38 36 30 32 34 37 36 29 28 24 26 27 28 29 30 33 34 36 38 38 39 41 39 36 36 35 35 35 36 33 34 32 33 32 33 33 33 31 34 33 34 34 31 24 25 28 31 29 31 32 32 33 36 34 35 36 37 35 38 39 39 38 40 41 40 40 41 41 41 44 46 49 45 49 48 48 47 47 46 45 45 43 42 42 -193 -193 -193 -193 -193 -193 43 43 43 44 44 44 44 44 44 49 46 46 51 46 45 46 46 46 45 47 0 0 0 0 0
    0 0 0 0 0 0 0 0 0 0 0 0 0 0 0 0 0 0 0 0 0 0 0 0 0 0 0 0 0 0 0 0 0 0 0 0 0 0 0 0 0 0 0 0 0 0 0 0 0 0 0 0 0 0 0 0 0 0 0 0 0 0 0 0 0 0 0 0 0 38 37 39 39 37 37 39 -193 39 38 37 -193 37 36 37 34 34 37 36 37 35 37 37 35 37 37 33 34 31 33 28 29 32 28 29 33 32 34 32 34 34 32 33 33 33 35 33 38 37 38 39 40 42 43 45 48 52 49 51 50 52 53 51 51 53 46 52 53 53 51 48 52 49 46 49 49 45 45 45 46 45 45 44 46 41 41 41 39 38 38 37 36 35 34 35 32 36 36 35 38 38 38 39 39 39 39 39 38 -193 -193 -193 -193 30 -193 -193 -193 -193 29 35 38 38 39 40 39 38 39 39 41 40 40 39 39 40 40 40 41 37 34 31 34 34 37 37 33 31 27 29 31 31 34 36 38 38 40 41 41 40 -193 -209 27 32 -193 33 35 35 34 36 36 36 34 34 35 33 32 34 32 34 32 28 23 26 30 33 31 32 32 34 35 37 35 36 36 37 35 38 39 38 37 39 40 39 40 40 40 40 45 48 50 45 49 48 47 47 46 46 44 44 43 -193 -193 -193 -193 -193 -193 -193 -193 43 43 43 44 44 44 43 44 43 49 45 46 50 46 45 45 45 45 45 47 0 0 0 0 0
    0 0 0 0 0 0 0 0 0 0 0 0 0 0 0 0 0 0 0 0 0 0 0 0 0 0 0 0 0 0 0 0 0 0 0 0 0 0 0 0 0 0 0 0 0 0 0 0 0 0 0 0 0 0 0 0 0 0 0 0 0 0 0 0 0 0 0 0 0 36 36 37 37 35 36 40 39 40 -193 -209 -209 40 38 38 35 35 36 35 36 34 36 37 35 37 37 34 37 34 36 30 31 33 30 31 34 33 35 33 35 35 33 33 34 35 37 36 39 39 39 40 41 44 44 45 48 52 49 51 51 53 53 51 52 54 48 53 53 53 52 50 53 51 48 52 52 47 47 48 48 46 46 46 47 42 42 42 40 39 38 37 36 34 33 35 31 35 35 35 38 38 38 39 40 40 39 39 39 38 35 36 35 33 31 -209 -193 -193 32 35 37 37 38 38 38 38 38 39 40 40 40 39 40 39 40 41 40 37 33 33 35 35 37 38 35 35 31 32 36 36 37 39 40 40 41 43 42 41 39 -209 26 29 -209 30 33 34 34 36 37 38 37 37 38 36 37 38 37 -193 39 -209 -193 23 29 34 31 32 32 34 35 38 36 36 37 36 35 37 38 37 36 37 38 38 38 39 39 39 45 49 50 45 49 47 47 47 46 46 44 44 43 -193 -193 -193 -193 -193 -193 -193 -193 43 43 43 44 44 44 43 43 42 48 44 46 49 45 45 45 45 45 44 47 0 0 0 0 0
    0 0 0 0 0 0 0 0 0 0 0 0 0 0 0 0 0 0 0 0 0 0 0 0 0 0 0 0 0 0 0 0 0 0 0 0 0 0 0 0 0 0 0 0 0 0 0 0 0 0 0 0 0 0 0 0 0 0 0 0 0 0 0 0 0 0 0 0 0 36 36 37 37 37 36 40 40 -193 -193 -193 -209 -209 39 39 36 36 36 35 36 35 37 37 36 38 39 36 38 37 37 32 32 33 31 32 35 33 35 33 36 35 34 34 35 36 38 37 40 40 40 41 43 45 46 47 50 53 51 52 52 53 53 52 53 54 49 52 53 52 52 51 53 52 50 53 54 50 50 50 51 49 49 48 49 42 43 44 41 40 38 38 37 35 34 35 31 35 35 35 38 39 38 39 39 40 39 38 38 37 35 36 35 34 33 -193 -193 -193 33 34 37 37 40 39 39 39 39 40 42 41 41 40 40 39 40 41 40 37 34 35 37 36 38 39 37 36 33 32 36 33 38 40 41 40 40 42 41 41 41 35 28 31 -209 31 34 34 34 35 36 38 36 37 39 36 38 39 -193 -193 -209 -209 -209 31 37 41 39 38 36 36 35 37 35 35 36 35 33 36 38 36 35 37 38 37 38 39 38 37 45 50 50 46 48 47 47 46 46 45 44 45 44 -193 -193 -193 -193 -177 -193 188 -193 43 43 43 44 44 44 43 44 42 48 44 46 48 45 45 45 45 45 44 46 0 0 0 0 0
    0 0 0 0 0 0 0 0 0 0 0 0 0 0 0 0 0 0 0 0 0 0 0 0 0 0 0 0 0 0 0 0 0 0 0 0 0 0 0 0 0 0 0 0 0 0 0 0 0 0 0 0 0 0 0 0 0 0 0 0 0 0 0 0 0 0 0 0 0 37 37 38 38 38 37 41 40 41 43 -193 -209 43 40 39 37 36 36 35 36 35 37 37 36 38 39 37 39 38 38 34 36 35 34 34 36 33 35 34 36 35 35 35 36 38 39 38 40 41 41 42 44 47 47 49 52 54 52 53 53 54 54 53 53 54 50 53 54 53 53 52 54 53 51 54 55 51 52 52 52 50 50 50 50 43 45 46 45 42 40 38 38 36 36 36 31 34 34 36 38 39 38 38 38 39 39 38 38 37 36 37 37 37 36 35 36 33 35 34 37 38 40 39 40 40 40 40 43 42 41 40 41 39 40 41 40 37 33 35 37 36 38 38 36 36 34 34 34 30 36 39 40 40 40 41 39 40 -193 -209 29 -193 -209 31 34 33 33 35 36 38 37 37 39 37 37 38 -193 41 40 39 -193 -193 41 42 42 41 40 39 37 38 37 37 37 36 35 37 39 37 37 38 39 38 39 39 39 38 45 51 49 46 48 47 47 -177 46 45 44 45 44 -193 -193 -193 190 191 189 188 -193 -193 -193 -193 44 44 44 43 44 42 48 44 47 48 45 45 45 45 45 44 47 0 0 0 0 0
    0 0 0 0 0 0 0 0 0 0 0 0 0 0 0 0 0 0 0 0 0 0 0 0 0 0 0 0 0 0 0 0 0 0 0 0 0 0 0 0 0 0 0 0 0 0 0 0 0 0 0 0 0 0 0 0 0 0 0 0 0 0 0 0 0 0 0 0 0 38 38 38 38 38 37 41 40 41 43 42 43 45 40 40 37 36 36 35 36 35 37 37 36 37 38 37 39 38 38 34 37 36 36 35 36 33 34 33 35 33 33 34 36 39 39 39 41 41 42 43 44 48 47 50 52 54 53 53 54 54 54 53 54 55 52 54 55 54 54 53 55 53 52 54 55 52 52 52 52 51 51 51 51 43 46 47 46 43 39 37 36 32 35 31 27 32 33 36 38 38 37 37 38 39 38 37 37 37 37 38 38 38 38 38 38 35 36 34 36 34 35 36 38 38 38 39 42 42 41 40 41 40 40 41 40 36 31 34 36 34 36 37 34 35 35 36 37 33 36 38 37 39 38 39 37 38 38 34 33 34 34 35 36 35 35 36 37 39 39 38 40 38 40 41 41 42 -193 39 42 -193 41 42 42 42 42 41 39 40 39 38 38 37 36 38 40 38 37 38 39 39 39 39 39 37 44 51 48 46 48 47 47 46 46 45 44 45 44 -193 -193 -193 -193 -193 -193 -193 -193 -193 -193 -193 -193 44 44 43 44 43 49 44 47 48 45 45 46 45 45 44 47 0 0 0 0 0
    0 0 0 0 0 0 0 0 0 0 0 0 0 0 0 0 0 0 0 0 0 0 0 0 0 0 0 0 0 0 0 0 0 0 0 0 0 0 0 0 0 0 0 0 0 0 0 0 0 0 0 0 0 0 0 0 0 0 0 0 0 0 0 0 0 0 0 0 0 37 36 37 37 37 36 40 39 41 43 44 43 45 41 41 38 37 37 35 36 35 38 37 36 37 39 38 39 38 38 34 38 37 37 36 36 34 34 33 35 32 32 32 36 -193 40 41 43 44 44 45 47 50 48 52 53 55 53 53 54 54 54 54 55 56 52 54 55 55 54 54 55 53 52 54 55 52 52 52 53 51 52 52 51 44 48 49 47 43 37 36 34 30 -209 -209 -193 33 35 38 40 39 38 36 37 38 38 37 36 36 36 37 38 38 37 37 37 35 36 34 34 31 31 34 37 38 38 39 43 42 41 41 41 40 40 41 40 36 30 34 36 33 36 37 34 34 36 37 38 33 36 37 36 38 37 38 36 36 37 34 34 35 34 34 35 35 36 38 39 40 41 41 43 42 -193 -193 -209 -209 -209 -209 -209 -209 41 42 42 41 43 41 41 39 39 39 39 39 38 39 40 38 38 39 40 39 38 39 39 36 44 50 47 45 47 46 46 46 45 44 44 44 44 44 43 43 43 43 -193 -193 -193 -193 -193 -193 -193 -193 -193 44 45 44 49 45 48 47 45 45 46 44 45 44 46 0 0 0 0 0
    0 0 0 0 0 0 0 0 0 0 0 0 0 0 0 0 0 0 0 0 0 0 0 0 0 0 0 0 0 0 0 0 0 0 0 0 0 0 0 0 0 0 0 0 0 0 0 0 0 0 0 0 0 0 0 0 0 0 0 0 0 0 0 0 0 0 0 0 0 35 34 36 37 36 36 40 40 42 44 45 44 43 41 41 38 37 36 35 36 35 38 37 36 36 38 38 39 38 39 34 39 37 38 37 37 35 34 33 35 31 31 31 37 -209 44 44 46 46 45 47 49 51 49 52 53 55 55 54 55 56 56 55 56 56 54 55 56 55 55 54 55 53 52 54 55 51 52 52 53 52 52 52 51 44 51 51 50 44 37 36 34 30 -209 -209 -209 35 38 39 41 39 39 35 36 38 38 36 36 36 36 37 38 38 38 37 37 34 -193 32 33 30 31 34 36 38 39 40 44 43 42 41 42 40 41 41 40 36 30 35 37 34 36 38 35 35 36 37 38 -193 -193 -209 36 38 38 38 36 36 36 33 34 35 33 33 35 34 36 -193 39 -193 41 42 44 44 44 -209 -209 -209 -209 -209 46 42 43 44 43 42 44 41 41 38 38 38 39 39 38 39 42 39 39 39 40 39 39 39 39 35 43 49 46 45 46 46 46 46 45 44 43 44 43 44 43 43 43 43 43 43 43 -193 -193 45 46 46 45 45 46 45 50 46 49 47 45 45 45 44 45 44 46 0 0 0 0 0
    0 0 0 0 0 0 0 0 0 0 0 0 0 0 0 0 0 0 0 0 0 0 0 0 0 0 0 0 0 0 0 0 0 0 0 0 0 0 0 0 0 0 0 0 0 0 0 0 0 0 0 0 0 0 0 0 0 0 0 0 0 0 0 0 0 0 0 0 0 33 32 35 36 36 37 41 41 43 45 46 44 41 40 39 38 36 35 33 35 34 37 36 36 36 38 37 38 38 39 34 40 37 38 38 37 35 33 32 35 31 31 31 37 -209 46 45 48 47 47 48 50 52 50 54 55 56 56 56 56 57 56 56 57 57 55 55 56 55 54 54 55 53 52 54 55 51 52 52 53 52 53 53 52 45 52 53 52 45 36 34 -209 -209 -209 -209 -209 -209 -209 41 44 -209 -193 34 37 38 38 37 37 36 36 37 39 39 39 40 39 -193 -193 -209 35 -193 33 34 37 39 39 40 44 43 42 41 -193 41 40 41 41 36 30 37 38 36 38 39 37 38 38 39 39 -193 -209 -209 35 38 37 36 36 36 36 34 36 37 -193 -193 -209 36 -193 -193 -193 -209 -193 42 44 44 45 44 46 46 49 -209 48 44 44 45 45 44 45 41 41 39 39 38 39 39 39 39 43 39 39 39 40 39 39 39 39 32 42 49 46 45 46 46 46 46 45 44 43 43 43 43 43 43 43 43 43 42 43 -193 -193 45 47 46 46 46 47 45 50 46 49 46 45 45 45 44 45 44 46 0 0 0 0 0
    0 0 0 0 0 0 0 0 0 0 0 0 0 0 0 0 0 0 0 0 0 0 0 0 0 0 0 0 0 0 0 0 0 0 0 0 0 0 0 0 0 0 0 0 0 0 0 0 0 0 0 0 0 0 0 0 0 0 0 0 0 0 0 0 0 0 0 0 0 32 32 35 36 36 38 42 43 45 46 47 45 40 40 38 37 35 31 30 34 32 37 35 36 35 37 37 38 37 38 33 40 35 37 36 35 32 29 30 33 29 31 30 37 -177 45 45 48 47 47 49 51 52 48 53 54 55 54 54 54 55 55 55 56 56 55 56 56 56 55 55 55 54 53 54 55 52 53 53 54 54 53 54 53 47 54 54 54 45 34 -193 -209 -209 -209 -209 -209 -209 -209 -209 -209 -209 -209 32 36 38 -193 36 37 36 36 37 39 40 40 -193 -209 -209 -193 -209 35 -193 32 35 37 40 39 40 44 43 41 -193 -193 40 40 41 40 36 30 37 39 36 38 39 38 39 39 41 -193 -209 -209 -209 -209 -193 37 36 36 38 -209 -209 41 -209 -209 -209 -209 -209 -209 -193 -193 -193 -193 44 45 44 45 44 45 46 50 -209 49 46 47 47 47 46 48 42 45 40 -193 39 40 40 40 39 43 38 38 38 39 38 37 37 38 31 42 48 46 45 46 46 46 46 45 45 43 43 43 43 42 42 42 42 42 42 43 -193 44 45 48 47 47 47 47 46 51 47 50 46 45 45 45 44 44 44 46 0 0 0 0 0
    0 0 0 0 0 0 0 0 0 0 0 0 0 0 0 0 0 0 0 0 0 0 0 0 0 0 0 0 0 0 0 0 0 0 0 0 0 0 0 0 0 0 0 0 0 0 0 0 0 0 0 0 0 0 0 0 0 0 0 0 0 0 0 0 0 0 0 0 0 33 32 35 37 37 38 42 44 46 46 49 -209 40 40 38 37 33 26 26 33 32 39 36 37 36 37 37 37 37 38 30 39 29 34 32 33 -209 -209 27 31 29 31 30 38 130 45 45 48 47 47 49 50 50 47 52 53 54 54 54 54 55 55 55 56 56 56 56 57 57 56 56 57 56 55 55 56 54 54 54 55 55 54 55 54 50 54 55 54 -209 -209 -193 35 -209 -209 -209 -209 -209 -209 -209 -209 -209 -209 -209 -193 -193 -193 -193 -193 37 36 38 40 41 -193 -209 -209 -209 -193 -209 -193 -193 31 35 38 40 40 41 45 44 42 41 -193 41 41 41 41 36 31 38 41 38 39 39 38 39 39 41 -209 -209 -209 -209 -209 -193 35 35 36 -209 289 -209 54 55 -209 -209 -193 -193 -209 -209 -209 -209 -209 47 47 44 -193 -193 45 -193 -193 -209 51 49 50 49 48 47 49 46 52 -209 -209 -193 -209 -209 -209 -193 44 38 37 39 39 38 37 37 39 34 43 49 46 46 47 47 47 47 46 45 44 43 43 42 41 41 41 41 41 41 43 -193 44 46 49 48 48 48 48 47 51 47 50 46 45 45 46 44 45 44 46 0 0 0 0 0
    0 0 0 0 0 0 0 0 0 0 0 0 0 0 0 0 0 0 0 0 0 0 0 0 0 0 0 0 0 0 0 0 0 0 0 0 0 0 0 0 0 0 0 0 0 0 0 0 0 0 0 0 0 0 0 0 0 0 0 0 0 0 0 0 0 0 0 0 0 33 33 36 39 39 41 42 45 46 49 -225 -225 -225 -225 -177 -209 -193 98 92 -193 35 41 36 38 37 37 37 37 36 37 28 -193 -225 23 -209 -193 102 108 -193 -193 -193 -193 -225 -225 -225 45 45 48 47 47 49 49 48 46 52 53 53 56 56 56 56 55 55 56 56 56 55 57 57 56 57 57 57 56 57 57 55 55 55 57 56 55 55 55 53 55 56 55 -209 -209 -209 -209 -209 -209 -209 -209 -209 -209 -209 -209 -209 -209 -209 -193 95 94 -193 -193 -193 36 38 40 -193 -193 -209 -209 -209 -209 -193 -193 -209 29 35 -225 -225 -225 43 45 45 43 43 44 42 42 42 41 37 31 37 -193 -209 37 38 34 36 38 40 -209 -209 -209 -209 -209 -209 34 33 36 -209 288 48 56 56 61 59 62 61 61 57 58 -209 55 49 46 41 -209 -193 -209 -209 -209 -209 52 50 52 52 52 49 50 48 55 -209 -209 -209 -209 -209 -209 -209 -209 -209 39 43 43 42 -193 40 42 39 44 51 47 46 48 48 48 49 47 46 45 44 43 43 41 41 41 41 40 41 42 -193 43 46 50 48 49 49 49 47 51 47 50 46 46 45 46 44 44 44 46 0 0 0 0 0
    0 0 0 0 0 0 0 0 0 0 0 0 0 0 0 0 0 0 0 0 0 0 0 0 0 0 0 0 0 0 0 0 0 0 0 0 0 0 0 0 0 0 0 0 0 0 0 0 0 0 0 0 0 0 0 0 0 0 0 0 0 0 0 0 0 0 0 0 0 32 36 41 46 -209 -193 -193 -193 -193 -193 -209 -225 -225 -225 -225 -225 -225 -225 -225 -225 -225 -225 -225 -225 -225 -225 -225 -225 -225 -225 -225 -225 -225 -225 -225 -225 -225 -225 -225 -225 -225 -225 -225 -225 -225 48 46 46 48 47 49 48 47 44 53 54 56 56 57 57 58 57 56 56 56 56 56 57 57 57 57 58 58 57 57 57 55 54 54 56 56 54 55 54 52 54 55 55 -209 -209 -209 -209 -209 -209 -209 -209 -209 -209 -209 -209 -177 -177 -209 -209 -193 93 93 96 96 -193 -209 -209 -193 -193 -209 -193 -193 -209 -209 -193 -225 -225 -225 -225 -225 -225 -225 -225 -225 -225 -225 -225 -225 -209 -209 628 -209 -209 -209 -209 -209 -193 -209 -209 -209 -193 -209 -209 -225 -225 -225 -209 227 -193 -193 36 277 -209 -193 58 59 62 61 63 61 61 58 59 -209 57 53 -193 45 -193 39 -209 -209 -209 -209 52 51 54 54 54 49 49 48 55 -209 -209 -209 -209 -209 -209 -209 -209 -209 -209 52 54 -193 -209 -193 57 -209 53 53 48 46 48 49 49 51 48 48 47 45 45 44 41 40 40 41 40 41 42 -193 43 46 51 49 51 51 50 49 52 49 51 46 46 45 45 44 43 44 46 0 0 0 0 0
    0 0 0 0 0 0 0 0 0 0 0 0 0 0 0 0 0 0 0 0 0 0 0 0 0 0 0 0 0 0 0 0 0 0 0 0 0 0 0 0 0 0 0 0 0 0 0 0 0 0 0 0 0 0 0 0 0 0 0 0 0 0 0 0 0 0 0 0 0 -209 -209 -209 -209 -193 -193 -193 0 -209 -193 -209 0 -225 -225 -225 -225 -225 -225 -225 -225 -225 -225 -225 -225 -225 -225 -225 -225 -225 -225 -225 -225 -225 -225 -225 -225 -225 -225 -225 -225 -225 -225 -225 -225 -225 -225 47 47 47 48 50 49 48 44 50 55 56 57 56 55 58 56 55 56 56 56 -193 57 58 -193 57 58 57 56 57 56 53 52 52 55 55 53 54 53 51 54 55 55 49 -225 -225 -225 -225 -225 -225 -225 -225 -225 -225 -225 -225 -225 -225 -225 -225 -225 -225 -225 -225 -225 -225 -225 -225 -225 -225 -225 -225 -225 -225 -225 -225 -225 -225 -225 -225 -225 -225 -225 -225 -225 -225 -225 -225 -225 -225 -209 -209 -193 0 -177 -209 -209 -193 -209 -209 -225 -225 -225 -225 -225 -225 -225 -225 -193 -193 -193 278 286 57 60 60 63 62 64 62 62 59 60 59 59 57 59 56 -193 49 59 61 61 59 55 52 54 52 52 47 47 46 53 -209 -209 -209 -209 -209 -209 -209 -209 -209 -209 -209 69 68 69 -193 66 -193 -193 57 -209 49 49 51 52 53 52 51 51 46 45 44 40 38 39 40 39 40 41 40 44 48 53 51 53 53 52 51 53 51 53 47 48 46 46 44 43 44 45 0 0 0 0 0
    0 0 0 0 0 0 0 0 0 0 0 0 0 0 0 0 0 0 0 0 0 0 0 0 0 0 0 0 0 0 0 0 0 0 0 0 0 0 0 0 0 0 0 0 0 0 0 0 0 0 0 0 0 0 0 0 0 0 0 0 0 0 0 0 0 0 0 0 0 -209 -209 -193 -193 -193 -193 -193 0 -209 -193 -209 -193 -209 -209 -209 77 -225 -225 -225 -225 -225 -225 -225 -225 -225 -225 -225 -225 -225 -225 -225 -225 -225 -225 -225 -225 -225 -225 -225 -225 -225 -225 -225 -225 -225 -225 -225 47 47 48 50 50 49 44 51 58 61 64 59 55 59 -193 55 -209 -209 -193 -193 57 58 -193 56 -193 -193 -193 56 -209 52 52 52 55 55 54 54 53 51 54 55 55 -225 -225 -225 -225 -225 -225 -225 -225 -225 -225 -225 -225 -225 -225 -225 -225 -225 -225 -225 -225 -225 -225 -225 -225 -225 -225 -225 -225 -225 -225 -225 -225 -225 -225 -225 -225 -225 -225 -225 -225 -225 -225 -225 -225 -225 -225 -225 -225 -225 -225 -225 -225 -225 -225 -225 -225 -225 -225 -225 -225 -225 -225 -225 -225 -225 -225 -225 -225 -225 -225 61 61 61 64 63 66 63 63 60 62 61 62 62 63 59 66 66 68 70 69 67 60 56 58 55 56 53 52 54 57 -209 -209 -209 -209 -209 -209 84 78 81 75 74 72 72 72 70 69 -209 -193 -193 -209 -209 50 52 52 54 54 53 54 47 45 -209 37 35 -193 37 37 -193 41 -209 45 49 54 50 53 54 53 53 53 53 55 50 52 49 46 45 43 45 46 0 0 0 0 0
    0 0 0 0 0 0 0 0 0 0 0 0 0 0 0 0 0 0 0 0 0 0 0 0 0 0 0 0 0 0 0 0 0 0 0 0 0 0 0 0 0 0 0 0 0 0 0 0 0 0 0 0 0 0 0 0 0 0 0 0 0 0 0 0 0 0 0 0 0 -209 -209 -193 -193 -193 -193 -225 0 -209 -209 -209 -193 -209 -209 -225 81 -225 -225 -225 -225 -225 -225 -225 -225 -225 -225 -225 -225 -225 -225 -225 -225 -225 -225 -225 -225 -225 -225 -225 -225 -225 -225 -225 -225 -225 -225 -225 -225 46 48 51 51 51 50 56 63 70 72 71 71 72 85 -225 -225 -225 -225 -209 -209 -193 -209 -209 -193 -209 -225 -225 -225 -225 52 52 55 55 55 56 55 55 56 57 -225 -225 -225 -225 -225 -225 -225 -225 -225 -225 -225 -225 -225 -225 -225 -225 -225 -225 -225 -225 -225 -225 -225 -225 -225 -225 -225 -225 -225 -225 -225 -225 -225 -225 -225 -225 -225 -225 -225 -225 -225 -225 -225 -225 -225 -225 -225 -225 -225 -225 -225 -225 -225 -225 -225 -225 -225 -225 -225 -225 -225 -225 -225 -225 -225 -225 -225 -225 -225 -225 -225 -225 63 62 63 63 66 64 64 61 63 63 65 67 68 64 70 74 72 73 73 72 69 66 67 66 63 60 -193 62 70 77 76 82 -193 -193 78 81 78 78 76 76 73 73 74 72 70 67 66 62 64 -209 -193 54 54 55 56 54 -193 -209 -209 -209 -209 -209 -209 -209 -209 -209 -209 -209 45 48 52 50 52 54 52 53 -193 -193 -193 -193 57 -209 -209 -209 41 46 46 0 0 0 0 0
    0 0 0 0 0 0 0 0 0 0 0 0 0 0 0 0 0 0 0 0 0 0 0 0 0 0 0 0 0 0 0 0 0 0 0 0 0 0 0 0 0 0 0 0 0 0 0 0 0 0 0 0 0 0 0 0 0 0 0 0 0 0 0 0 0 0 0 0 0 96 96 95 -193 -193 -193 -225 0 -209 -209 -209 -225 -225 -225 -225 -225 -225 -225 -225 -225 -225 -225 -225 -225 -225 -225 -225 -225 -225 -225 -225 -225 -225 -225 -225 -225 -225 -225 -225 -225 -225 -225 -225 -225 -225 -225 -225 -225 -225 47 52 54 54 55 55 61 68 -225 -225 -225 -225 -225 -225 -225 -225 -225 -225 -225 -225 -225 -225 -225 -225 -225 -225 -225 -225 -225 -225 56 56 56 57 57 56 57 -225 -225 -225 -225 -225 -225 -225 -225 -225 -225 -225 -225 -225 -225 -225 -225 -225 -225 -225 -225 -225 -225 -225 -225 -225 -225 -225 -225 -225 -225 -225 -225 -225 -225 -225 -225 -225 -225 -225 -225 -225 -225 -225 -225 -225 -225 -225 -225 -225 -225 -225 -225 -225 -225 -225 -225 -225 -225 -225 -225 -225 -225 -225 -225 -225 -225 -225 -225 -225 -225 -225 -225 -225 63 61 63 62 65 64 64 61 63 62 65 68 69 66 71 74 73 74 74 74 72 72 71 74 -209 75 75 74 75 79 78 84 78 76 78 81 78 78 76 77 73 73 74 72 69 67 68 66 65 -209 -209 57 56 58 -209 -209 -209 -209 -209 -209 -209 106 105 103 104 109 -209 -209 43 44 49 48 51 52 51 53 -193 -193 -209 -209 -209 -209 -193 -193 -209 46 -209 0 0 0 0 0
    0 0 0 0 0 0 0 0 0 0 0 0 0 0 0 0 0 0 0 0 0 0 0 0 0 0 0 0 0 0 0 0 0 0 0 0 0 0 0 0 0 0 0 0 0 0 0 0 0 0 0 0 0 0 0 0 0 0 0 0 0 0 0 0 0 0 0 0 0 93 94 94 -193 -225 -225 -225 -225 -193 -209 -225 -225 -225 -225 -225 -225 -225 -225 -225 -225 -225 -225 -225 -225 -225 -225 -225 -225 -225 -225 -225 -225 -225 -225 -225 -225 -225 -225 -225 -225 -225 -225 -225 -225 -225 -225 -225 -225 -225 -225 -225 -225 -225 -225 -225 -225 -225 -225 -225 -225 -225 -225 -225 -225 -225 -225 -225 -225 -225 -225 -225 -225 -225 -225 -225 -225 -225 -225 -225 -225 -225 -225 -225 -225 -225 -225 -225 -225 -225 -225 -225 -225 -225 -225 -225 -225 -225 -225 -225 -225 -225 -225 -225 -225 -225 -225 -225 -225 -225 -225 -225 -225 -225 -225 -225 -225 -225 -225 -225 -225 -225 -225 -225 -225 -225 -225 -225 -225 -225 -225 -225 -225 -225 -225 -225 -225 -225 -225 -225 -225 -225 -225 -225 -225 -225 -225 -225 -225 -225 -225 -225 -225 -225 -225 -225 -225 -225 -225 -225 -225 61 63 62 65 64 64 61 63 63 65 68 70 67 71 74 73 75 75 74 73 73 72 76 -209 79 78 79 77 81 81 85 80 77 80 83 81 80 79 79 74 74 75 72 68 65 69 67 66 -209 -209 -209 -209 -209 85 -209 -209 91 -193 92 95 101 101 100 102 106 -209 -209 -209 43 47 46 48 -193 50 54 -209 -209 -209 64 -209 -209 -209 -209 -209 48 -209 0 0 0 0 0
    0 0 0 0 0 0 0 0 0 0 0 0 0 0 0 0 0 0 0 0 0 0 0 0 0 0 0 0 0 0 0 0 0 0 0 0 0 0 0 0 0 0 0 0 0 0 0 0 0 0 0 0 0 0 0 0 0 0 0 0 0 0 0 0 0 0 0 0 0 93 94 94 -209 -225 -225 -225 -225 -225 -225 -225 -225 -225 -225 -225 -225 -225 -225 -225 -225 -225 -225 -225 -225 -225 -225 -225 -225 -225 -225 -225 -225 -225 -225 -225 -225 -225 -225 -225 -225 -225 -225 -225 -225 -225 -225 -225 -225 -225 -225 -225 -225 -225 -225 -225 -225 -225 -225 -225 -225 -225 -225 -225 -225 -225 -225 -225 -225 -225 -225 -225 -225 -225 -225 -225 -225 -225 -225 -225 -225 -225 -225 -225 -225 -225 -225 -225 -225 -225 -225 -225 -225 -225 -225 -225 -225 -225 -225 -225 -225 -225 -225 -225 -225 -225 -225 -225 -225 -225 -225 -225 -225 -225 -225 -225 -225 -225 -225 -225 -225 -225 -225 -225 -225 -225 -225 -225 -225 -225 -225 -225 -225 -225 -225 -225 -225 -225 -225 -225 -225 -225 -225 -225 -225 -225 -225 -225 -225 -225 -225 -225 -225 -225 -225 -225 -225 -225 -225 -225 -225 -225 -225 -225 65 64 65 62 64 64 66 70 71 71 71 74 73 75 75 75 73 73 73 77 -209 80 79 81 78 82 81 85 79 76 79 83 81 80 79 79 74 74 75 73 68 68 71 -193 -193 -193 90 -193 -209 -193 87 -209 84 89 89 90 92 95 96 96 99 103 -209 -209 -209 -193 47 46 47 50 49 53 -209 -209 -209 65 -209 63 -209 -209 -209 51 -209 0 0 0 0 0
    0 0 0 0 0 0 0 0 0 0 0 0 0 0 0 0 0 0 0 0 0 0 0 0 0 0 0 0 0 0 0 0 0 0 0 0 0 0 0 0 0 0 0 0 0 0 0 0 0 0 0 0 0 0 0 0 0 0 0 0 0 0 0 0 0 0 0 0 0 93 94 94 -209 -225 -225 -225 -225 -225 -225 -225 -225 -225 -225 -225 -225 -225 -225 -225 -225 -225 -225 -225 -225 -225 -225 -225 -225 -225 -225 -225 -225 -225 -225 -225 -225 -225 -225 -225 -225 -225 -225 -225 -225 -225 -225 -225 -225 -225 -225 -225 -225 -225 -225 -225 -225 -225 -225 -225 -225 -225 -225 -225 -225 -225 -225 -225 -225 -225 -225 -225 -225 -225 -225 -225 -225 -225 -225 -225 -225 -225 -225 -225 -225 -225 -225 -225 -225 -225 -225 -225 -225 -225 -225 -225 -225 -225 -225 -225 -225 -225 -225 -225 -225 -225 -225 -225 -225 -225 -225 -225 -225 -225 -225 -225 -225 -225 -225 -225 -225 -225 -225 -225 -225 -225 -225 -225 -225 -225 -225 -225 -225 -225 -225 -225 -225 -225 -225 -225 -225 -225 -225 -225 -225 -225 -225 -225 -225 -225 -225 -225 -225 -225 -225 -225 -225 -225 -225 -225 -225 -225 -225 -225 -225 -225 -225 -225 65 65 68 72 74 73 73 76 74 76 76 76 73 73 73 76 -209 79 78 78 77 78 77 82 77 75 77 82 80 79 78 79 74 74 76 73 70 70 74 81 83 -193 91 90 89 90 -193 81 83 86 86 88 89 93 92 92 95 102 -209 -209 -209 -209 48 46 47 49 48 52 53 53 56 59 -209 60 -209 -209 -209 -209 -209 0 0 0 0 0
    0 0 0 0 0 0 0 0 0 0 0 0 0 0 0 0 0 0 0 0 0 0 0 0 0 0 0 0 0 0 0 0 0 0 0 0 0 0 0 0 0 0 0 0 0 0 0 0 0 0 0 0 0 0 0 0 0 0 0 0 0 0 0 0 0 0 0 0 0 98 99 96 -193 -225 -225 -225 -225 -225 -225 -225 -225 -225 -225 -225 -225 -225 -225 -225 -225 -225 -225 -225 -225 -225 -225 -225 -225 -225 -225 -225 -225 -225 -225 -225 -225 -225 -225 -225 -225 -225 -225 -225 -225 -225 -225 -225 -225 -225 -225 -225 -225 -225 -225 -225 -225 -225 -225 -225 -225 -225 -225 -225 -225 -225 -225 -225 -225 -225 -225 -225 -225 -225 -225 -225 -225 -225 -225 -225 -225 -225 -225 -225 -225 -225 -225 -225 -225 -225 -225 -225 -225 -225 -225 -225 -225 -225 -225 -225 -225 -225 -225 -225 -225 -225 -225 -225 -225 -225 -225 -225 -225 -225 -225 -225 -225 -225 -225 -225 -225 -225 -225 -225 -225 -225 -225 -225 -225 -225 -225 -225 -225 -225 -225 -225 -225 -225 -225 -225 -225 -225 -225 -225 -225 -225 -225 -225 -225 -225 -225 -225 -225 -225 -225 -225 -225 -225 -225 -225 -225 -225 -225 -225 -225 -225 -225 -225 -225 -225 -225 -225 76 74 74 78 76 77 77 77 74 74 74 77 -209 80 78 80 78 79 76 82 76 74 76 81 79 78 77 78 74 75 77 75 71 72 80 88 88 89 91 91 91 91 90 85 84 88 88 90 90 93 91 92 93 98 -209 -209 -209 -193 51 50 50 51 50 54 -193 -193 -193 59 -209 -193 -209 -209 -209 -209 -209 0 0 0 0 0
    0 0 0 0 0 0 0 0 0 0 0 0 0 0 0 0 0 0 0 0 0 0 0 0 0 0 0 0 0 0 0 0 0 0 0 0 0 0 0 0 0 0 0 0 0 0 0 0 0 0 0 0 0 0 0 0 0 0 0 0 0 0 0 0 0 0 0 0 0 103 104 -225 -225 -225 -225 -225 -225 -225 -225 -225 -225 -225 -225 -225 -225 -225 -225 -225 -225 -225 -225 -225 -225 -225 -225 -225 -225 -225 -225 -225 -225 -225 -225 -225 -225 -225 -225 -225 -225 -225 -225 -225 -225 -225 -225 -225 -225 -225 -225 -225 -225 -225 -225 -225 -225 -225 -225 -225 -225 -225 -225 -225 -225 -225 -225 -225 -225 -225 -225 -225 -225 -225 -225 -225 -225 -225 -225 -225 -225 -225 -225 -225 -225 -225 -225 -225 -225 -225 -225 -225 -225 -225 -225 -225 -225 -225 -225 -225 -225 -225 -225 -225 -225 -225 -225 -225 -225 -225 -225 -225 -225 -225 -225 -225 -225 -225 -225 -225 -225 -225 -225 -225 -225 -225 -225 -225 -225 -225 -225 -225 -225 -225 -225 -225 -225 -225 -225 -225 -225 -225 -225 -225 -225 -225 -225 -225 -225 -225 -225 -225 -225 -225 -225 -225 -225 -225 -225 -225 -225 -225 -225 -225 -225 -225 -225 -225 -225 -225 -225 -225 -225 76 76 81 77 78 77 78 75 75 76 -209 -209 81 80 83 80 81 78 82 77 75 77 81 79 78 78 79 76 77 80 77 73 75 87 89 89 90 92 91 91 91 91 86 86 88 88 90 91 93 91 92 92 95 -193 -209 -209 -209 52 52 49 50 49 55 -209 -209 -193 -209 -209 -209 -209 -209 -209 -209 -209 0 0 0 0 0
    0 0 0 0 0 0 0 0 0 0 0 0 0 0 0 0 0 0 0 0 0 0 0 0 0 0 0 0 0 0 0 0 0 0 0 0 0 0 0 0 0 0 0 0 0 0 0 0 0 0 0 0 0 0 0 0 0 0 0 0 0 0 0 0 0 0 0 0 0 -225 -225 -225 -225 -225 -225 -225 -225 -225 -225 -225 -225 -225 -225 -225 -225 -225 -225 -225 -225 -225 -225 -225 -225 -225 -225 -225 -225 -225 -225 -225 -225 -225 -225 -225 -225 -225 -225 -225 -225 -225 -225 -225 -225 -225 -225 -225 -225 -225 -225 -225 -225 -225 -225 -225 -225 -225 -225 -225 -225 -225 -225 -225 -225 -225 -225 -225 -225 -225 -225 -225 -225 -225 -225 -225 -225 -225 -225 -225 -225 -225 -225 -225 -225 -225 -225 -225 -225 -225 -225 -225 -225 -225 -225 -225 -225 -225 -225 -225 -225 -225 -225 -225 -225 -225 -225 -225 -225 -225 -225 -225 -225 -225 -225 -225 -225 -225 -225 -225 -225 -225 -225 -225 -225 -225 -225 -225 -225 -225 -225 -225 -225 -225 -225 -225 -225 -225 -225 -225 -225 -225 -225 -225 -225 -225 -225 -225 -225 -225 -225 -225 -225 -225 -225 -225 -225 -225 -225 -225 -225 -225 -225 -225 -225 -225 -225 -225 -225 -225 -225 -225 -225 -225 78 84 79 80 79 80 77 77 79 83 -209 84 83 85 82 82 79 82 77 75 77 81 79 78 78 79 76 78 80 78 74 75 88 89 90 90 92 92 91 91 91 89 89 90 89 91 92 95 93 93 92 94 95 -209 -209 -209 -209 -209 -209 -209 -209 -209 -209 -209 51 -209 -209 -209 -209 102 -193 99 -209 0 0 0 0 0
    0 0 0 0 0 0 0 0 0 0 0 0 0 0 0 0 0 0 0 0 0 0 0 0 0 0 0 0 0 0 0 0 0 0 0 0 0 0 0 0 0 0 0 0 0 0 0 0 0 0 0 0 0 0 0 0 0 0 0 0 0 0 0 0 0 0 0 0 0 -225 -225 -225 -225 -225 -225 -225 -225 -225 -225 -225 -225 -225 -225 -225 -225 -225 -225 -225 -225 -225 -225 -225 -225 -225 -225 -225 -225 -225 -225 -225 -225 -225 -225 -225 -225 -225 -225 -225 -225 -225 -225 -225 -225 -225 -225 -225 -225 -225 -225 -225 -225 -225 -225 -225 -225 -225 -225 -225 -225 -225 -225 -225 -225 -225 -225 -225 -225 -225 -225 -225 -225 -225 -225 -225 -225 -225 -225 -225 -225 -225 -225 -225 -225 -225 -225 -225 -225 -225 -225 -225 -225 -225 -225 -225 -225 -225 -225 -225 -225 -225 -225 -225 -225 -225 -225 -225 -225 -225 -225 -225 -225 -225 -225 -225 -225 -225 -225 -225 -225 -225 -225 -225 -225 -225 -225 -225 -225 -225 -225 -225 -225 -225 -225 -225 -225 -225 -225 -225 -225 -225 -225 -225 -225 -225 -225 -225 -225 -225 -225 -225 -225 -225 -225 -225 -225 -225 -225 -225 -225 -225 -225 -225 -225 -225 -225 -225 -225 -225 -225 -225 -225 -225 -225 -225 78 82 81 83 81 82 85 87 -209 85 85 86 84 85 82 83 78 76 78 82 80 79 79 80 77 78 80 78 74 76 87 89 89 90 93 93 91 92 92 90 90 93 91 92 93 96 93 92 92 93 91 -193 -193 -209 -209 -209 -209 59 -209 -193 -209 -209 52 -209 -209 -209 103 102 103 101 -193 0 0 0 0 0
    0 0 0 0 0 0 0 0 0 0 0 0 0 0 0 0 0 0 0 0 0 0 0 0 0 0 0 0 0 0 0 0 0 0 0 0 0 0 0 0 0 0 0 0 0 0 0 0 0 0 0 0 0 0 0 0 0 0 0 0 0 0 0 0 0 0 0 0 0 -225 -225 -225 -225 -225 -225 -225 -225 -225 -225 -225 -225 -225 -225 -225 -225 -225 -225 -225 -225 -225 -225 -225 -225 -225 -225 -225 -225 -225 -225 -225 -225 -225 -225 -225 -225 -225 -225 -225 -225 -225 -225 -225 -225 -225 -225 -225 -225 -225 -225 -225 -225 -225 -225 -225 -225 -225 -225 -225 -225 -225 -225 -225 -225 -225 -225 -225 -225 -225 -225 -225 -225 -225 -225 -225 -225 -225 -225 -225 -225 -225 -225 -225 -225 -225 -225 -225 -225 -225 -225 -225 -225 -225 -225 -225 -225 -225 -225 -225 -225 -225 -225 -225 -225 -225 -225 -225 -225 -225 -225 -225 -225 -225 -225 -225 -225 -225 -225 -225 -225 -225 -225 -225 -225 -225 -225 -225 -225 -225 -225 -225 -225 -225 -225 -225 -225 -225 -225 -225 -225 -225 -225 -225 -225 -225 -225 -225 -225 -225 -225 -225 -225 -225 -225 -225 -225 -225 -225 -225 -225 -225 -225 -225 -225 -225 -225 -225 -225 -225 -225 -225 -225 -225 -225 -225 -225 -225 -225 -225 -225 -193 -209 -209 -209 86 86 86 84 87 83 85 79 78 82 85 82 81 79 80 77 79 80 77 75 79 87 89 89 90 92 92 91 92 92 90 90 93 91 93 92 95 93 92 91 91 -193 -209 -209 -209 -209 -209 -209 59 -193 54 -209 -209 48 49 -209 107 -177 103 105 104 -193 0 0 0 0 0
    0 0 0 0 0 0 0 0 0 0 0 0 0 0 0 0 0 0 0 0 0 0 0 0 0 0 0 0 0 0 0 0 0 0 0 0 0 0 0 0 0 0 0 0 0 0 0 0 0 0 0 0 0 0 0 0 0 0 0 0 0 0 0 0 0 0 0 0 0 -225 -225 -225 -225 -225 -225 -225 -225 -225 -225 -225 -225 -225 -225 -225 -225 -225 -225 -225 -225 -225 -225 -225 -225 -225 -225 -225 -225 -225 -225 -225 -225 -225 -225 -225 -225 -225 -225 -225 -225 -225 -225 -225 -225 -225 -225 -225 -225 -225 -225 -225 -225 -225 -225 -225 -225 -225 -225 -225 -225 -225 -225 -225 -225 -225 -225 -225 -225 -225 -225 -225 -225 -225 -225 -225 -225 -225 -225 -225 -225 -225 -225 -225 -225 -225 -225 -225 -225 -225 -225 -225 -225 -225 -225 -225 -225 -225 -225 -225 -225 -225 -225 -225 -225 -225 -225 -225 -225 -225 -225 -225 -225 -225 -225 -225 -225 -225 -225 -225 -225 -225 -225 -225 -225 -225 -225 -225 -225 -225 -225 -225 -225 -225 -225 -225 -225 -225 -225 -225 -225 -225 -225 -225 -225 -225 -225 -225 -225 -225 -225 -225 -225 -225 -225 -225 -225 -225 -225 -225 -225 -225 -225 -225 -225 -225 -225 -225 -225 -225 -225 -225 -225 -225 -225 -225 -225 -225 -225 -225 -225 -225 -225 -225 -225 85 85 85 82 87 82 84 78 77 82 84 82 82 78 79 78 81 82 80 78 83 88 89 89 90 92 93 92 93 94 92 92 95 94 96 95 98 93 92 91 92 -209 -209 -209 -209 -209 -209 -209 53 48 48 46 43 45 46 -209 -209 -209 102 104 104 -209 0 0 0 0 0
    0 0 0 0 0 0 0 0 0 0 0 0 0 0 0 0 0 0 0 0 0 0 0 0 0 0 0 0 0 0 0 0 0 0 0 0 0 0 0 0 0 0 0 0 0 0 0 0 0 0 0 0 0 0 0 0 0 0 0 0 0 0 0 0 0 0 0 0 0 -193 -193 -193 -193 -193 -225 -225 -225 -225 -225 -225 -225 -225 -225 -225 -225 -225 -225 -225 -225 -225 -225 -225 -225 -225 -225 -225 -225 -225 -225 -225 -225 -225 -225 -225 -225 -225 -225 -225 -225 -225 -225 -225 -225 -225 -225 -225 -225 -225 -225 -225 -225 -225 -225 -225 -225 -225 -225 -225 -225 -225 -225 -225 -225 -225 -225 -225 -225 -225 -225 -225 -225 -225 -225 -225 -225 -225 -225 -225 -225 -225 -225 -225 -225 -225 -225 -225 -225 -225 -225 -225 -225 -225 -225 -225 -225 -225 -225 -225 -225 -225 -225 -225 -225 -225 -225 -225 -225 -225 -225 -225 -225 -225 -225 -225 -225 -225 -225 -225 -225 -225 -225 -225 -225 -225 -225 -225 -225 -225 -225 -225 -225 -225 -225 -225 -225 -225 -225 -225 -225 -225 -225 -225 -225 -225 -225 -225 -225 -225 -225 -225 -225 -225 -225 -225 -225 -225 -225 -225 -225 -225 -225 -225 -225 -225 -225 -225 -225 -225 -225 -225 -225 -225 -225 -225 -225 -225 -225 -225 -225 -225 -225 -225 -225 78 79 -209 77 85 -209 75 71 -209 -209 74 77 74 74 76 78 81 81 81 81 84 87 89 88 90 93 100 97 100 99 97 100 98 98 100 98 100 95 93 91 95 -209 -209 -209 -209 -209 -209 -209 -209 -209 -193 -193 -209 46 -193 -193 107 105 102 104 102 -209 0 0 0 0 0
    0 0 0 0 0 0 0 0 0 0 0 0 0 0 0 0 0 0 0 0 0 0 0 0 0 0 0 0 0 0 0 0 0 0 0 0 0 0 0 0 0 0 0 0 0 0 0 0 0 0 0 0 0 0 0 0 0 0 0 0 0 0 0 0 0 0 0 0 0 124 124 125 125 127 126 128 130 130 132 134 135 135 -225 -225 -225 -225 -225 -225 -225 -225 -225 -225 -225 155 149 151 151 152 -209 49 -193 405 -193 -225 -225 -225 -225 -225 -225 -225 -225 -225 -225 -225 -225 -225 -225 -225 -225 -225 -225 -225 -225 -225 -225 -225 -225 -225 -225 -225 -225 -225 -225 -225 -225 -225 -225 -225 -225 -225 -225 -225 -225 -225 -225 -225 -225 -225 -225 -225 -225 -225 -225 -225 -225 -225 -225 -225 -225 -225 -225 -225 -225 -225 -225 -225 -225 -225 -225 -225 -225 -225 -225 -225 -225 -225 -225 -225 -225 -225 -225 -225 -225 -225 -225 -225 -225 -225 -225 -225 -225 -225 -225 -225 -225 -225 -225 -225 -225 -225 -225 -225 -225 -225 -225 -225 -225 -225 -225 -225 -225 -225 -225 -225 -225 -225 -225 -225 -225 -225 -225 -225 -225 -225 -225 -225 -225 -225 -225 -225 -225 -225 -225 -225 -225 -225 -225 -225 -225 -225 -225 -225 -225 -225 -225 -225 -225 -225 -225 -225 -225 -225 -225 -209 -209 -209 -209 -209 -209 70 71 -209 -209 -209 74 71 73 75 77 78 77 78 82 84 85 89 89 91 100 106 103 105 104 105 107 103 102 103 100 103 101 95 90 97 -209 -209 73 -209 -209 -209 -209 -209 -209 -209 -193 109 -193 -193 105 107 105 102 103 102 -209 0 0 0 0 0</data></disparity>
</opencv_storage>
