<?xml version="1.0"?>
<opencv_storage>
<gps_time_stamp>20531</gps_time_stamp>
<gps_x>-1.6120113134384155e+000</gps_x>
<gps_y>1.1669641733169556e-001</gps_y>
<gps_z>3.9498645812273026e-002</gps_z>
<image_time_stamp>8463</image_time_stamp>
<disparity type_id="opencv-matrix">
  <rows>84</rows>
  <cols>320</cols>
  <dt>s</dt>
  <data>
    0 0 0 0 0 0 0 0 0 0 0 0 0 0 0 0 0 0 0 0 0 0 0 0 0 0 0 0 0 0 0 0 0 0 0 0 0 0 0 0 0 0 0 0 0 0 0 0 0 0 0 0 0 0 0 0 0 0 0 0 0 0 0 0 0 0 0 0 0 67 68 69 71 75 75 78 80 79 81 83 86 83 82 84 81 79 78 72 72 70 69 66 66 65 61 64 -193 65 -193 -193 71 -193 70 71 70 70 69 66 65 65 64 65 62 62 62 65 63 67 67 67 66 66 65 66 65 66 65 65 64 66 68 68 67 69 67 67 67 67 67 66 66 67 63 68 65 65 64 67 66 67 67 66 65 66 65 66 63 64 62 62 63 62 63 61 62 62 62 62 62 62 63 63 64 65 67 67 67 67 66 67 66 66 64 63 62 62 61 62 60 60 59 61 60 62 65 63 64 64 64 65 65 66 66 63 65 64 66 64 64 63 63 62 62 63 63 61 63 63 62 65 68 68 69 69 72 75 74 75 75 75 75 75 75 75 71 70 61 60 60 61 62 68 74 -209 90 90 101 94 95 98 97 97 95 97 97 90 97 -193 59 59 58 60 62 61 62 64 65 67 59 63 65 59 59 62 69 71 69 -209 -209 -209 -209 122 129 125 128 127 126 127 126 125 125 122 129 -193 135 -193 -193 137 139 139 140 -193 -193 -193 -193 141 -193 62 60 62 62 65 68 68 70 0 0 0 0 0
    0 0 0 0 0 0 0 0 0 0 0 0 0 0 0 0 0 0 0 0 0 0 0 0 0 0 0 0 0 0 0 0 0 0 0 0 0 0 0 0 0 0 0 0 0 0 0 0 0 0 0 0 0 0 0 0 0 0 0 0 0 0 0 0 0 0 0 0 0 70 71 -193 74 83 82 85 87 87 87 87 89 87 86 88 88 86 89 86 -193 -209 -209 -209 -209 -209 -209 -209 -193 -209 93 -193 -193 -193 -193 -193 -193 -209 -209 -209 -209 -193 -193 -209 -193 -193 64 67 65 68 68 68 67 67 66 67 66 67 66 67 66 69 -209 -193 -193 -209 -209 69 69 69 68 67 68 67 63 68 66 66 65 67 67 68 68 67 67 68 68 69 66 67 64 65 66 66 66 64 65 65 66 66 65 65 65 65 66 67 69 68 68 68 68 69 68 68 66 65 63 64 62 63 62 61 60 63 61 63 66 65 66 65 66 67 67 68 68 66 69 68 69 66 65 63 63 62 62 63 62 61 63 63 65 67 71 70 71 72 73 76 74 76 75 75 75 75 75 75 73 74 62 64 60 62 61 69 80 -209 91 91 101 95 95 98 97 96 95 96 97 90 95 65 62 63 63 63 65 63 66 69 69 70 65 68 68 63 62 65 70 72 -209 -209 -209 -209 -209 -193 -193 -193 128 126 126 126 126 125 125 123 130 128 134 139 -209 137 140 139 140 -193 -193 -193 -193 141 -193 63 61 63 63 66 69 69 71 0 0 0 0 0
    0 0 0 0 0 0 0 0 0 0 0 0 0 0 0 0 0 0 0 0 0 0 0 0 0 0 0 0 0 0 0 0 0 0 0 0 0 0 0 0 0 0 0 0 0 0 0 0 0 0 0 0 0 0 0 0 0 0 0 0 0 0 0 0 0 0 0 0 0 73 -209 -209 81 89 86 89 88 89 89 89 91 89 88 89 89 89 91 91 91 90 90 92 95 95 95 92 94 92 95 99 95 93 93 92 92 92 -193 -193 93 94 93 -193 97 -193 -209 69 67 69 -193 68 67 67 67 67 66 68 68 69 68 -193 -209 -209 -177 -209 -209 -209 -209 -209 -193 69 70 69 66 69 68 69 68 69 69 70 70 69 69 70 70 71 69 70 67 69 69 69 69 65 67 67 68 67 67 67 67 67 68 69 70 69 69 69 69 70 69 69 67 66 66 67 64 66 64 63 62 66 62 64 67 66 67 66 67 68 68 70 70 69 71 71 71 70 67 64 63 62 62 62 61 61 63 64 70 72 77 79 78 76 76 78 75 77 76 75 75 75 75 75 74 75 64 68 62 64 61 71 -209 -193 92 92 100 94 96 97 97 96 95 97 96 91 97 -193 67 68 70 71 69 68 70 70 70 72 71 71 71 68 67 69 72 75 -209 -209 -177 -209 -209 -193 -193 -193 128 127 126 126 126 125 125 123 130 129 134 140 138 138 140 140 140 -193 -193 140 138 141 -193 65 61 63 63 67 69 69 70 0 0 0 0 0
    0 0 0 0 0 0 0 0 0 0 0 0 0 0 0 0 0 0 0 0 0 0 0 0 0 0 0 0 0 0 0 0 0 0 0 0 0 0 0 0 0 0 0 0 0 0 0 0 0 0 0 0 0 0 0 0 0 0 0 0 0 0 0 0 0 0 0 0 0 90 92 92 89 92 89 92 92 94 91 92 94 91 90 90 90 90 92 92 93 91 92 93 96 96 95 93 94 93 96 100 96 94 94 94 93 94 96 94 95 97 96 98 99 100 98 -209 -193 -209 -193 -193 -193 68 68 -193 68 70 -193 -209 -209 -209 -193 -193 -193 -209 -209 -209 -193 -209 -209 -193 77 -209 -209 72 71 72 -209 -209 -209 -193 -209 -209 -209 -209 -209 -209 72 72 70 71 -193 -193 -193 66 68 67 69 69 68 68 69 69 70 71 73 -209 72 72 73 -193 -209 -209 -193 -193 70 70 68 68 68 65 64 67 62 65 67 66 68 67 69 69 69 71 71 71 73 73 74 73 71 67 64 62 62 62 61 63 66 70 76 84 87 89 90 85 83 82 76 78 76 75 76 76 75 75 75 80 71 77 -193 91 -209 -209 -193 -193 92 93 99 94 95 97 97 96 95 97 97 91 97 94 -193 -193 82 82 -193 70 73 72 72 73 75 74 75 74 72 72 74 77 -193 -209 309 -209 -209 -193 -193 126 128 128 127 126 125 126 126 123 131 130 134 -193 139 139 141 140 141 -193 -193 141 138 141 -209 67 63 63 64 67 69 69 70 0 0 0 0 0
    0 0 0 0 0 0 0 0 0 0 0 0 0 0 0 0 0 0 0 0 0 0 0 0 0 0 0 0 0 0 0 0 0 0 0 0 0 0 0 0 0 0 0 0 0 0 0 0 0 0 0 0 0 0 0 0 0 0 0 0 0 0 0 0 0 0 0 0 0 93 95 96 95 99 102 102 103 101 96 98 98 94 94 93 93 93 94 95 95 94 94 94 98 98 97 95 96 95 98 100 98 97 96 96 95 97 99 96 97 99 98 99 99 100 99 96 103 -209 -209 -209 -209 -209 -209 -209 -209 -193 -209 -209 -209 -209 93 92 92 94 93 93 92 92 91 90 90 90 -209 -209 89 -209 -209 92 91 -193 -193 -209 -209 -209 -193 -193 -193 -193 91 87 93 92 93 -193 69 68 70 70 70 70 -209 -209 -209 -209 -193 -209 -209 77 -193 -193 -193 614 -193 -193 -193 -209 -209 -209 -193 69 67 69 63 66 68 67 68 67 69 70 70 72 72 72 75 75 76 76 74 73 68 66 66 65 64 69 71 74 84 89 90 92 91 89 88 85 78 80 78 76 76 77 76 76 76 85 76 89 96 93 95 93 95 97 94 94 99 94 96 97 97 97 96 97 97 92 97 95 -193 -193 90 88 -193 -193 79 76 74 77 78 76 76 76 74 73 75 76 79 -209 310 -209 -209 -193 -193 127 128 128 126 126 125 126 126 124 133 131 134 -193 140 140 141 141 141 337 -193 142 138 141 72 69 68 67 67 68 70 69 69 0 0 0 0 0
    0 0 0 0 0 0 0 0 0 0 0 0 0 0 0 0 0 0 0 0 0 0 0 0 0 0 0 0 0 0 0 0 0 0 0 0 0 0 0 0 0 0 0 0 0 0 0 0 0 0 0 0 0 0 0 0 0 0 0 0 0 0 0 0 0 0 0 0 0 95 98 99 100 103 105 106 106 105 102 102 101 98 98 96 96 96 97 98 98 97 97 97 100 99 99 97 98 97 98 100 99 99 98 98 96 98 100 97 98 99 99 99 99 100 99 96 103 97 -193 -193 94 -193 92 -209 -209 -209 -209 -209 90 90 96 93 93 95 95 94 93 94 93 91 92 92 91 90 91 90 93 94 94 93 98 -193 91 90 91 92 91 92 93 90 96 95 94 95 -193 -193 71 -193 -209 -209 -209 -209 -209 -209 -209 -209 -209 -193 -193 -193 -193 -193 -193 -193 -193 92 94 -193 89 -209 70 71 64 68 69 67 69 68 70 70 71 74 74 74 77 79 83 84 83 89 78 71 71 69 69 -193 75 80 88 91 92 94 93 91 90 89 84 85 82 80 78 79 79 79 80 87 -193 91 98 94 96 95 96 98 95 96 100 95 97 98 98 97 96 98 97 93 99 97 93 92 94 92 91 88 88 90 86 88 86 82 79 80 78 76 77 78 82 -193 -209 -209 -209 -209 132 126 127 128 126 125 125 127 127 124 135 133 135 143 141 141 142 -193 -193 336 -193 -193 -193 142 -193 70 71 70 69 69 71 70 69 0 0 0 0 0
    0 0 0 0 0 0 0 0 0 0 0 0 0 0 0 0 0 0 0 0 0 0 0 0 0 0 0 0 0 0 0 0 0 0 0 0 0 0 0 0 0 0 0 0 0 0 0 0 0 0 0 0 0 0 0 0 0 0 0 0 0 0 0 0 0 0 0 0 0 95 97 99 100 103 105 105 106 106 104 104 103 100 100 98 98 98 99 99 99 98 99 98 101 100 100 98 100 98 100 101 101 101 100 100 99 99 101 98 99 99 99 99 99 100 100 98 104 101 99 96 97 95 94 93 91 90 89 92 91 91 98 94 94 97 97 95 95 95 95 92 94 93 92 91 92 92 96 96 96 96 100 95 94 94 94 96 93 95 95 92 97 95 95 95 90 -193 -209 -209 -209 -209 -209 -209 -209 -209 -209 -193 -209 -193 91 -193 -193 -193 -193 -193 -193 94 96 92 91 -209 -209 -209 67 71 70 69 70 70 72 72 72 76 77 78 82 84 87 88 89 91 91 89 90 -193 84 -193 -193 87 89 92 93 96 94 93 92 91 88 89 87 85 83 83 84 83 84 89 -193 92 98 95 96 95 96 98 96 97 100 95 97 98 98 98 97 98 98 93 100 98 95 94 97 94 93 91 91 93 93 92 91 88 85 86 85 79 79 81 85 92 -209 -209 -209 120 131 125 126 127 125 125 126 128 128 125 136 135 -193 144 142 142 143 -193 -193 336 -193 -193 -193 141 -193 72 73 73 72 71 72 71 69 0 0 0 0 0
    0 0 0 0 0 0 0 0 0 0 0 0 0 0 0 0 0 0 0 0 0 0 0 0 0 0 0 0 0 0 0 0 0 0 0 0 0 0 0 0 0 0 0 0 0 0 0 0 0 0 0 0 0 0 0 0 0 0 0 0 0 0 0 0 0 0 0 0 0 -177 98 99 100 103 106 106 107 107 105 105 104 101 102 99 99 99 99 99 99 99 99 98 101 101 100 99 100 99 101 102 102 102 101 102 100 100 101 98 99 99 99 99 99 100 100 99 105 102 102 100 100 99 98 97 93 92 92 94 93 92 99 95 95 98 97 96 96 96 96 94 95 95 94 93 95 95 99 98 98 99 101 98 97 97 97 99 95 96 96 93 97 96 96 95 91 95 92 92 -209 -209 -193 -193 -193 92 92 93 92 90 94 98 -193 99 -193 -193 -193 95 97 94 92 -193 -193 -193 -193 76 77 72 73 72 75 74 74 79 82 83 86 88 89 90 90 92 92 90 92 91 90 90 91 90 91 94 95 97 95 94 93 93 92 91 90 89 87 87 88 -193 88 90 92 94 100 96 97 97 98 99 98 98 100 96 98 99 99 98 97 98 98 94 100 98 96 95 99 96 95 93 94 96 96 96 95 92 89 89 88 83 82 84 87 96 -209 -209 118 120 130 125 126 127 125 125 126 128 128 126 136 -193 -193 145 142 142 144 -193 -193 -177 -193 -193 -193 141 -193 74 75 75 76 75 76 73 73 0 0 0 0 0
    0 0 0 0 0 0 0 0 0 0 0 0 0 0 0 0 0 0 0 0 0 0 0 0 0 0 0 0 0 0 0 0 0 0 0 0 0 0 0 0 0 0 0 0 0 0 0 0 0 0 0 0 0 0 0 0 0 0 0 0 0 0 0 0 0 0 0 0 0 98 99 100 101 103 107 108 109 110 108 107 106 104 103 100 100 99 100 100 99 99 99 98 101 100 100 99 100 99 101 102 102 103 103 103 102 101 102 99 100 100 99 100 100 101 101 101 105 104 103 102 101 100 99 98 95 94 93 96 93 92 99 95 95 98 98 96 96 96 97 94 97 96 95 95 97 98 100 99 100 100 101 99 99 99 99 100 97 98 97 95 98 97 97 96 92 98 96 96 99 94 95 95 94 95 94 94 95 92 98 100 98 101 98 98 99 98 98 96 94 95 91 92 91 87 91 86 83 76 80 81 77 84 87 86 88 89 90 91 91 93 94 91 94 92 91 92 92 92 92 94 96 98 96 96 95 96 95 94 93 92 90 90 91 92 91 92 96 97 101 96 98 98 99 99 99 98 100 97 99 99 99 99 98 98 98 95 101 99 99 99 100 98 97 96 96 97 98 97 98 96 95 99 100 91 86 89 88 100 116 120 121 122 130 125 126 127 125 125 125 127 127 126 136 -193 -193 145 143 143 144 -193 143 -193 143 -193 -193 141 -193 75 76 76 78 78 79 77 76 0 0 0 0 0
    0 0 0 0 0 0 0 0 0 0 0 0 0 0 0 0 0 0 0 0 0 0 0 0 0 0 0 0 0 0 0 0 0 0 0 0 0 0 0 0 0 0 0 0 0 0 0 0 0 0 0 0 0 0 0 0 0 0 0 0 0 0 0 0 0 0 0 0 0 101 102 102 103 105 109 111 112 113 111 109 110 107 105 -193 102 101 101 102 102 101 100 98 102 101 100 99 100 99 101 102 103 105 105 105 104 103 103 101 101 102 101 101 101 102 102 103 106 105 -209 103 102 100 99 98 94 93 93 96 94 94 101 96 97 99 99 98 97 98 98 95 98 98 96 97 99 100 101 100 100 101 102 100 100 100 101 101 99 99 98 97 99 98 98 97 93 99 99 98 100 97 97 97 96 97 97 96 97 94 100 101 99 101 99 99 99 99 99 97 95 97 93 96 93 91 93 91 89 84 86 89 84 87 91 89 91 91 92 93 92 94 95 92 96 93 93 94 94 94 93 95 97 98 96 96 96 97 97 97 96 95 94 96 96 97 94 96 100 100 102 97 98 99 99 99 99 99 100 98 100 100 100 100 99 99 98 98 102 101 101 101 101 100 98 98 97 98 99 98 100 99 101 104 104 104 98 96 97 102 116 123 122 124 130 126 126 127 126 125 125 127 126 126 136 -193 -193 146 143 143 145 143 143 141 143 144 -193 141 -193 77 78 78 80 80 81 79 77 0 0 0 0 0
    0 0 0 0 0 0 0 0 0 0 0 0 0 0 0 0 0 0 0 0 0 0 0 0 0 0 0 0 0 0 0 0 0 0 0 0 0 0 0 0 0 0 0 0 0 0 0 0 0 0 0 0 0 0 0 0 0 0 0 0 0 0 0 0 0 0 0 0 0 104 105 105 105 107 110 113 113 114 112 110 113 111 108 -193 -193 -193 -193 104 -209 -209 -209 -209 -209 -209 -193 99 101 99 101 103 104 107 107 106 105 104 104 102 103 103 102 103 103 104 104 106 107 107 -193 -193 104 103 101 100 94 95 96 100 98 101 103 99 100 101 100 99 99 99 99 96 99 98 97 98 100 100 101 100 100 101 101 100 99 100 100 101 99 99 99 97 100 99 99 98 95 100 100 99 101 97 98 98 97 98 98 97 98 95 100 101 99 101 99 99 99 98 99 97 96 98 95 98 96 94 98 94 92 91 90 92 89 89 95 92 93 94 93 94 94 95 96 92 97 94 95 96 96 95 95 96 98 98 96 96 96 98 99 99 98 98 99 102 101 102 101 102 104 103 104 100 100 100 100 100 100 100 101 99 101 101 101 101 100 100 99 99 102 101 101 101 101 100 99 98 98 99 99 99 101 100 102 105 104 105 102 101 102 103 116 124 122 125 130 126 127 127 126 125 125 127 126 126 136 -193 -193 147 144 144 146 143 143 141 143 144 -193 140 -193 82 83 82 84 84 83 83 78 0 0 0 0 0
    0 0 0 0 0 0 0 0 0 0 0 0 0 0 0 0 0 0 0 0 0 0 0 0 0 0 0 0 0 0 0 0 0 0 0 0 0 0 0 0 0 0 0 0 0 0 0 0 0 0 0 0 0 0 0 0 0 0 0 0 0 0 0 0 0 0 0 0 0 106 108 107 107 108 111 114 113 114 113 111 114 113 110 -193 -193 -193 -209 -193 -209 -209 -209 -209 -193 -193 -209 101 103 101 103 104 104 107 107 106 106 105 105 103 104 104 103 104 105 106 105 107 109 108 108 108 105 104 103 105 100 100 103 106 103 106 106 102 102 103 102 100 100 100 99 97 100 99 98 99 101 101 102 101 101 101 102 100 100 100 101 102 100 100 100 99 101 100 100 100 97 102 102 101 102 99 99 99 98 99 98 97 98 96 100 101 99 101 99 99 99 98 99 98 96 98 96 99 97 95 99 95 93 95 93 94 91 92 99 94 96 96 95 96 95 97 97 93 98 96 97 98 97 97 97 97 99 99 96 96 97 99 100 100 100 100 100 103 103 104 103 103 105 104 104 102 102 102 101 101 101 101 102 100 102 102 102 102 102 102 100 101 102 102 102 101 101 101 99 99 99 99 100 100 101 102 104 105 105 105 104 102 104 103 116 124 122 126 129 126 127 127 126 125 124 126 125 126 135 -193 -193 147 143 143 145 143 143 141 143 144 -193 140 -193 -193 87 -193 86 87 86 -193 82 0 0 0 0 0
    0 0 0 0 0 0 0 0 0 0 0 0 0 0 0 0 0 0 0 0 0 0 0 0 0 0 0 0 0 0 0 0 0 0 0 0 0 0 0 0 0 0 0 0 0 0 0 0 0 0 0 0 0 0 0 0 0 0 0 0 0 0 0 0 0 0 0 0 0 108 109 108 109 109 111 113 112 113 112 111 114 114 112 -193 -193 -193 -193 108 108 -193 107 108 109 108 108 104 106 105 106 106 105 108 107 107 106 106 106 104 105 106 104 106 106 107 107 108 110 109 110 109 106 106 105 107 107 106 108 110 106 110 109 104 105 104 103 102 101 101 100 98 101 100 99 99 101 102 102 101 102 102 102 101 100 101 101 103 101 101 101 101 102 102 102 102 101 104 105 104 105 102 102 101 101 101 100 98 99 96 101 102 100 101 99 100 100 99 99 99 98 100 98 101 99 98 101 98 94 96 96 96 94 94 100 95 98 97 96 97 96 97 97 94 99 98 99 101 100 101 101 99 101 100 97 96 97 99 101 100 100 100 100 103 103 104 104 104 106 106 106 104 104 105 103 103 102 102 103 103 104 104 104 105 105 106 105 105 106 104 104 103 102 101 99 99 99 100 100 100 102 103 105 106 106 106 105 103 106 104 116 124 123 126 128 126 127 127 126 126 124 126 125 127 134 -193 136 146 142 143 145 143 143 141 143 143 138 140 140 -209 102 104 -193 101 96 -193 -193 0 0 0 0 0
    0 0 0 0 0 0 0 0 0 0 0 0 0 0 0 0 0 0 0 0 0 0 0 0 0 0 0 0 0 0 0 0 0 0 0 0 0 0 0 0 0 0 0 0 0 0 0 0 0 0 0 0 0 0 0 0 0 0 0 0 0 0 0 0 0 0 0 0 0 108 109 108 109 109 110 113 112 112 112 111 113 113 113 114 109 -193 111 111 110 109 110 109 110 110 111 108 109 108 108 108 106 109 107 107 107 107 107 106 107 107 106 108 109 109 109 110 112 111 113 112 108 107 107 110 110 109 110 111 109 113 111 107 107 106 105 103 103 103 101 99 102 100 99 99 101 102 102 100 101 102 102 101 101 102 102 103 102 102 103 103 104 104 104 104 104 106 108 106 108 105 104 103 103 104 103 100 100 97 101 103 101 102 100 101 101 101 101 102 101 103 103 104 105 105 105 104 100 100 99 98 96 95 101 96 98 97 96 97 97 98 98 96 102 101 102 104 105 105 104 103 102 101 97 97 98 100 101 100 100 100 101 103 104 104 105 105 107 107 107 107 107 108 105 104 103 104 104 104 105 105 105 105 105 106 106 106 108 107 106 105 104 102 100 99 99 100 101 100 102 103 105 106 107 106 106 104 107 107 117 125 123 127 128 126 127 127 126 126 124 126 124 128 133 132 136 145 142 142 145 142 142 141 143 143 138 139 139 113 106 106 107 106 105 106 106 0 0 0 0 0
    0 0 0 0 0 0 0 0 0 0 0 0 0 0 0 0 0 0 0 0 0 0 0 0 0 0 0 0 0 0 0 0 0 0 0 0 0 0 0 0 0 0 0 0 0 0 0 0 0 0 0 0 0 0 0 0 0 0 0 0 0 0 0 0 0 0 0 0 0 109 110 108 110 109 111 112 112 112 112 112 113 113 114 114 110 113 113 112 112 112 112 111 113 113 113 111 111 110 110 109 107 110 108 108 108 108 108 108 109 109 108 111 112 112 112 113 114 112 115 114 110 109 109 112 112 111 112 112 110 114 112 109 108 107 107 105 105 105 102 101 103 101 -193 -193 101 103 102 100 102 103 102 102 101 103 103 104 103 104 105 105 105 106 106 106 106 108 110 108 110 108 107 106 106 106 106 102 101 98 102 103 102 103 102 102 103 103 103 104 104 106 106 106 108 107 108 108 105 105 103 101 98 96 101 96 98 97 97 97 98 99 100 99 104 104 105 106 107 107 106 105 104 102 98 98 98 100 101 100 101 101 101 104 104 106 106 106 108 109 108 109 109 110 107 106 105 105 106 105 105 105 105 105 106 107 106 107 108 108 107 106 106 104 101 100 100 100 101 101 103 104 105 107 107 107 107 106 109 109 119 127 124 129 128 126 128 127 126 126 124 126 123 128 132 -193 -193 144 141 142 144 142 142 141 143 142 138 139 139 118 107 107 108 108 106 106 106 0 0 0 0 0
    0 0 0 0 0 0 0 0 0 0 0 0 0 0 0 0 0 0 0 0 0 0 0 0 0 0 0 0 0 0 0 0 0 0 0 0 0 0 0 0 0 0 0 0 0 0 0 0 0 0 0 0 0 0 0 0 0 0 0 0 0 0 0 0 0 0 0 0 0 109 110 109 111 110 111 113 112 113 113 113 114 113 115 115 112 115 115 113 113 113 113 112 114 114 113 111 112 111 110 110 108 110 108 108 109 110 109 109 111 111 110 114 114 113 113 114 114 113 116 114 111 111 111 114 113 112 114 112 111 115 112 111 110 109 108 107 106 107 104 103 105 -209 -193 -209 -209 105 104 101 103 104 103 103 103 104 104 105 104 105 106 106 107 108 108 108 108 109 112 109 112 110 109 109 109 108 108 105 104 100 103 104 103 104 103 103 104 104 104 106 106 107 107 108 110 108 109 111 107 107 105 103 101 99 102 98 99 98 98 99 100 102 102 102 106 106 108 108 108 108 107 106 105 102 99 99 99 101 102 101 102 102 102 104 105 107 107 107 109 109 109 109 110 111 108 107 107 107 107 107 107 107 106 106 108 108 108 109 110 110 109 109 108 106 103 101 101 101 102 102 104 106 106 108 109 108 108 108 111 113 120 129 125 130 128 127 129 127 127 126 125 126 123 128 131 -193 -193 142 140 140 143 141 141 141 142 142 138 140 139 121 110 109 111 110 107 107 108 0 0 0 0 0
    0 0 0 0 0 0 0 0 0 0 0 0 0 0 0 0 0 0 0 0 0 0 0 0 0 0 0 0 0 0 0 0 0 0 0 0 0 0 0 0 0 0 0 0 0 0 0 0 0 0 0 0 0 0 0 0 0 0 0 0 0 0 0 0 0 0 0 0 0 110 110 109 111 110 112 113 112 113 114 113 114 113 115 114 112 116 115 113 112 113 113 112 114 114 112 111 111 110 110 110 108 111 109 109 110 111 110 111 112 112 111 115 115 114 114 115 115 113 116 114 112 113 113 115 115 114 115 113 112 116 113 112 112 110 110 109 109 109 106 106 107 -209 -193 -209 -193 111 111 -193 107 108 106 106 105 106 106 107 106 107 108 107 108 109 109 109 109 110 112 110 113 111 110 111 111 110 111 106 107 102 103 -193 104 105 104 104 106 106 106 108 107 109 108 109 111 109 110 112 109 109 107 106 104 102 103 100 101 100 100 101 103 104 104 105 108 108 109 109 109 108 108 107 106 103 100 100 101 102 103 102 102 103 103 105 105 108 108 107 110 110 109 110 110 112 108 109 109 110 110 110 110 110 108 108 110 109 109 109 111 110 109 109 109 106 104 102 102 101 103 103 105 106 106 108 109 109 109 108 113 115 121 129 125 131 128 127 129 127 127 126 125 126 122 127 128 125 134 139 139 139 142 140 140 140 142 142 138 140 140 122 113 113 113 112 109 109 110 0 0 0 0 0
    0 0 0 0 0 0 0 0 0 0 0 0 0 0 0 0 0 0 0 0 0 0 0 0 0 0 0 0 0 0 0 0 0 0 0 0 0 0 0 0 0 0 0 0 0 0 0 0 0 0 0 0 0 0 0 0 0 0 0 0 0 0 0 0 0 0 0 0 0 110 111 109 113 111 113 113 112 113 113 113 113 111 114 112 110 114 113 112 112 112 113 112 113 113 111 110 110 109 110 110 109 113 109 110 111 112 111 111 113 112 111 115 114 114 113 114 115 113 116 114 112 114 114 115 115 115 116 114 113 116 114 113 113 111 111 110 110 111 107 108 109 -193 -193 114 115 114 114 -193 114 114 112 110 108 108 108 110 108 109 110 109 110 110 110 110 110 111 113 110 114 111 111 112 112 111 112 108 110 104 104 -193 105 107 106 105 108 107 107 110 109 110 109 110 112 109 111 112 109 110 108 107 106 105 105 104 104 103 103 104 106 107 107 108 110 110 111 110 110 109 109 109 107 105 103 102 102 103 103 103 103 103 103 105 106 109 108 108 110 110 110 111 112 113 110 113 114 115 115 115 114 115 111 110 112 110 109 110 111 110 110 109 110 107 107 104 104 103 106 107 108 109 109 110 112 112 113 111 116 117 123 129 125 131 128 127 129 127 127 126 125 126 122 127 128 124 133 -193 137 138 140 139 139 140 141 141 138 140 139 123 116 115 114 113 110 110 110 0 0 0 0 0
    0 0 0 0 0 0 0 0 0 0 0 0 0 0 0 0 0 0 0 0 0 0 0 0 0 0 0 0 0 0 0 0 0 0 0 0 0 0 0 0 0 0 0 0 0 0 0 0 0 0 0 0 0 0 0 0 0 0 0 0 0 0 0 0 0 0 0 0 0 111 112 109 114 110 113 113 112 113 113 112 112 110 113 111 110 113 113 112 112 112 113 112 113 113 111 110 109 109 110 111 110 114 109 111 111 112 111 111 113 112 111 115 114 114 114 114 115 114 116 114 113 114 113 115 115 114 116 113 112 116 113 112 113 111 111 109 110 111 107 108 110 -193 111 115 117 -193 114 111 116 116 115 113 110 109 110 111 110 111 111 109 110 111 111 111 111 111 113 110 114 112 112 113 113 112 114 108 113 106 106 108 107 111 108 107 111 109 109 111 110 111 110 110 112 110 111 112 110 110 109 108 109 107 108 108 107 106 107 107 109 109 109 110 111 111 111 111 111 110 109 110 108 106 105 104 104 104 104 104 104 104 104 105 106 110 109 109 110 111 111 112 113 114 110 115 115 116 116 116 116 116 114 113 114 111 110 111 112 111 111 111 112 110 112 108 109 108 111 113 113 114 113 114 116 117 117 118 118 119 125 129 126 131 128 127 129 127 127 127 125 126 123 129 128 124 134 -193 -193 -193 139 139 138 139 140 140 138 140 139 125 115 112 112 112 110 110 111 0 0 0 0 0
    0 0 0 0 0 0 0 0 0 0 0 0 0 0 0 0 0 0 0 0 0 0 0 0 0 0 0 0 0 0 0 0 0 0 0 0 0 0 0 0 0 0 0 0 0 0 0 0 0 0 0 0 0 0 0 0 0 0 0 0 0 0 0 0 0 0 0 0 0 112 112 109 114 110 113 112 112 112 113 112 112 110 114 111 111 116 115 114 113 114 115 113 115 115 112 112 111 111 112 114 113 116 111 112 112 113 112 112 113 112 112 115 114 114 114 115 116 114 117 114 113 114 113 115 115 114 116 113 112 116 113 113 113 111 111 109 110 111 107 108 110 -209 -209 117 118 -193 114 112 117 116 115 114 111 111 111 112 110 112 112 110 111 112 111 111 112 111 113 110 114 112 112 113 113 112 114 108 114 106 -209 110 108 113 109 108 113 110 110 112 111 111 110 111 112 110 111 112 110 111 110 109 110 109 111 111 110 109 110 110 112 112 111 113 112 111 112 111 111 110 110 111 108 108 107 105 105 105 106 105 105 105 104 104 106 112 109 109 111 111 111 113 114 114 110 116 117 117 118 118 118 117 117 116 116 112 112 112 113 113 113 114 115 114 117 115 115 116 116 117 115 116 116 118 119 120 120 122 120 121 127 129 126 132 128 127 129 128 128 127 126 127 123 129 129 125 134 -193 -193 -193 138 138 138 138 139 138 138 140 139 126 112 110 111 111 110 111 111 0 0 0 0 0
    0 0 0 0 0 0 0 0 0 0 0 0 0 0 0 0 0 0 0 0 0 0 0 0 0 0 0 0 0 0 0 0 0 0 0 0 0 0 0 0 0 0 0 0 0 0 0 0 0 0 0 0 0 0 0 0 0 0 0 0 0 0 0 0 0 0 0 0 0 116 113 109 116 110 113 113 113 114 114 114 113 111 116 113 114 118 117 117 115 116 116 115 116 118 115 116 116 116 116 119 118 119 114 115 114 114 114 114 115 113 114 116 115 115 116 116 116 116 117 115 114 116 114 116 116 115 117 113 113 117 113 113 113 111 111 109 111 111 107 109 110 -209 -209 117 -209 -209 114 113 117 117 115 115 112 111 112 112 110 113 112 110 111 112 112 112 112 112 113 111 114 112 112 113 113 112 114 108 115 106 -209 110 109 114 110 109 114 111 110 113 111 112 111 111 112 110 111 112 110 111 110 110 111 111 113 114 113 112 113 113 115 113 112 114 112 111 112 111 111 110 110 111 108 108 108 107 106 106 107 106 105 105 105 105 106 114 110 110 111 112 112 114 115 115 111 117 118 118 119 119 119 118 118 117 117 114 114 113 114 114 115 116 117 116 119 118 118 119 118 118 117 118 118 120 120 121 122 124 122 124 129 129 127 132 128 128 130 128 128 127 126 127 123 129 129 125 -193 -193 -193 -193 -193 -193 -193 138 138 138 138 140 139 126 114 111 113 113 113 113 114 0 0 0 0 0
    0 0 0 0 0 0 0 0 0 0 0 0 0 0 0 0 0 0 0 0 0 0 0 0 0 0 0 0 0 0 0 0 0 0 0 0 0 0 0 0 0 0 0 0 0 0 0 0 0 0 0 0 0 0 0 0 0 0 0 0 0 0 0 0 0 0 0 0 0 122 119 118 118 112 115 115 115 116 115 116 115 114 118 116 117 121 120 -193 118 -193 -193 -193 -193 -193 -193 120 120 -193 119 122 -193 -193 116 116 116 116 115 115 115 114 115 116 116 116 117 117 118 117 118 116 116 118 116 117 118 117 118 115 115 118 114 114 114 112 112 110 112 112 108 111 112 -193 121 123 125 132 -193 121 121 119 116 115 113 112 113 113 111 114 112 110 111 112 112 112 113 112 113 111 114 112 112 113 113 111 114 108 116 -193 -209 -209 111 116 112 111 115 111 111 113 111 112 111 111 112 110 112 113 110 112 111 110 112 111 114 114 113 112 113 113 115 113 112 114 112 111 112 111 111 109 110 111 108 109 109 108 108 107 108 108 107 107 107 106 109 117 112 111 112 113 114 115 115 115 111 118 119 119 120 120 120 120 121 120 120 116 117 116 117 117 117 118 118 118 120 119 119 120 119 119 119 120 120 121 121 122 123 125 123 126 131 130 128 133 129 129 131 129 128 127 126 127 123 128 128 125 -193 -193 -193 -193 -193 -193 -193 137 137 -209 138 140 139 123 116 114 115 115 117 117 117 0 0 0 0 0
    0 0 0 0 0 0 0 0 0 0 0 0 0 0 0 0 0 0 0 0 0 0 0 0 0 0 0 0 0 0 0 0 0 0 0 0 0 0 0 0 0 0 0 0 0 0 0 0 0 0 0 0 0 0 0 0 0 0 0 0 0 0 0 0 0 0 0 0 0 127 124 124 120 117 118 117 117 119 118 118 117 117 121 119 121 124 122 -193 -193 -193 -193 -193 -193 125 124 125 126 124 123 125 123 123 119 118 117 117 117 116 116 115 115 117 116 117 118 118 118 118 119 117 118 120 118 118 119 119 120 117 118 119 116 116 116 114 113 111 113 113 108 114 115 113 123 125 128 132 128 127 127 123 118 118 115 115 115 114 112 115 112 111 112 113 113 112 114 113 114 112 115 113 113 113 113 112 115 109 118 -193 -209 -209 114 119 114 112 115 111 111 113 111 112 111 111 112 110 112 113 110 112 112 110 112 111 114 113 113 111 113 112 115 112 112 114 112 112 112 111 111 109 110 111 108 109 110 109 108 108 109 110 108 109 109 108 111 118 113 113 113 114 115 116 116 116 111 119 120 120 121 121 120 121 121 122 122 119 120 119 119 120 121 121 120 120 122 120 121 122 120 121 121 121 122 122 123 123 123 125 124 126 131 130 129 133 129 129 131 128 129 127 127 126 123 128 127 125 134 -193 -193 -193 -193 -193 -193 137 137 -193 138 140 -193 -209 118 117 118 119 120 119 119 0 0 0 0 0
    0 0 0 0 0 0 0 0 0 0 0 0 0 0 0 0 0 0 0 0 0 0 0 0 0 0 0 0 0 0 0 0 0 0 0 0 0 0 0 0 0 0 0 0 0 0 0 0 0 0 0 0 0 0 0 0 0 0 0 0 0 0 0 0 0 0 0 0 0 130 128 130 126 122 122 121 120 121 120 120 120 120 122 122 122 125 124 124 -193 -193 -193 123 125 126 127 128 129 128 126 128 125 125 121 120 119 119 118 118 117 116 117 117 117 118 119 118 119 118 119 118 120 121 120 119 122 122 123 120 121 121 118 118 118 116 115 114 115 115 110 117 117 117 124 126 129 132 131 129 129 126 -193 119 117 117 116 115 112 115 112 111 112 114 114 114 115 114 115 114 117 115 114 114 114 113 116 110 121 117 122 123 -193 121 117 114 116 111 111 113 112 112 111 112 112 110 112 112 110 113 113 111 113 113 116 114 114 112 113 112 115 112 112 114 112 112 112 111 111 109 110 111 108 109 109 109 108 108 109 109 108 109 109 107 111 118 113 113 113 114 115 116 116 116 112 120 121 120 121 121 121 121 122 123 123 121 123 123 124 126 126 125 124 124 125 122 123 124 122 123 123 123 123 124 126 125 125 126 126 127 131 130 130 132 129 129 131 128 129 127 127 126 124 129 128 126 135 132 134 -193 -193 -193 -193 137 137 134 139 141 -193 -209 120 120 120 -193 121 121 121 0 0 0 0 0
    0 0 0 0 0 0 0 0 0 0 0 0 0 0 0 0 0 0 0 0 0 0 0 0 0 0 0 0 0 0 0 0 0 0 0 0 0 0 0 0 0 0 0 0 0 0 0 0 0 0 0 0 0 0 0 0 0 0 0 0 0 0 0 0 0 0 0 0 0 131 131 133 131 131 126 126 124 125 123 123 122 122 124 124 124 126 126 125 126 127 126 125 127 127 129 131 131 130 129 130 128 128 125 123 121 121 119 120 119 118 118 119 119 121 121 121 -193 120 -193 -209 -209 121 120 120 125 128 127 123 125 124 120 120 120 118 117 116 117 116 112 119 118 119 124 128 131 134 135 132 132 129 122 121 119 119 117 116 113 116 113 112 114 115 115 116 117 117 117 117 119 117 117 116 116 115 117 112 121 -193 123 124 124 124 120 116 117 112 112 114 112 113 112 113 113 -193 -193 114 112 -193 -193 116 117 115 117 115 115 113 114 113 115 113 112 114 112 112 112 111 111 109 110 110 108 109 110 109 109 109 110 110 109 109 109 108 113 118 113 113 113 114 116 116 116 116 112 120 121 120 121 120 121 121 123 124 125 124 127 128 130 131 131 130 128 128 126 123 124 124 123 124 124 124 123 125 128 126 127 129 128 128 131 130 131 131 129 129 131 128 129 127 127 126 124 131 129 128 136 133 135 136 137 138 -193 138 138 135 139 141 138 -209 132 -193 -193 -193 124 123 123 0 0 0 0 0
    0 0 0 0 0 0 0 0 0 0 0 0 0 0 0 0 0 0 0 0 0 0 0 0 0 0 0 0 0 0 0 0 0 0 0 0 0 0 0 0 0 0 0 0 0 0 0 0 0 0 0 0 0 0 0 0 0 0 0 0 0 0 0 0 0 0 0 0 0 131 132 133 132 134 130 131 130 130 127 128 127 126 127 127 127 128 128 127 129 130 129 128 130 130 131 132 132 131 130 131 129 129 127 125 123 123 121 122 121 121 121 122 122 123 123 123 -193 -209 -193 -209 -209 124 124 124 128 132 130 128 130 126 123 122 122 121 119 119 120 117 115 120 119 120 124 129 132 134 136 134 134 133 -193 125 120 -193 118 117 114 116 113 113 115 116 117 118 119 119 120 120 121 120 120 119 118 117 120 116 123 122 125 127 127 127 125 121 119 115 115 116 114 115 114 115 -193 -193 -193 -193 -209 -209 -193 123 122 119 119 116 116 114 114 114 116 113 113 114 111 112 112 111 111 109 111 111 108 110 110 111 111 111 112 112 111 111 112 111 116 119 113 112 112 114 116 116 116 115 112 119 120 120 120 120 121 121 125 126 126 125 129 129 131 131 132 130 130 129 127 124 125 125 124 125 124 125 124 126 129 127 128 130 129 128 131 130 131 131 129 129 131 129 129 128 128 126 125 132 131 131 138 135 136 137 138 139 138 138 139 136 139 141 138 138 137 134 -193 -193 126 125 125 0 0 0 0 0
    0 0 0 0 0 0 0 0 0 0 0 0 0 0 0 0 0 0 0 0 0 0 0 0 0 0 0 0 0 0 0 0 0 0 0 0 0 0 0 0 0 0 0 0 0 0 0 0 0 0 0 0 0 0 0 0 0 0 0 0 0 0 0 0 0 0 0 0 0 131 131 133 132 134 132 133 133 133 131 132 130 130 130 130 130 130 130 129 131 132 130 130 130 130 132 132 131 131 130 131 129 129 128 126 124 125 123 125 124 126 127 129 128 128 126 127 125 126 -193 -193 127 128 129 129 131 133 131 130 132 127 125 124 124 123 121 121 121 119 118 122 121 124 128 131 133 134 136 135 135 135 -193 -193 -209 124 -193 119 116 118 115 115 118 118 119 121 121 121 123 123 124 122 122 121 121 121 122 121 124 124 127 128 128 128 127 123 122 118 118 118 117 117 116 117 -193 -177 -177 -193 -193 125 126 126 125 122 121 117 117 115 115 115 117 115 114 115 112 113 112 112 112 110 112 111 109 112 111 113 113 114 116 116 117 117 118 119 121 121 115 113 113 115 116 116 116 115 111 118 120 119 119 120 122 122 126 127 127 127 129 130 131 130 131 130 129 129 127 125 126 125 124 126 125 126 125 128 130 128 129 131 130 129 132 131 132 132 130 130 131 129 130 128 129 127 127 133 132 133 140 137 137 139 139 139 138 139 139 137 139 141 138 138 137 135 132 131 128 128 128 0 0 0 0 0
    0 0 0 0 0 0 0 0 0 0 0 0 0 0 0 0 0 0 0 0 0 0 0 0 0 0 0 0 0 0 0 0 0 0 0 0 0 0 0 0 0 0 0 0 0 0 0 0 0 0 0 0 0 0 0 0 0 0 0 0 0 0 0 0 0 0 0 0 0 130 131 132 132 134 133 135 135 134 133 133 131 131 131 131 130 130 130 129 131 132 131 130 131 131 132 132 132 131 130 131 129 130 129 127 125 127 125 128 127 130 131 133 132 131 129 130 128 130 129 129 130 131 132 132 132 134 132 132 133 128 127 126 126 125 124 124 124 121 121 125 124 129 132 133 133 134 136 135 136 135 -209 -193 -193 128 124 122 120 121 117 118 120 121 122 123 123 123 125 125 127 124 125 124 123 123 125 123 126 125 127 128 127 128 128 126 126 121 -193 120 119 120 119 120 122 -193 -193 -193 126 128 129 127 126 124 123 120 118 117 118 118 119 117 116 117 114 115 114 113 113 111 114 113 111 114 113 116 116 118 119 120 121 122 123 123 125 125 118 116 116 116 118 117 117 115 111 118 120 120 120 120 123 124 127 128 128 128 129 130 131 129 131 130 128 130 127 125 127 126 125 126 126 126 126 130 131 129 130 131 131 130 132 132 132 132 130 130 132 130 131 128 129 127 129 134 133 134 141 138 138 139 140 140 139 140 140 137 139 140 138 137 136 134 132 132 129 130 130 0 0 0 0 0
    0 0 0 0 0 0 0 0 0 0 0 0 0 0 0 0 0 0 0 0 0 0 0 0 0 0 0 0 0 0 0 0 0 0 0 0 0 0 0 0 0 0 0 0 0 0 0 0 0 0 0 0 0 0 0 0 0 0 0 0 0 0 0 0 0 0 0 0 0 130 131 132 133 134 134 135 136 134 133 133 132 131 131 131 130 129 130 129 131 132 131 130 130 131 132 133 132 131 130 131 130 130 129 128 126 128 127 130 129 132 132 134 133 133 132 133 131 132 131 131 132 132 133 133 133 134 132 133 134 129 129 129 128 128 126 127 126 122 125 127 125 129 132 132 133 134 135 135 135 135 -193 -193 132 131 128 125 123 124 121 120 123 123 124 125 125 126 128 127 129 127 127 127 126 126 127 124 127 126 128 129 127 129 129 129 129 124 126 125 123 123 122 122 126 126 127 128 128 130 130 128 128 125 123 122 -193 119 121 120 121 120 119 119 117 118 117 116 116 116 117 115 115 118 117 118 119 120 123 123 124 124 125 126 128 127 121 119 119 119 119 118 117 116 112 118 120 121 121 121 125 125 128 128 128 128 129 130 131 129 131 130 129 130 129 127 129 127 126 128 128 128 127 131 131 130 130 131 131 131 132 132 132 132 131 131 132 130 131 129 130 127 131 135 134 135 142 139 139 140 141 141 140 141 141 137 139 139 137 135 134 133 133 132 130 132 132 0 0 0 0 0
    0 0 0 0 0 0 0 0 0 0 0 0 0 0 0 0 0 0 0 0 0 0 0 0 0 0 0 0 0 0 0 0 0 0 0 0 0 0 0 0 0 0 0 0 0 0 0 0 0 0 0 0 0 0 0 0 0 0 0 0 0 0 0 0 0 0 0 0 0 130 131 132 133 135 134 136 137 135 134 134 132 132 132 131 131 129 130 128 131 132 131 131 131 131 132 133 132 131 130 131 130 130 130 129 127 129 128 130 130 132 132 134 133 133 133 134 133 133 132 132 133 132 133 133 133 134 132 133 134 130 130 131 130 130 128 129 128 124 129 130 126 131 131 132 133 133 -193 133 134 133 132 132 132 131 129 128 125 126 125 123 127 125 127 127 127 128 130 129 130 128 129 129 128 129 129 126 129 127 128 129 126 129 130 129 130 128 130 129 128 128 128 127 130 130 130 130 130 131 131 129 128 126 124 123 -209 121 123 122 122 123 122 121 120 120 120 119 119 120 120 119 119 121 121 121 122 124 126 125 127 126 127 128 130 128 124 121 121 121 121 119 118 117 115 120 121 123 122 122 126 126 128 129 129 129 129 130 131 129 131 130 129 131 131 130 133 131 130 132 131 130 130 133 132 131 131 132 132 131 133 133 133 132 131 132 133 131 132 130 131 128 133 136 135 136 142 140 140 141 141 141 140 141 140 137 138 138 135 134 134 133 134 133 131 134 134 0 0 0 0 0
    0 0 0 0 0 0 0 0 0 0 0 0 0 0 0 0 0 0 0 0 0 0 0 0 0 0 0 0 0 0 0 0 0 0 0 0 0 0 0 0 0 0 0 0 0 0 0 0 0 0 0 0 0 0 0 0 0 0 0 0 0 0 0 0 0 0 0 0 0 130 131 132 134 135 135 137 138 136 135 135 133 133 132 132 131 129 130 127 130 132 130 130 131 131 132 133 132 131 130 132 130 131 130 129 128 129 128 130 130 132 132 133 133 133 132 133 133 133 131 132 132 132 133 134 134 135 132 134 135 131 131 132 131 131 130 130 129 124 131 131 126 131 129 131 133 133 -193 132 132 131 131 131 131 130 129 129 128 128 129 126 131 128 129 129 129 130 131 130 131 129 130 130 130 131 131 128 130 129 130 130 127 130 131 130 132 131 132 132 132 132 133 133 133 132 131 131 131 132 131 130 130 127 126 126 124 124 125 124 124 126 124 124 123 123 124 122 122 123 122 122 122 124 123 123 125 126 128 127 129 128 129 129 130 128 126 123 123 123 123 121 120 119 118 121 123 125 123 123 127 128 128 129 128 129 128 130 130 128 130 131 131 133 133 133 135 134 133 135 133 132 133 134 133 132 132 133 133 132 133 133 132 130 130 131 132 130 131 131 132 129 135 137 136 136 141 140 140 141 140 140 139 140 140 137 138 138 135 134 134 133 134 134 133 134 134 0 0 0 0 0
    0 0 0 0 0 0 0 0 0 0 0 0 0 0 0 0 0 0 0 0 0 0 0 0 0 0 0 0 0 0 0 0 0 0 0 0 0 0 0 0 0 0 0 0 0 0 0 0 0 0 0 0 0 0 0 0 0 0 0 0 0 0 0 0 0 0 0 0 0 129 130 131 133 135 134 136 138 137 136 136 134 133 133 133 131 129 130 126 129 132 130 131 131 131 132 132 132 131 130 132 130 131 130 129 129 130 129 130 130 132 131 132 132 132 131 132 132 132 129 131 131 132 132 134 134 135 132 134 135 131 131 132 131 131 130 131 129 124 131 130 124 129 126 129 131 132 131 130 131 129 129 129 129 129 128 129 129 130 131 128 132 129 130 130 130 130 131 130 131 129 130 131 130 131 131 129 132 131 131 132 129 131 132 131 133 132 132 132 132 133 134 134 134 133 132 132 132 132 132 131 131 129 128 129 127 128 129 127 127 129 127 126 126 125 128 126 127 127 125 125 125 126 125 125 126 127 129 128 129 129 130 130 130 129 128 125 125 125 125 123 122 121 121 123 125 126 124 124 128 129 128 129 128 129 128 129 130 128 128 131 132 134 135 135 137 136 135 136 135 134 134 135 134 133 133 134 133 133 134 134 133 132 132 133 134 133 133 133 134 133 136 138 137 136 140 139 139 140 140 140 139 139 140 137 138 138 135 135 134 134 135 135 134 134 133 0 0 0 0 0
    0 0 0 0 0 0 0 0 0 0 0 0 0 0 0 0 0 0 0 0 0 0 0 0 0 0 0 0 0 0 0 0 0 0 0 0 0 0 0 0 0 0 0 0 0 0 0 0 0 0 0 0 0 0 0 0 0 0 0 0 0 0 0 0 0 0 0 0 0 128 129 130 133 134 133 136 137 137 136 136 133 132 132 132 130 128 129 126 129 133 131 131 131 131 133 132 132 131 130 132 130 131 131 130 129 130 130 130 130 132 131 132 132 132 131 131 130 130 127 129 130 131 130 134 134 135 132 134 135 131 131 132 132 132 130 131 129 124 131 129 123 128 126 129 131 132 131 130 132 129 129 129 130 129 129 130 129 130 131 129 132 129 130 130 129 130 131 130 130 129 130 130 130 131 131 129 131 132 131 132 129 130 131 130 132 131 131 131 131 132 134 134 134 133 132 132 132 131 131 131 130 129 129 129 129 129 131 129 130 131 130 129 131 129 132 132 132 131 129 130 129 128 128 127 128 128 129 129 130 129 130 131 131 129 130 126 128 127 127 126 124 123 124 125 126 128 125 126 130 130 129 129 128 129 128 129 130 127 127 132 133 135 136 138 140 139 138 139 138 136 136 136 134 133 134 134 133 133 134 134 132 133 134 134 136 135 135 135 135 135 137 138 137 136 140 139 139 140 140 140 139 139 140 137 137 137 136 136 134 134 135 135 133 134 133 0 0 0 0 0
    0 0 0 0 0 0 0 0 0 0 0 0 0 0 0 0 0 0 0 0 0 0 0 0 0 0 0 0 0 0 0 0 0 0 0 0 0 0 0 0 0 0 0 0 0 0 0 0 0 0 0 0 0 0 0 0 0 0 0 0 0 0 0 0 0 0 0 0 0 128 129 130 133 133 132 135 137 136 135 136 133 132 133 132 130 128 129 126 129 133 132 132 132 133 133 133 132 131 131 132 130 131 131 130 130 130 130 130 131 132 131 132 131 132 130 130 130 130 127 129 130 131 130 133 134 135 132 134 135 131 131 132 132 132 130 131 129 124 131 129 122 127 126 129 131 132 131 130 132 130 130 130 131 130 130 130 130 130 131 128 131 129 130 130 129 130 130 129 130 129 130 130 130 132 131 130 132 132 131 132 130 129 129 128 130 129 130 130 130 131 133 133 134 132 132 132 131 131 131 130 130 128 128 128 129 129 131 130 131 132 131 130 131 130 132 132 132 132 130 131 131 130 130 129 129 129 130 129 130 130 130 131 131 130 131 128 130 129 129 128 127 126 126 126 127 129 126 127 130 131 129 129 129 129 127 129 129 127 127 132 133 135 137 138 140 140 140 140 139 137 137 137 135 134 134 134 134 133 135 135 133 136 136 137 138 138 137 136 136 136 137 137 137 136 139 139 139 139 139 139 139 138 139 137 136 137 135 136 134 135 136 135 133 134 133 0 0 0 0 0
    0 0 0 0 0 0 0 0 0 0 0 0 0 0 0 0 0 0 0 0 0 0 0 0 0 0 0 0 0 0 0 0 0 0 0 0 0 0 0 0 0 0 0 0 0 0 0 0 0 0 0 0 0 0 0 0 0 0 0 0 0 0 0 0 0 0 0 0 0 128 129 130 132 132 131 135 137 136 135 136 134 133 133 133 131 129 130 127 130 134 132 133 133 133 134 133 132 132 131 132 130 132 131 131 131 131 131 131 131 132 131 131 131 131 130 128 -193 -209 -193 129 -193 -193 129 133 134 136 133 135 135 132 132 133 132 132 130 131 129 124 132 130 123 130 127 130 132 132 131 130 132 130 130 130 132 130 130 130 129 130 131 128 131 129 130 130 129 130 130 129 130 129 130 130 131 132 131 131 132 132 131 132 130 128 128 127 128 127 128 128 128 130 131 131 133 132 132 131 131 130 130 130 130 128 128 128 128 128 131 129 130 131 130 129 130 129 131 131 132 131 130 132 131 131 130 131 130 130 131 130 130 130 130 131 131 130 131 130 131 130 130 129 128 127 128 127 127 130 126 127 130 131 128 129 128 129 127 128 129 128 126 133 134 136 137 139 140 141 140 140 139 137 138 137 135 134 135 134 134 134 135 135 134 137 138 139 139 139 137 137 137 137 137 137 136 135 138 138 138 138 138 139 138 137 138 136 136 136 135 135 134 134 136 136 135 136 134 0 0 0 0 0
    0 0 0 0 0 0 0 0 0 0 0 0 0 0 0 0 0 0 0 0 0 0 0 0 0 0 0 0 0 0 0 0 0 0 0 0 0 0 0 0 0 0 0 0 0 0 0 0 0 0 0 0 0 0 0 0 0 0 0 0 0 0 0 0 0 0 0 0 0 128 129 130 133 133 133 136 138 138 138 142 -193 134 135 133 131 130 130 127 129 135 134 134 134 134 134 133 133 132 132 132 130 132 131 131 132 132 131 131 131 132 131 131 131 -193 -209 -209 -209 -209 -209 -209 -209 -209 -193 133 135 136 134 135 135 133 133 133 133 133 131 131 130 124 132 130 124 132 126 129 132 132 129 128 130 128 128 130 131 130 129 130 129 130 131 128 131 130 131 130 129 130 130 129 130 129 129 129 131 131 131 131 131 132 131 131 130 128 128 127 127 127 127 127 127 128 129 130 132 131 131 131 130 130 130 130 130 128 129 127 128 127 130 128 128 129 128 128 129 129 131 131 132 131 131 132 131 132 131 131 131 130 131 130 130 130 130 131 130 130 131 130 131 131 130 129 128 127 128 126 126 128 126 126 128 131 128 128 128 128 127 128 129 129 126 135 135 136 138 139 140 141 141 140 140 139 140 139 136 136 136 135 135 135 136 135 136 139 142 142 141 141 139 138 139 138 137 137 136 135 137 137 137 137 138 138 138 137 137 136 136 136 135 135 134 135 136 137 137 137 135 0 0 0 0 0
    0 0 0 0 0 0 0 0 0 0 0 0 0 0 0 0 0 0 0 0 0 0 0 0 0 0 0 0 0 0 0 0 0 0 0 0 0 0 0 0 0 0 0 0 0 0 0 0 0 0 0 0 0 0 0 0 0 0 0 0 0 0 0 0 0 0 0 0 0 128 129 131 134 134 135 139 140 141 144 149 -209 -209 -209 -209 -209 -209 -209 -209 -209 -209 -209 135 135 135 134 133 133 133 133 133 131 133 132 132 132 132 132 131 131 131 -193 -193 -193 -209 -193 -177 -209 -177 -209 -209 -209 -209 -209 133 135 136 134 135 136 134 134 134 133 134 132 132 131 125 133 131 -209 -209 124 127 131 -193 -193 -193 129 128 129 131 132 130 130 131 129 129 130 126 131 130 131 130 129 130 130 130 131 129 129 128 131 131 131 132 131 131 130 131 129 126 127 126 126 125 126 126 125 126 127 127 131 130 131 130 130 130 130 130 130 128 129 126 128 127 129 127 127 128 127 127 128 128 130 130 131 131 131 132 131 132 131 131 131 130 130 130 129 130 130 131 130 129 131 130 131 131 130 129 128 127 128 126 126 127 126 126 127 132 127 128 128 128 127 128 129 130 127 136 137 138 138 139 140 141 141 140 141 140 142 141 138 137 138 136 137 137 139 137 140 144 147 146 144 144 141 139 140 138 138 137 137 135 135 136 136 136 136 137 137 135 137 136 136 136 136 136 134 136 138 139 138 138 137 0 0 0 0 0
    0 0 0 0 0 0 0 0 0 0 0 0 0 0 0 0 0 0 0 0 0 0 0 0 0 0 0 0 0 0 0 0 0 0 0 0 0 0 0 0 0 0 0 0 0 0 0 0 0 0 0 0 0 0 0 0 0 0 0 0 0 0 0 0 0 0 0 0 0 129 129 132 136 -193 137 146 144 146 -193 -193 162 -209 -209 -209 -209 -209 -209 -209 -209 -209 -209 -209 -193 135 135 134 134 134 134 133 132 133 -209 -193 133 132 132 131 130 131 -209 -209 -209 -209 314 314 -209 -193 -209 -209 -209 58 59 -209 -193 137 -177 135 136 134 134 135 134 134 133 133 132 126 134 131 -209 -209 -193 129 -193 15 18 -193 -193 -193 129 130 131 -177 130 131 130 129 130 126 131 130 131 130 130 131 130 130 131 129 129 128 131 131 131 132 130 131 130 131 129 126 126 125 125 124 125 125 124 124 125 125 130 129 131 130 130 130 130 130 130 128 129 126 128 128 130 128 127 127 126 127 127 127 129 129 130 130 131 132 131 131 130 131 131 130 130 129 129 130 129 131 129 129 131 130 131 131 130 129 128 128 128 126 126 127 126 126 126 132 127 128 128 128 127 128 129 131 128 137 139 139 139 141 141 142 142 140 142 143 144 143 139 141 143 139 141 141 144 142 149 150 149 147 145 143 141 139 140 138 138 137 136 135 134 135 135 133 135 136 136 134 136 137 137 138 138 137 136 138 141 142 140 140 139 0 0 0 0 0
    0 0 0 0 0 0 0 0 0 0 0 0 0 0 0 0 0 0 0 0 0 0 0 0 0 0 0 0 0 0 0 0 0 0 0 0 0 0 0 0 0 0 0 0 0 0 0 0 0 0 0 0 0 0 0 0 0 0 0 0 0 0 0 0 0 0 0 0 0 -193 -209 -209 -209 -209 -209 155 -209 -193 -209 -209 165 -209 -209 -209 -209 -209 -209 -209 -209 -209 -209 -209 -209 -193 135 135 134 135 134 -193 -209 -209 -209 -209 -209 132 131 130 130 -209 -209 -209 -209 -209 312 313 -209 -209 317 323 -209 -209 -209 -209 -209 -209 133 135 136 134 134 135 134 135 133 134 132 127 136 -209 -209 -209 -209 -193 10 13 16 17 19 -193 -193 131 -193 -177 -177 -177 131 129 130 126 131 131 132 131 130 131 131 131 132 130 130 128 131 132 131 132 -193 130 130 130 129 125 126 125 125 124 124 124 123 123 124 123 129 127 130 129 129 130 129 130 130 127 129 126 128 128 130 128 127 126 125 127 128 128 127 127 128 128 130 131 130 130 129 131 130 129 130 129 128 130 129 130 129 129 131 130 130 131 130 129 128 127 127 126 126 127 126 125 126 133 128 128 128 128 128 128 129 131 129 138 140 139 140 141 141 142 142 140 142 145 146 144 143 148 150 146 149 152 150 151 154 155 150 147 144 143 141 139 140 138 138 137 136 133 133 133 133 131 133 135 135 132 137 138 140 140 142 140 139 141 147 144 140 140 139 0 0 0 0 0
    0 0 0 0 0 0 0 0 0 0 0 0 0 0 0 0 0 0 0 0 0 0 0 0 0 0 0 0 0 0 0 0 0 0 0 0 0 0 0 0 0 0 0 0 0 0 0 0 0 0 0 0 0 0 0 0 0 0 0 0 0 0 0 0 0 0 0 0 0 -209 -209 -209 -193 157 -209 -193 -209 -209 -209 -209 166 -209 -209 -209 -209 -209 -209 -193 166 165 162 160 157 155 150 -193 -193 -209 -209 -209 -209 -209 -209 -209 -209 -209 -209 -193 -209 -209 -209 -209 -209 -209 -209 310 305 310 314 315 324 -209 -209 -209 -209 -209 -209 138 138 135 135 136 135 136 134 134 134 132 138 -209 -209 -209 -209 -209 0 10 12 11 16 -209 -209 -209 -209 -177 -177 -177 131 129 129 126 130 130 132 132 131 132 132 133 -193 -209 -209 -193 132 132 -193 -193 -193 -193 129 129 128 124 125 125 125 124 124 124 -193 123 124 123 130 127 131 130 130 130 129 130 130 127 128 124 127 127 129 127 125 125 124 126 127 127 126 126 127 126 129 131 129 130 129 131 131 129 130 129 128 130 129 131 129 129 132 130 131 131 129 129 127 126 126 125 125 125 125 125 126 133 128 129 129 129 129 130 131 132 131 138 140 140 141 142 141 142 142 140 143 147 147 146 147 150 150 149 151 153 151 152 154 155 152 149 147 145 143 140 140 139 139 138 137 135 134 135 136 135 136 137 138 137 138 141 143 143 145 143 142 144 150 147 142 143 142 0 0 0 0 0
    0 0 0 0 0 0 0 0 0 0 0 0 0 0 0 0 0 0 0 0 0 0 0 0 0 0 0 0 0 0 0 0 0 0 0 0 0 0 0 0 0 0 0 0 0 0 0 0 0 0 0 0 0 0 0 0 0 0 0 0 0 0 0 0 0 0 0 0 0 162 161 159 158 159 -193 161 -193 -193 -193 -193 165 -209 -209 -193 -209 -209 164 164 165 163 161 160 159 158 156 158 -209 -209 -209 -209 -209 -209 -209 -209 -209 -209 -209 -209 -209 -209 -209 -209 -209 -209 -209 -209 299 304 309 -193 318 -209 -193 -209 -209 160 -209 -209 150 142 142 142 139 139 136 136 136 137 143 -209 -209 -209 -209 -209 -193 -209 0 0 -209 -209 -193 -209 -209 -209 134 -177 132 129 128 125 130 131 133 -193 132 134 -193 -209 -209 -209 -209 -209 -209 -209 -209 -209 -209 -193 127 129 127 123 124 124 124 123 124 -193 -193 124 126 125 132 129 133 131 131 131 130 130 131 127 127 124 125 132 -193 -209 126 -209 -209 -193 129 130 126 126 127 126 130 132 130 131 130 131 131 130 131 130 129 130 129 130 129 129 131 130 130 130 128 128 127 126 126 124 125 125 125 124 127 134 129 130 130 130 130 131 132 133 132 138 139 139 141 141 141 142 142 140 144 149 148 148 150 151 152 151 153 154 153 154 155 155 154 151 148 145 144 141 141 140 140 138 138 137 135 137 138 138 139 140 142 141 141 143 147 146 148 144 141 143 150 150 150 150 149 0 0 0 0 0
    0 0 0 0 0 0 0 0 0 0 0 0 0 0 0 0 0 0 0 0 0 0 0 0 0 0 0 0 0 0 0 0 0 0 0 0 0 0 0 0 0 0 0 0 0 0 0 0 0 0 0 0 0 0 0 0 0 0 0 0 0 0 0 0 0 0 0 0 0 163 162 162 160 160 161 162 163 -193 -193 162 164 166 166 167 166 167 163 164 164 163 161 160 160 160 157 160 159 -193 -193 -209 -209 -209 -209 -209 -209 -209 -209 -209 -209 -209 -209 -209 255 -209 -209 -209 299 302 306 310 314 -193 -193 -209 -209 163 -193 157 154 154 153 153 153 151 149 144 146 -209 -209 -209 -209 -209 -209 771 -193 -193 -209 -209 -209 -209 -209 -209 -209 -209 -193 -209 -209 -193 130 126 131 133 135 -193 -209 -209 -209 -209 -209 -209 -193 -209 -209 443 -209 449 -209 -209 -193 129 126 123 124 124 123 123 123 -193 -209 124 130 128 133 132 134 133 133 132 133 132 132 130 126 -209 -209 154 154 155 -209 -209 -209 -209 -193 135 128 126 127 127 130 132 131 131 130 132 132 131 132 131 130 131 129 131 130 129 132 130 130 131 128 130 129 127 126 124 125 125 126 125 129 135 130 130 131 131 132 132 133 134 133 138 139 139 141 141 140 141 141 140 145 149 149 149 150 151 152 152 153 154 153 155 155 156 156 154 150 147 147 143 143 141 141 139 138 139 137 138 142 143 145 148 149 148 149 149 153 -193 152 151 -209 141 -209 -193 -193 -193 151 0 0 0 0 0
    0 0 0 0 0 0 0 0 0 0 0 0 0 0 0 0 0 0 0 0 0 0 0 0 0 0 0 0 0 0 0 0 0 0 0 0 0 0 0 0 0 0 0 0 0 0 0 0 0 0 0 0 0 0 0 0 0 0 0 0 0 0 0 0 0 0 0 0 0 163 162 163 161 160 161 163 163 161 163 163 164 165 165 165 163 165 162 163 163 162 161 161 160 160 158 161 160 160 160 -193 -209 -209 -209 -209 -209 -209 -209 -209 -209 -209 -209 -209 255 -209 -209 -209 301 302 305 310 312 314 -193 -209 -193 162 164 158 155 156 156 156 156 155 155 153 154 156 155 -193 -193 -209 -209 771 776 -177 -209 -209 -209 -209 -209 -209 -193 -209 149 150 151 -177 -209 -209 -193 138 144 -209 -209 -209 -209 -209 -209 -209 -209 -209 -193 444 449 453 457 460 466 -209 -209 -193 125 -209 -209 -209 -209 -209 117 123 -209 -209 -193 133 135 135 134 -193 -193 -193 -193 -193 -209 155 156 156 156 156 154 149 -209 144 151 146 -193 128 129 129 131 133 131 132 130 132 133 132 132 132 131 132 129 131 129 129 131 128 127 129 128 130 130 130 129 126 128 128 129 127 132 -193 130 131 132 132 133 132 134 135 135 139 140 140 141 141 140 141 141 140 144 149 148 149 150 152 152 152 153 155 154 155 156 156 156 156 153 150 150 146 146 143 143 141 140 140 139 139 144 146 148 151 151 150 152 152 154 155 155 -209 -209 -209 -209 -209 -193 -193 -193 0 0 0 0 0
    0 0 0 0 0 0 0 0 0 0 0 0 0 0 0 0 0 0 0 0 0 0 0 0 0 0 0 0 0 0 0 0 0 0 0 0 0 0 0 0 0 0 0 0 0 0 0 0 0 0 0 0 0 0 0 0 0 0 0 0 0 0 0 0 0 0 0 0 0 162 162 162 160 161 162 164 163 161 163 161 162 162 162 162 161 164 161 162 163 162 162 161 161 160 158 161 159 159 159 160 162 162 -193 -193 -193 -193 -193 -209 -209 -209 -209 -209 -209 -209 -209 -209 301 300 304 310 -193 -193 -193 -209 -193 162 163 158 156 157 158 159 158 158 157 156 158 160 159 159 -193 -193 -209 769 774 776 -193 -209 -209 -209 -209 -209 -209 -209 153 152 -177 -177 -177 -177 149 152 152 155 -209 -193 158 157 158 -193 -209 -209 -209 -193 449 454 457 460 466 470 472 -209 -209 -209 -209 -209 -209 -209 -193 -209 -209 -193 -193 -193 148 149 -193 154 155 156 156 155 155 156 158 156 157 156 155 153 151 151 153 152 -193 133 133 133 134 135 132 133 131 134 134 133 134 133 132 133 130 133 130 129 132 127 125 129 127 129 133 -193 133 -193 -193 -193 -193 -193 -193 156 133 133 133 134 135 134 135 135 136 139 141 141 143 142 142 142 142 141 147 150 149 151 152 153 152 153 154 155 154 155 155 155 155 158 154 151 151 148 147 145 144 142 141 141 140 140 146 150 150 153 153 153 154 154 155 157 156 158 -209 -209 -209 -209 -193 -193 153 0 0 0 0 0
    0 0 0 0 0 0 0 0 0 0 0 0 0 0 0 0 0 0 0 0 0 0 0 0 0 0 0 0 0 0 0 0 0 0 0 0 0 0 0 0 0 0 0 0 0 0 0 0 0 0 0 0 0 0 0 0 0 0 0 0 0 0 0 0 0 0 0 0 0 162 162 162 161 161 161 164 162 159 161 159 160 160 160 161 160 163 160 162 162 162 162 161 160 160 158 161 159 159 158 -193 -193 -193 -193 -193 -177 -177 -209 -209 -209 156 156 -193 -193 -193 160 -193 -209 -209 -193 -193 -209 -209 -209 -209 156 161 162 158 156 158 158 158 158 159 158 157 160 160 160 160 160 159 159 -193 -193 -193 -193 -193 -193 157 -193 -193 -193 155 153 153 153 -177 -177 152 153 154 154 157 158 159 161 160 161 162 162 161 159 -193 -193 454 458 461 466 -193 -193 -209 -209 155 155 -209 -209 -209 -209 -209 -209 155 155 155 154 153 155 155 156 157 157 156 156 157 159 157 157 156 155 154 153 153 154 153 154 146 138 137 136 140 134 135 133 137 138 136 136 137 135 139 133 140 -193 -209 -193 -193 -209 156 156 -193 154 154 -193 153 153 154 154 154 155 156 136 136 136 136 137 136 138 138 139 141 144 144 147 146 145 144 143 143 149 151 150 152 153 154 153 154 155 155 155 156 154 154 155 159 157 152 151 148 148 146 145 144 143 142 144 144 150 153 153 154 154 154 156 155 155 157 156 -209 -209 -209 -209 -209 -193 157 155 0 0 0 0 0
    0 0 0 0 0 0 0 0 0 0 0 0 0 0 0 0 0 0 0 0 0 0 0 0 0 0 0 0 0 0 0 0 0 0 0 0 0 0 0 0 0 0 0 0 0 0 0 0 0 0 0 0 0 0 0 0 0 0 0 0 0 0 0 0 0 0 0 0 0 161 160 161 160 160 160 163 160 158 159 158 159 159 160 160 160 163 160 162 163 162 162 160 160 160 158 161 159 158 157 -193 159 159 -193 -209 -193 -193 -209 155 154 156 157 158 -193 -193 160 159 160 -193 -193 -209 -209 -209 -209 -209 156 162 161 158 157 158 158 158 157 159 157 157 159 160 159 159 159 159 159 160 162 163 162 161 160 158 159 158 156 156 154 155 154 155 156 155 155 156 155 157 159 160 162 160 162 162 162 162 161 160 159 -193 -193 464 -193 -193 160 159 158 157 157 160 -193 154 -209 -193 154 156 157 157 156 155 156 156 157 157 158 157 156 157 160 157 157 156 155 154 154 153 154 153 154 153 148 146 145 151 -193 149 148 149 152 153 153 153 153 153 154 153 158 157 158 162 158 158 157 157 155 155 154 154 154 154 154 154 155 156 150 145 142 141 141 140 143 142 142 144 147 147 149 149 147 147 146 147 150 152 151 154 154 155 153 154 155 155 155 156 154 154 155 160 160 154 -193 149 149 149 148 147 145 144 147 148 151 154 154 155 155 155 156 156 155 157 155 -209 -209 -209 -209 -209 -209 -193 155 0 0 0 0 0
    0 0 0 0 0 0 0 0 0 0 0 0 0 0 0 0 0 0 0 0 0 0 0 0 0 0 0 0 0 0 0 0 0 0 0 0 0 0 0 0 0 0 0 0 0 0 0 0 0 0 0 0 0 0 0 0 0 0 0 0 0 0 0 0 0 0 0 0 0 160 159 161 161 160 160 163 160 158 159 158 159 160 161 161 160 163 160 162 163 162 161 160 160 160 159 161 158 158 157 -193 158 -193 -193 -193 -193 -193 156 156 155 157 157 158 158 158 159 159 159 160 159 159 157 156 157 158 157 163 161 158 157 159 159 159 158 159 157 157 160 159 159 159 160 159 159 160 162 162 162 162 161 158 159 158 157 157 156 156 155 155 157 156 157 157 156 157 158 159 161 160 160 161 161 161 160 160 159 158 159 159 159 160 160 159 159 158 158 160 158 156 156 155 156 157 157 158 157 156 157 157 158 158 158 157 157 157 159 157 157 156 155 154 154 154 154 154 154 154 153 153 152 153 154 153 154 153 154 155 155 155 155 155 156 155 158 157 159 161 158 160 158 158 156 156 155 155 154 155 155 155 155 156 152 151 149 147 146 146 147 147 146 146 148 148 150 150 149 149 148 149 152 153 152 155 155 155 154 154 155 155 155 155 153 154 154 159 162 157 160 152 152 153 151 150 149 148 150 150 152 154 155 155 155 155 156 156 155 156 155 -209 -209 -209 -209 -209 -209 -209 -193 0 0 0 0 0
    0 0 0 0 0 0 0 0 0 0 0 0 0 0 0 0 0 0 0 0 0 0 0 0 0 0 0 0 0 0 0 0 0 0 0 0 0 0 0 0 0 0 0 0 0 0 0 0 0 0 0 0 0 0 0 0 0 0 0 0 0 0 0 0 0 0 0 0 0 159 158 160 160 159 160 163 160 158 159 159 160 160 162 161 161 163 160 163 163 162 161 161 160 160 159 161 158 158 156 156 157 -193 -193 -193 -193 159 156 157 155 157 157 158 158 158 159 159 159 161 159 159 157 156 157 159 158 164 161 158 158 159 159 159 158 159 157 157 160 159 159 159 159 159 159 160 162 162 162 162 161 158 160 158 157 157 156 156 155 155 157 156 157 158 157 158 158 158 160 159 160 160 160 159 159 159 159 158 159 159 158 160 160 159 159 159 158 159 158 156 156 156 156 158 158 158 158 156 157 157 158 158 158 157 157 157 158 156 157 156 155 154 154 154 154 154 154 154 154 153 153 154 155 154 155 155 155 155 156 156 155 155 156 155 158 157 158 161 158 160 158 158 157 157 156 155 155 155 155 155 155 155 152 152 151 150 149 149 149 149 149 149 150 151 152 153 152 152 151 152 154 155 154 157 156 156 154 155 155 155 155 156 153 154 155 159 162 160 163 156 155 156 154 153 151 150 151 152 154 155 155 156 156 156 157 156 155 155 154 -209 -209 -209 -209 -209 -209 -193 157 0 0 0 0 0
    0 0 0 0 0 0 0 0 0 0 0 0 0 0 0 0 0 0 0 0 0 0 0 0 0 0 0 0 0 0 0 0 0 0 0 0 0 0 0 0 0 0 0 0 0 0 0 0 0 0 0 0 0 0 0 0 0 0 0 0 0 0 0 0 0 0 0 0 0 159 157 159 160 158 159 163 159 158 159 159 160 160 161 161 161 163 160 162 162 162 161 161 161 160 159 161 158 158 156 156 156 -193 -193 -193 -193 157 155 156 155 157 157 158 159 159 160 160 161 161 160 161 158 157 158 162 159 164 161 158 158 159 159 159 158 159 157 157 160 159 159 158 159 159 159 160 162 161 161 162 161 159 159 158 157 157 156 157 155 155 156 156 157 158 157 158 157 158 160 159 159 160 159 158 159 159 158 158 159 159 158 160 160 159 159 159 158 158 157 156 156 156 156 157 158 158 158 157 157 157 158 158 158 157 157 157 158 157 157 156 155 154 155 154 154 154 154 155 155 154 154 155 155 156 156 155 156 155 156 156 155 155 155 155 157 156 158 160 158 159 158 158 157 157 156 156 155 156 155 155 155 155 153 153 153 151 151 151 151 151 153 152 153 153 153 155 154 154 153 154 155 156 155 159 157 157 155 156 156 156 156 157 153 154 155 159 161 158 160 157 157 158 155 154 152 153 154 153 155 156 156 157 157 157 157 156 155 155 153 153 -209 138 -193 -209 -209 -193 -193 0 0 0 0 0
    0 0 0 0 0 0 0 0 0 0 0 0 0 0 0 0 0 0 0 0 0 0 0 0 0 0 0 0 0 0 0 0 0 0 0 0 0 0 0 0 0 0 0 0 0 0 0 0 0 0 0 0 0 0 0 0 0 0 0 0 0 0 0 0 0 0 0 0 0 158 156 157 159 157 159 162 159 158 159 159 160 160 161 161 161 163 160 162 162 162 161 161 161 160 159 161 158 158 156 156 155 155 156 156 154 155 154 156 155 157 158 159 159 160 161 160 161 161 159 159 158 157 158 162 159 164 160 158 158 159 158 158 157 158 156 157 160 158 158 158 159 159 159 160 163 162 163 163 162 159 160 158 157 157 156 156 155 155 156 156 157 158 157 158 157 158 159 158 159 159 159 158 159 160 158 159 160 160 159 160 160 159 159 158 158 158 157 156 156 157 157 158 158 158 158 157 157 157 158 157 158 157 157 157 157 156 156 155 155 154 155 154 154 155 155 156 156 155 154 155 155 156 155 155 155 155 155 155 155 155 155 155 157 156 158 160 157 159 158 158 157 157 156 156 155 156 155 156 155 155 154 154 154 153 153 153 153 153 155 153 154 154 154 156 155 155 154 154 156 156 155 161 157 157 156 156 156 156 156 156 152 153 154 158 160 158 160 158 158 160 158 157 155 157 160 164 162 161 158 157 158 157 157 156 155 154 153 153 151 149 151 -193 154 -193 -193 0 0 0 0 0
    0 0 0 0 0 0 0 0 0 0 0 0 0 0 0 0 0 0 0 0 0 0 0 0 0 0 0 0 0 0 0 0 0 0 0 0 0 0 0 0 0 0 0 0 0 0 0 0 0 0 0 0 0 0 0 0 0 0 0 0 0 0 0 0 0 0 0 0 0 158 156 157 159 158 160 163 161 159 161 160 160 161 161 161 162 162 160 162 162 162 161 161 160 159 159 161 158 157 155 155 154 154 155 155 153 154 154 155 155 157 159 159 160 162 162 162 162 163 160 159 158 158 157 163 159 164 159 157 158 159 158 158 157 158 155 156 159 158 158 159 159 160 160 161 163 163 164 164 163 160 161 159 157 157 156 156 154 155 155 155 156 157 157 157 156 157 158 158 158 159 159 158 159 160 159 159 160 160 159 160 160 159 159 159 159 159 157 157 156 157 157 158 158 157 158 157 157 156 157 156 158 156 157 156 156 156 156 155 155 154 155 155 154 156 156 157 157 155 155 155 155 156 155 155 155 155 155 155 155 155 155 154 156 156 157 160 157 159 158 158 157 158 156 156 155 156 155 155 154 154 153 153 153 153 153 153 152 153 155 155 155 156 155 157 156 156 155 155 156 156 155 160 157 157 156 156 156 155 155 156 151 152 -209 157 159 158 159 159 163 165 165 168 168 168 168 169 168 165 161 157 157 156 155 154 154 154 152 153 153 153 156 157 157 158 159 0 0 0 0 0
    0 0 0 0 0 0 0 0 0 0 0 0 0 0 0 0 0 0 0 0 0 0 0 0 0 0 0 0 0 0 0 0 0 0 0 0 0 0 0 0 0 0 0 0 0 0 0 0 0 0 0 0 0 0 0 0 0 0 0 0 0 0 0 0 0 0 0 0 0 158 155 157 160 158 162 163 162 160 161 160 160 161 161 160 162 162 159 162 162 162 161 161 160 159 158 161 157 157 155 155 154 154 155 154 153 153 154 155 156 158 159 160 161 163 163 162 162 161 158 158 158 157 156 164 159 164 159 158 158 158 157 158 156 157 155 156 159 157 158 159 159 160 160 161 163 163 164 164 162 161 161 159 157 158 156 156 155 155 156 156 156 157 157 157 156 157 158 157 158 159 159 158 159 160 159 158 160 160 158 159 160 159 159 158 160 160 158 158 158 159 158 159 159 157 158 157 157 156 157 156 158 156 157 156 156 156 156 155 156 154 155 155 155 156 156 157 157 155 155 156 155 156 155 155 155 155 155 155 155 155 154 154 155 155 158 160 157 159 158 159 157 158 156 156 155 156 155 155 154 153 153 152 152 152 152 151 152 153 155 155 156 157 156 158 156 157 156 156 157 157 156 161 157 157 156 156 156 155 155 156 150 152 -193 -193 -193 157 157 164 169 170 169 172 171 171 170 171 170 168 164 159 158 156 156 154 154 154 153 154 154 154 156 157 158 -193 159 0 0 0 0 0
    0 0 0 0 0 0 0 0 0 0 0 0 0 0 0 0 0 0 0 0 0 0 0 0 0 0 0 0 0 0 0 0 0 0 0 0 0 0 0 0 0 0 0 0 0 0 0 0 0 0 0 0 0 0 0 0 0 0 0 0 0 0 0 0 0 0 0 0 0 159 155 158 162 157 164 162 162 160 161 161 160 161 161 161 162 163 159 162 161 162 160 160 160 159 158 160 157 157 154 155 154 154 155 154 152 152 154 155 156 158 159 159 161 163 162 161 161 160 158 159 159 158 156 165 160 164 160 158 158 159 158 158 156 157 155 156 159 157 158 159 159 159 160 161 163 162 163 163 162 161 161 159 158 158 157 157 155 156 156 156 157 158 157 158 156 157 158 157 158 159 158 158 159 160 158 158 159 160 158 159 159 158 159 158 160 160 159 160 159 161 159 159 160 158 159 158 158 157 157 156 158 156 157 156 155 155 156 155 156 154 155 155 155 157 157 157 157 155 155 156 154 156 156 155 155 155 155 155 155 155 154 154 155 155 158 161 157 159 158 158 157 158 156 156 155 156 155 155 154 154 153 152 152 153 152 151 151 151 154 154 155 156 156 157 156 157 157 156 157 157 156 161 157 157 156 156 156 155 155 156 149 -193 -193 -193 163 160 163 167 171 171 171 174 173 172 172 173 171 169 166 162 159 157 156 154 155 154 153 154 155 154 158 158 -193 -193 -209 0 0 0 0 0
    0 0 0 0 0 0 0 0 0 0 0 0 0 0 0 0 0 0 0 0 0 0 0 0 0 0 0 0 0 0 0 0 0 0 0 0 0 0 0 0 0 0 0 0 0 0 0 0 0 0 0 0 0 0 0 0 0 0 0 0 0 0 0 0 0 0 0 0 0 162 156 163 167 164 167 164 164 161 162 162 161 162 161 161 163 163 159 162 161 161 160 160 159 159 157 160 157 157 154 156 155 156 156 155 154 154 155 157 156 158 159 160 160 163 162 161 161 161 159 160 160 159 157 165 161 165 161 158 159 160 159 159 157 158 155 157 159 157 157 158 158 159 160 161 163 162 163 163 162 161 161 159 158 159 157 158 156 157 157 157 158 158 157 158 156 158 158 157 157 158 158 157 158 159 157 157 158 159 157 158 159 158 158 158 161 160 159 160 159 161 158 159 159 157 158 157 157 156 156 156 158 156 156 156 154 155 156 155 156 154 155 156 155 158 158 156 157 155 155 156 153 155 155 155 155 155 155 155 154 155 154 154 155 155 157 160 157 159 158 158 157 158 156 157 155 156 155 155 154 154 153 152 153 153 152 151 150 151 153 153 155 156 156 157 157 158 157 157 157 157 156 161 157 156 156 156 156 156 155 156 150 153 -193 157 164 163 164 168 171 171 171 174 173 173 173 174 173 170 169 166 163 160 158 156 155 155 153 155 157 154 158 158 161 -193 -209 0 0 0 0 0
    0 0 0 0 0 0 0 0 0 0 0 0 0 0 0 0 0 0 0 0 0 0 0 0 0 0 0 0 0 0 0 0 0 0 0 0 0 0 0 0 0 0 0 0 0 0 0 0 0 0 0 0 0 0 0 0 0 0 0 0 0 0 0 0 0 0 0 0 0 164 159 168 169 168 169 166 166 164 164 164 162 163 161 161 163 163 158 161 160 161 159 160 159 158 157 160 156 156 154 155 155 156 155 155 154 154 155 157 157 158 159 160 161 163 162 161 161 160 159 160 160 160 157 165 162 165 161 159 159 160 159 159 157 158 155 157 159 157 157 157 158 158 159 161 163 162 164 164 162 161 161 160 158 159 158 158 156 157 157 157 158 159 158 158 156 159 158 157 157 157 158 157 158 159 157 157 158 159 158 159 159 159 159 159 161 161 160 161 159 160 157 158 158 156 157 157 156 156 155 156 158 156 157 156 154 155 156 156 156 154 155 156 155 159 157 155 155 154 154 155 152 154 154 154 155 155 155 155 155 155 155 154 155 155 157 160 157 159 158 158 157 158 157 157 156 156 155 156 154 154 153 152 152 153 152 152 151 152 154 154 156 157 157 157 157 159 158 157 158 158 157 162 158 156 156 156 156 156 156 156 153 154 156 159 165 164 165 167 170 171 171 174 173 173 173 174 174 172 171 170 -209 164 164 159 156 155 154 156 160 156 161 159 162 164 -193 0 0 0 0 0
    0 0 0 0 0 0 0 0 0 0 0 0 0 0 0 0 0 0 0 0 0 0 0 0 0 0 0 0 0 0 0 0 0 0 0 0 0 0 0 0 0 0 0 0 0 0 0 0 0 0 0 0 0 0 0 0 0 0 0 0 0 0 0 0 0 0 0 0 0 165 163 168 168 167 168 167 167 165 164 164 162 163 162 162 163 163 158 161 159 160 159 159 158 158 156 159 156 156 154 154 154 155 155 155 153 153 155 157 158 159 160 161 162 163 -193 160 160 158 157 157 158 158 157 164 161 164 161 159 159 159 159 159 157 158 155 156 158 156 156 156 157 157 158 161 163 162 164 164 161 161 161 160 158 158 157 157 156 157 157 156 158 158 158 158 156 160 158 157 157 157 158 157 159 160 157 158 158 159 158 159 159 159 159 159 162 161 160 161 159 160 157 159 157 156 157 157 157 156 156 156 158 157 157 156 154 156 157 156 156 154 155 157 156 159 157 154 154 153 154 154 152 154 154 155 155 155 155 155 155 156 155 155 156 157 158 160 157 158 158 158 157 158 157 158 156 157 156 156 154 154 153 151 152 153 153 153 152 153 154 155 157 158 158 157 157 159 158 158 158 159 157 162 158 156 156 156 156 156 156 156 153 154 159 160 163 164 165 167 169 171 172 173 173 173 173 173 174 172 172 172 -209 -209 -209 -209 -209 155 155 165 -193 165 167 165 165 167 167 0 0 0 0 0
    0 0 0 0 0 0 0 0 0 0 0 0 0 0 0 0 0 0 0 0 0 0 0 0 0 0 0 0 0 0 0 0 0 0 0 0 0 0 0 0 0 0 0 0 0 0 0 0 0 0 0 0 0 0 0 0 0 0 0 0 0 0 0 0 0 0 0 0 0 165 165 168 168 166 168 167 167 164 163 162 161 163 162 162 163 163 158 161 159 160 158 159 158 157 156 158 156 156 154 154 154 156 155 155 154 153 156 159 160 160 161 -193 -209 -209 -209 -193 -193 -193 156 157 159 158 157 164 161 164 162 159 160 159 159 158 157 158 156 156 157 156 154 155 156 156 157 160 162 163 164 164 161 161 161 159 157 157 157 156 155 156 156 156 158 158 158 158 155 161 158 157 157 157 158 158 159 160 157 158 158 159 157 158 158 158 158 158 162 162 161 162 161 162 158 160 158 157 158 158 157 157 156 157 160 157 157 157 154 156 157 156 157 154 155 157 155 158 157 154 153 153 154 154 152 154 155 155 155 155 156 156 156 156 156 156 157 158 158 159 158 158 158 158 158 158 157 158 157 158 156 157 155 155 154 152 153 154 154 154 153 154 154 154 156 156 157 156 156 158 158 158 158 159 158 162 159 156 156 157 157 156 156 156 153 153 161 160 163 164 165 167 170 171 172 173 173 173 172 173 174 172 172 -193 -193 -193 -209 -193 -209 162 159 167 171 167 170 167 167 169 169 0 0 0 0 0
    0 0 0 0 0 0 0 0 0 0 0 0 0 0 0 0 0 0 0 0 0 0 0 0 0 0 0 0 0 0 0 0 0 0 0 0 0 0 0 0 0 0 0 0 0 0 0 0 0 0 0 0 0 0 0 0 0 0 0 0 0 0 0 0 0 0 0 0 0 166 166 168 167 165 168 166 166 164 162 162 161 163 163 162 163 163 159 160 159 160 158 159 157 157 155 158 156 156 155 155 155 157 157 156 155 155 158 162 163 162 -193 755 -209 -209 -177 -177 -177 -209 -209 156 159 158 158 164 161 164 162 160 160 160 159 159 157 158 156 156 157 -193 -209 -193 -193 156 157 158 160 163 164 164 161 162 161 -193 -193 157 157 156 154 156 155 156 159 159 161 160 155 161 158 157 157 157 157 157 158 159 156 157 156 158 157 157 157 157 157 158 162 162 162 162 161 161 159 160 158 157 158 158 158 157 156 157 162 159 158 159 155 156 158 157 157 155 155 157 155 158 156 154 154 154 154 154 152 154 155 155 155 156 156 156 157 157 157 157 157 158 159 159 158 158 158 158 158 159 158 158 158 158 157 157 155 156 154 154 154 154 154 155 153 153 152 153 154 154 155 155 155 156 156 157 157 159 158 162 159 156 156 156 156 156 156 156 154 153 161 160 163 165 166 168 170 171 172 173 173 173 173 173 173 172 172 -193 -193 -193 -209 -193 -209 -193 -193 171 176 172 174 171 168 173 172 0 0 0 0 0
    0 0 0 0 0 0 0 0 0 0 0 0 0 0 0 0 0 0 0 0 0 0 0 0 0 0 0 0 0 0 0 0 0 0 0 0 0 0 0 0 0 0 0 0 0 0 0 0 0 0 0 0 0 0 0 0 0 0 0 0 0 0 0 0 0 0 0 0 0 167 -193 169 168 166 168 167 166 165 162 162 161 163 164 163 163 164 159 160 160 160 158 159 157 157 155 158 156 155 155 155 156 158 158 157 156 156 160 164 164 163 -209 755 -209 -209 -177 -177 -177 -209 -209 -193 159 158 158 164 160 164 162 160 160 160 159 159 157 159 157 157 158 -193 -209 -193 -193 -193 -193 -193 159 161 162 162 160 161 -193 -193 -193 -193 157 156 155 157 156 156 160 161 162 162 156 162 158 157 157 156 157 156 157 158 155 155 154 156 155 156 155 156 157 157 161 162 162 161 158 160 157 158 156 -193 -193 -193 158 158 157 158 162 159 158 159 155 157 158 157 157 155 155 157 156 158 157 155 155 155 155 155 152 154 155 156 156 156 156 157 158 158 158 157 158 159 159 159 158 158 158 159 159 159 157 158 158 158 157 157 155 155 154 154 154 154 153 154 153 153 151 152 153 153 154 155 155 155 155 157 157 159 157 162 159 156 156 156 156 156 156 156 154 153 160 161 163 164 166 168 170 171 172 173 172 173 173 173 173 172 173 172 -193 -193 -193 -193 -209 -193 172 174 178 175 175 174 172 178 176 0 0 0 0 0
    0 0 0 0 0 0 0 0 0 0 0 0 0 0 0 0 0 0 0 0 0 0 0 0 0 0 0 0 0 0 0 0 0 0 0 0 0 0 0 0 0 0 0 0 0 0 0 0 0 0 0 0 0 0 0 0 0 0 0 0 0 0 0 0 0 0 0 0 0 168 -193 171 171 167 168 169 167 166 163 162 161 165 166 166 165 165 159 161 160 160 159 159 157 157 155 157 156 155 155 154 155 158 159 158 158 157 161 -193 164 163 -209 -177 760 -209 -209 -209 -177 -209 -209 -193 158 157 158 164 161 163 162 160 160 160 160 159 158 159 158 158 159 -193 -209 -193 -193 -193 -193 -193 158 161 162 162 159 160 -193 -193 -193 -193 -193 -193 155 157 156 156 161 162 163 165 157 163 158 158 157 156 156 156 156 158 153 -209 151 154 153 155 154 156 156 157 160 161 162 160 157 158 157 158 156 -193 -193 -193 158 158 158 159 162 160 159 160 155 157 158 157 157 155 155 157 156 159 157 155 156 156 156 156 152 154 156 156 156 157 156 157 158 159 158 157 157 158 158 158 157 157 157 158 158 159 157 158 158 158 157 157 156 156 154 155 155 154 154 154 154 153 151 153 154 153 154 155 155 156 156 158 158 161 159 163 160 157 157 157 157 157 156 157 155 154 163 162 163 163 166 168 169 170 172 172 172 173 174 173 173 173 174 172 172 175 175 174 173 -193 173 175 181 183 180 178 177 181 180 0 0 0 0 0
    0 0 0 0 0 0 0 0 0 0 0 0 0 0 0 0 0 0 0 0 0 0 0 0 0 0 0 0 0 0 0 0 0 0 0 0 0 0 0 0 0 0 0 0 0 0 0 0 0 0 0 0 0 0 0 0 0 0 0 0 0 0 0 0 0 0 0 0 0 171 178 173 172 166 167 171 -193 -193 162 161 163 167 170 171 168 166 161 163 161 161 159 159 158 156 155 156 155 155 155 154 155 159 160 158 159 158 162 165 165 164 -209 -177 759 -193 -209 -209 -193 -209 -209 -209 158 157 158 164 161 164 163 160 161 160 160 159 158 159 158 -193 159 -209 -177 -193 -209 -209 -209 -209 -193 -193 -193 -209 158 -193 -193 -193 -193 -193 -193 -193 -193 157 156 156 162 163 165 166 158 164 159 158 157 156 156 156 156 158 153 -209 -209 155 155 156 155 156 157 157 160 160 160 158 156 157 155 156 -193 -177 -177 -193 157 158 157 157 162 159 158 160 155 157 157 156 157 155 155 157 156 158 157 156 156 156 156 156 152 153 155 155 156 156 156 157 158 159 158 157 157 157 156 157 156 156 156 157 158 159 157 158 158 159 157 157 156 156 154 156 156 155 155 156 155 153 152 154 154 153 154 155 154 155 156 158 160 165 163 165 162 158 158 159 159 159 157 159 157 156 162 162 162 162 165 167 167 170 173 173 173 174 175 175 175 175 174 -209 171 173 172 174 174 -193 -209 174 -209 182 179 178 176 180 180 0 0 0 0 0
    0 0 0 0 0 0 0 0 0 0 0 0 0 0 0 0 0 0 0 0 0 0 0 0 0 0 0 0 0 0 0 0 0 0 0 0 0 0 0 0 0 0 0 0 0 0 0 0 0 0 0 0 0 0 0 0 0 0 0 0 0 0 0 0 0 0 0 0 0 -209 187 -193 -209 162 -225 -225 -193 -209 166 165 163 167 176 179 181 -193 162 162 160 161 160 160 157 156 155 156 156 155 155 153 154 159 161 159 162 -225 165 168 169 -209 -209 -209 -193 -177 -209 -193 -209 -209 -209 -209 158 157 158 163 161 163 163 160 161 159 160 159 158 159 158 -193 157 -209 -177 -209 -209 -209 -209 -209 -193 -209 -209 -209 -209 -209 -177 -193 -193 -193 494 493 -193 -177 154 155 162 163 165 -209 157 -193 158 157 157 -193 -193 -193 -193 -193 -193 -209 -209 -193 -209 156 155 157 157 157 158 160 -193 157 154 155 -193 -193 -193 735 737 -193 -193 157 156 156 160 159 158 160 155 157 157 156 156 155 155 156 156 158 157 156 156 156 156 156 152 153 154 155 156 156 156 157 159 159 159 158 157 157 156 156 156 155 156 156 157 158 157 158 159 158 157 157 155 156 154 156 156 154 155 157 156 154 153 154 154 154 155 155 154 155 156 159 162 166 165 166 164 159 158 159 159 160 158 160 157 157 162 162 162 162 163 166 165 170 173 172 173 174 174 173 174 174 173 -209 170 171 171 172 -209 -209 -209 -209 -209 176 177 176 175 181 180 0 0 0 0 0
    0 0 0 0 0 0 0 0 0 0 0 0 0 0 0 0 0 0 0 0 0 0 0 0 0 0 0 0 0 0 0 0 0 0 0 0 0 0 0 0 0 0 0 0 0 0 0 0 0 0 0 0 0 0 0 0 0 0 0 0 0 0 0 0 0 0 0 0 0 -193 190 195 -193 -209 -209 -209 -193 -209 -209 -209 166 171 182 184 186 -209 163 163 161 163 162 161 158 155 155 156 156 155 154 152 153 159 162 -225 -225 -225 -225 -225 -193 -177 -209 -209 -177 -177 -177 -177 -209 -209 -209 -193 -209 156 157 161 160 162 163 161 160 159 159 158 157 158 158 -193 -209 -209 -193 -209 -209 -209 -209 -193 -209 -209 -193 -209 -193 -177 -193 -193 -209 -209 -193 491 -209 -177 150 153 162 163 165 -193 -193 -193 158 157 157 -193 -193 -193 -193 -193 -209 -209 -209 -209 -209 -209 -209 -193 156 157 156 161 -209 -193 -193 155 -193 -193 736 736 738 -193 -193 159 158 158 160 159 158 159 155 157 156 156 156 155 155 156 156 157 156 156 156 156 156 156 152 153 155 155 156 156 157 158 159 160 160 158 158 157 156 156 156 155 155 156 157 158 157 158 159 158 158 157 155 155 153 156 155 154 155 156 156 153 152 154 154 154 154 155 154 155 156 159 163 166 165 166 164 158 158 159 159 160 158 160 158 157 161 162 162 162 162 165 164 169 172 171 171 171 171 170 171 170 169 -193 -209 -193 -193 -209 134 -193 140 136 -209 -209 -209 -193 171 179 179 0 0 0 0 0
    0 0 0 0 0 0 0 0 0 0 0 0 0 0 0 0 0 0 0 0 0 0 0 0 0 0 0 0 0 0 0 0 0 0 0 0 0 0 0 0 0 0 0 0 0 0 0 0 0 0 0 0 0 0 0 0 0 0 0 0 0 0 0 0 0 0 0 0 0 189 193 196 197 -193 -193 -193 -193 -193 196 -209 -209 182 188 190 195 198 -193 -209 -209 -209 -209 -209 -193 155 155 156 -193 -193 -193 150 152 157 -193 -209 -209 -209 -193 273 -177 -209 -209 -209 -209 374 -177 -177 -209 -193 -209 -209 -209 -193 157 160 161 162 -193 -193 159 -193 -209 -209 -209 -209 -209 -209 -209 -209 -209 -209 -209 -209 -209 -209 -209 -209 -209 -209 -209 479 -193 -209 -225 -225 -225 -225 -225 -209 144 152 162 163 166 167 -193 164 159 158 157 155 -193 -209 -193 -209 -209 -209 -209 -209 -209 -209 -193 -209 -209 103 101 -193 100 -193 -209 -209 -209 -209 -193 734 735 -193 -209 159 158 157 159 158 157 159 155 156 156 156 156 155 155 156 156 158 157 157 157 158 157 160 154 154 155 156 156 158 157 158 160 161 160 159 157 157 156 156 155 154 155 156 157 158 156 158 158 158 158 157 155 155 153 156 155 154 154 155 155 150 -193 153 153 153 153 154 154 155 156 158 162 166 165 166 164 159 158 159 159 161 158 161 158 157 160 161 160 160 159 163 162 169 172 170 170 171 170 169 168 167 163 153 150 148 148 -193 135 143 -193 -209 -209 -193 170 171 172 180 179 0 0 0 0 0
    0 0 0 0 0 0 0 0 0 0 0 0 0 0 0 0 0 0 0 0 0 0 0 0 0 0 0 0 0 0 0 0 0 0 0 0 0 0 0 0 0 0 0 0 0 0 0 0 0 0 0 0 0 0 0 0 0 0 0 0 0 0 0 0 0 0 0 0 0 195 197 198 199 -193 200 -193 -193 199 200 201 201 200 199 198 200 203 204 205 208 204 206 210 212 -209 -209 -209 -209 -209 -209 -209 -193 -193 190 197 -209 -209 -193 -209 -209 -193 353 -193 358 -177 365 -209 -209 -209 -209 -209 -193 -209 -209 -209 -209 -209 -209 -209 -209 -209 -209 -209 -209 -209 -209 -209 -209 -209 -209 -209 -209 -209 -209 -209 -209 -209 0 0 -193 -209 -209 -225 -225 -225 -225 -225 -225 -225 -225 -225 -209 164 170 -209 -209 -209 -193 -209 -209 -177 -177 -177 -209 -193 -209 -177 -193 -193 -209 -209 -209 99 101 103 -193 -193 -193 -193 94 95 99 -209 -209 -193 731 -193 -209 155 155 155 -193 -193 -193 -193 -193 157 156 156 157 156 155 156 157 159 158 159 159 159 159 163 158 154 155 156 155 159 157 159 162 161 160 158 157 157 156 156 155 154 154 155 157 158 154 156 157 157 157 156 155 155 154 157 157 155 155 153 -193 147 149 151 152 151 152 153 154 155 156 158 162 165 166 166 164 159 158 159 159 162 158 161 158 157 160 161 160 159 157 162 159 169 171 170 170 170 170 168 168 166 162 155 154 -193 159 -209 -209 -193 170 173 176 181 -193 183 183 185 184 0 0 0 0 0
    0 0 0 0 0 0 0 0 0 0 0 0 0 0 0 0 0 0 0 0 0 0 0 0 0 0 0 0 0 0 0 0 0 0 0 0 0 0 0 0 0 0 0 0 0 0 0 0 0 0 0 0 0 0 0 0 0 0 0 0 0 0 0 0 0 0 0 0 0 200 200 200 200 201 201 202 201 201 201 202 203 204 202 201 202 205 206 208 208 -193 -193 -193 211 -193 -209 -209 -209 -193 -209 -193 199 197 193 197 196 -209 -209 -193 -209 -209 -209 -209 -177 -177 -177 -209 -209 -209 -209 -209 -209 -193 -193 -209 -209 -193 -209 -209 -209 198 -193 -209 -209 -209 -209 -209 -209 -209 -209 -209 -209 -209 -209 -209 -209 -193 -193 0 -209 -209 -209 405 -209 -193 -225 -225 -209 -209 -209 -209 -209 -209 179 -209 -209 -209 -209 -209 -193 -209 363 366 -209 -193 0 -177 -193 -193 -193 -193 -209 100 103 106 -209 43 -193 -193 -193 -209 -209 -193 679 685 -209 -209 149 153 153 -193 -193 70 71 74 76 77 -193 -193 -177 -177 157 158 159 162 160 162 161 162 162 167 -209 -193 -209 -209 -209 -209 -209 -209 -193 164 -193 160 158 158 156 156 155 154 -209 155 157 159 153 154 156 156 157 156 155 154 154 -193 -193 -209 -209 -209 -209 -209 -209 -193 152 151 152 153 155 156 157 160 164 166 168 -193 165 159 158 159 159 163 158 161 158 158 160 161 160 158 156 159 155 167 170 169 169 169 169 168 167 166 159 154 152 -193 159 166 -193 168 170 174 178 181 -193 185 185 188 188 0 0 0 0 0
    0 0 0 0 0 0 0 0 0 0 0 0 0 0 0 0 0 0 0 0 0 0 0 0 0 0 0 0 0 0 0 0 0 0 0 0 0 0 0 0 0 0 0 0 0 0 0 0 0 0 0 0 0 0 0 0 0 0 0 0 0 0 0 0 0 0 0 0 0 201 201 201 200 201 201 203 202 202 202 203 203 205 204 202 203 204 205 206 206 -193 -193 -193 209 210 -193 -209 -209 -209 -193 202 200 199 197 199 199 200 200 200 200 -193 -209 -209 -193 -177 -177 -209 -177 -177 -193 -209 -209 -193 -193 -193 -193 -193 -193 -193 -193 198 197 -193 -209 -209 -209 -209 -209 -209 -209 -209 -209 -225 -225 -225 -193 -209 -209 -209 -193 0 -177 -209 -209 -209 -193 -193 -209 -209 -177 -209 190 -193 184 189 194 197 195 197 -209 -193 -193 -209 -209 -193 197 197 198 196 196 196 194 195 -193 -193 -209 -193 -209 45 -209 -193 -193 -193 -225 -225 -225 686 -193 -193 -209 -193 -209 74 75 77 81 82 82 -177 -177 -209 -177 167 168 170 168 170 169 171 186 188 194 -193 -193 195 196 196 195 192 194 194 194 193 -209 -209 -193 -209 -209 -209 107 -209 -209 -209 -209 150 -193 155 -209 -193 150 -209 -209 -209 -209 -209 -209 -209 -209 351 -209 -209 158 158 157 160 165 167 165 -209 -209 -209 -209 240 -209 -193 156 158 157 163 158 161 159 159 159 160 160 158 155 157 153 166 170 169 169 169 168 166 166 162 154 153 151 -193 157 162 166 167 170 175 179 181 185 185 185 188 189 0 0 0 0 0
    0 0 0 0 0 0 0 0 0 0 0 0 0 0 0 0 0 0 0 0 0 0 0 0 0 0 0 0 0 0 0 0 0 0 0 0 0 0 0 0 0 0 0 0 0 0 0 0 0 0 0 0 0 0 0 0 0 0 0 0 0 0 0 0 0 0 0 0 0 201 201 201 201 202 201 203 202 202 202 203 203 205 204 203 203 204 204 205 206 203 203 204 206 207 205 203 202 -209 202 203 201 201 198 200 200 200 200 200 200 201 201 -193 -193 -209 -209 -209 -209 -209 -209 -209 -209 -193 202 -193 199 199 200 201 200 199 198 -193 -193 -193 -209 -209 -209 203 -209 206 -209 -209 -209 -209 252 -209 -209 -209 -177 -177 -177 -209 -209 -209 -209 -209 -209 -209 -193 195 196 193 189 192 196 199 198 199 -193 -193 201 201 200 198 197 197 198 198 198 197 196 197 197 196 197 -209 -209 44 44 -209 -193 -225 -225 -225 -225 -225 -209 -209 -209 -193 -193 -209 -193 -209 -209 -209 -209 -209 -209 -209 -209 -193 183 181 182 179 184 183 193 198 199 198 198 199 199 199 199 197 197 197 198 194 199 -209 -209 -209 -193 -193 -209 -209 -193 192 193 195 194 -193 195 196 -209 -209 -209 -209 -209 -193 -209 286 -209 354 -193 -209 -209 -193 167 167 171 181 -209 -209 -209 -209 -209 -209 -209 -209 156 158 159 165 160 162 160 161 160 161 160 159 154 154 151 156 168 168 169 168 165 165 164 154 151 150 149 151 154 156 161 167 171 176 181 183 187 187 187 190 192 0 0 0 0 0
    0 0 0 0 0 0 0 0 0 0 0 0 0 0 0 0 0 0 0 0 0 0 0 0 0 0 0 0 0 0 0 0 0 0 0 0 0 0 0 0 0 0 0 0 0 0 0 0 0 0 0 0 0 0 0 0 0 0 0 0 0 0 0 0 0 0 0 0 0 201 202 202 201 202 202 203 202 202 203 203 203 204 204 203 203 204 205 205 206 203 203 204 206 207 205 204 202 -193 202 203 201 201 199 201 200 200 200 200 200 201 201 202 201 202 -209 -209 -209 -209 -209 -209 203 203 203 201 200 200 200 201 200 199 -193 -177 -193 -209 -209 -209 -193 203 -209 205 -193 209 -209 -209 -209 198 196 197 -193 -193 -177 -193 -209 -209 -209 -193 -209 -209 197 197 197 195 193 195 197 200 199 200 201 201 201 201 199 197 197 197 197 198 198 197 196 196 197 197 198 -193 -209 -209 48 -209 -209 -209 -209 614 -209 -209 -209 -209 -193 196 198 199 202 201 199 200 198 199 196 192 189 188 188 187 187 186 188 191 197 199 200 199 199 199 200 200 199 198 198 197 199 195 200 202 202 203 204 -193 -193 197 198 196 194 195 194 190 196 197 200 200 199 200 -209 -193 -209 -209 -193 -193 195 196 190 -193 183 184 185 187 191 -209 -209 -209 -209 -209 -209 -209 -209 -209 -193 -209 163 164 163 163 -193 -193 -193 -193 -209 -209 144 -209 168 168 167 167 163 165 163 152 151 151 150 152 157 165 169 171 174 180 184 185 189 189 189 192 194 0 0 0 0 0
    0 0 0 0 0 0 0 0 0 0 0 0 0 0 0 0 0 0 0 0 0 0 0 0 0 0 0 0 0 0 0 0 0 0 0 0 0 0 0 0 0 0 0 0 0 0 0 0 0 0 0 0 0 0 0 0 0 0 0 0 0 0 0 0 0 0 0 0 0 202 202 202 202 202 202 203 202 202 203 203 203 204 204 203 203 204 205 205 206 203 204 205 206 207 205 204 203 201 202 202 200 201 199 200 200 200 201 201 201 203 202 203 202 203 203 -193 -209 -209 -209 -193 202 203 202 202 200 200 201 202 201 200 -193 -193 -193 -193 -193 -193 202 202 202 203 206 203 199 200 200 198 197 198 197 -193 -177 -193 -193 -193 -193 -209 -193 198 197 196 197 195 194 195 196 199 198 199 200 200 200 200 199 197 197 197 197 198 198 197 196 196 198 198 198 198 -209 -209 -209 -209 -209 -209 -209 -177 -193 -209 -209 -193 196 197 199 199 202 201 200 199 197 198 196 193 191 190 189 188 189 188 190 194 196 198 199 198 199 199 200 200 199 198 198 197 198 196 199 200 202 206 208 -209 199 198 199 198 196 196 195 191 196 197 199 199 198 199 200 201 201 200 198 198 196 198 197 194 192 193 193 195 198 201 -209 -193 197 -209 -193 -209 -209 -209 149 -209 -209 -209 -209 -209 -209 -209 95 103 -209 -193 -209 -209 -209 -193 168 156 160 164 157 153 153 153 -193 154 165 169 173 179 181 183 187 187 192 191 191 194 195 0 0 0 0 0
    0 0 0 0 0 0 0 0 0 0 0 0 0 0 0 0 0 0 0 0 0 0 0 0 0 0 0 0 0 0 0 0 0 0 0 0 0 0 0 0 0 0 0 0 0 0 0 0 0 0 0 0 0 0 0 0 0 0 0 0 0 0 0 0 0 0 0 0 0 202 202 203 202 202 202 203 202 202 203 203 203 203 204 203 203 204 204 204 205 203 204 205 205 -193 -193 -209 203 -193 202 202 200 201 200 200 200 201 201 202 202 203 203 204 203 203 204 202 -193 -209 200 201 202 202 202 202 200 200 201 202 201 201 200 -193 -193 -193 -193 -193 202 202 202 202 203 202 199 200 200 198 197 199 198 198 -193 -193 198 -193 198 -209 197 197 197 196 197 195 194 195 195 198 197 199 200 200 200 200 200 198 198 198 198 198 199 198 197 195 198 198 198 198 -193 -209 -209 -209 -209 -209 -193 -177 -209 -209 -193 -193 196 196 198 198 201 201 198 197 195 197 195 193 191 190 189 188 191 190 192 195 196 198 199 198 198 198 200 200 199 198 197 197 197 197 198 199 200 202 205 201 200 199 200 199 197 196 195 192 196 197 198 199 198 200 200 201 -193 199 198 198 197 198 198 197 196 196 197 197 -193 200 -193 -193 197 -193 197 198 197 -193 -193 191 195 197 198 198 196 -193 -193 -209 -193 91 97 -209 -209 -209 -209 -209 -209 -209 150 152 154 155 -193 -193 168 174 182 185 186 186 191 191 194 193 193 194 195 0 0 0 0 0
    0 0 0 0 0 0 0 0 0 0 0 0 0 0 0 0 0 0 0 0 0 0 0 0 0 0 0 0 0 0 0 0 0 0 0 0 0 0 0 0 0 0 0 0 0 0 0 0 0 0 0 0 0 0 0 0 0 0 0 0 0 0 0 0 0 0 0 0 0 203 203 204 203 203 202 204 203 203 204 203 203 203 204 203 203 204 204 203 204 202 203 204 204 204 203 203 202 -193 202 202 201 202 200 201 200 201 202 202 -193 203 203 204 203 203 204 202 202 202 201 202 202 202 202 202 200 200 201 202 202 201 201 -193 201 203 204 203 202 202 -193 202 202 201 199 200 200 198 197 199 198 199 -193 -193 199 198 198 199 197 197 197 197 197 195 194 196 195 198 197 199 200 200 200 200 200 198 198 198 198 198 198 198 197 194 198 198 198 198 -193 -209 -209 -209 -193 -209 -209 -209 -209 -193 -193 -193 196 196 198 198 200 199 197 197 195 196 195 194 191 191 190 190 194 193 194 196 196 199 199 199 198 198 200 199 199 198 197 197 197 197 198 198 199 200 202 200 199 199 199 198 197 196 195 193 196 197 198 199 198 200 200 201 200 199 198 198 197 198 198 197 197 197 197 198 -193 200 200 197 197 197 197 198 197 195 193 194 197 199 199 199 199 199 197 196 -193 85 88 87 -193 -209 -209 188 -209 -209 -193 -209 -209 -209 -209 -209 171 180 184 190 189 189 194 193 195 195 195 196 195 0 0 0 0 0
    0 0 0 0 0 0 0 0 0 0 0 0 0 0 0 0 0 0 0 0 0 0 0 0 0 0 0 0 0 0 0 0 0 0 0 0 0 0 0 0 0 0 0 0 0 0 0 0 0 0 0 0 0 0 0 0 0 0 0 0 0 0 0 0 0 0 0 0 0 204 204 204 203 204 203 205 204 203 204 204 203 204 204 203 203 203 203 203 204 202 203 203 203 203 203 202 202 202 202 202 201 202 201 201 201 202 202 203 202 203 203 204 204 204 204 203 202 202 202 202 202 202 202 202 200 200 201 202 202 201 201 201 201 203 203 202 202 202 -193 202 201 201 199 200 200 198 198 199 198 199 199 199 199 198 198 199 197 198 197 197 198 196 196 197 196 199 197 199 200 200 200 201 201 199 199 199 198 198 198 198 197 194 198 198 198 199 200 200 202 -193 -209 -193 -209 -209 201 -193 -193 -193 197 197 198 198 199 199 197 196 194 196 195 194 192 192 190 191 195 194 195 197 197 199 199 199 199 198 200 199 199 198 198 197 197 197 198 198 199 199 201 199 199 199 199 198 196 196 195 194 196 196 197 199 197 200 199 200 199 199 198 198 197 197 198 197 197 197 197 198 -193 200 200 197 197 196 197 198 197 195 193 194 197 199 199 199 199 200 199 197 -193 -193 -193 -209 -193 -177 -209 -193 188 189 187 189 191 192 191 190 187 187 187 194 191 191 195 195 196 195 196 196 195 0 0 0 0 0
    0 0 0 0 0 0 0 0 0 0 0 0 0 0 0 0 0 0 0 0 0 0 0 0 0 0 0 0 0 0 0 0 0 0 0 0 0 0 0 0 0 0 0 0 0 0 0 0 0 0 0 0 0 0 0 0 0 0 0 0 0 0 0 0 0 0 0 0 0 204 204 204 203 204 203 204 204 204 205 204 203 204 204 203 203 203 203 203 204 202 203 203 203 203 203 202 202 202 202 202 201 202 201 201 201 201 202 202 202 203 203 204 204 204 205 203 203 202 202 202 202 201 201 202 200 200 201 202 201 202 201 201 200 202 203 202 202 202 200 202 201 201 200 200 200 198 198 199 198 199 199 199 199 198 198 199 198 198 198 198 198 196 196 197 196 198 197 199 200 200 201 201 202 199 199 199 198 198 198 198 197 193 198 198 197 198 200 200 202 202 201 -193 201 200 201 -193 -193 -193 198 198 199 198 199 199 197 196 195 196 195 195 193 193 191 192 196 195 195 197 197 199 199 199 199 198 199 199 199 198 197 196 197 197 198 197 199 198 200 199 198 199 198 198 196 196 195 194 196 196 197 199 197 199 199 199 199 198 198 198 196 197 197 197 197 196 197 198 198 200 200 197 197 196 197 197 197 196 193 195 197 199 199 199 199 199 198 197 197 197 195 194 -193 -193 189 191 191 191 188 190 192 193 194 196 194 193 193 197 195 195 196 195 195 195 195 195 193 0 0 0 0 0
    0 0 0 0 0 0 0 0 0 0 0 0 0 0 0 0 0 0 0 0 0 0 0 0 0 0 0 0 0 0 0 0 0 0 0 0 0 0 0 0 0 0 0 0 0 0 0 0 0 0 0 0 0 0 0 0 0 0 0 0 0 0 0 0 0 0 0 0 0 204 204 204 203 203 203 203 203 203 204 203 203 203 204 203 203 203 203 203 204 203 204 203 204 203 203 203 202 202 202 202 201 201 201 201 201 201 201 202 201 203 204 205 205 205 205 204 204 203 202 202 202 201 201 203 200 200 201 201 201 202 201 201 200 202 202 201 201 201 200 201 200 200 200 200 200 198 198 199 198 199 199 199 199 198 199 199 198 199 198 198 198 196 197 197 196 198 197 199 200 200 201 201 202 199 199 199 198 198 198 197 197 192 198 198 198 199 201 201 203 202 201 200 201 200 201 200 200 198 199 199 199 198 199 200 198 196 195 196 195 196 195 195 193 194 197 196 196 198 197 199 199 198 198 197 199 198 198 197 196 195 196 196 198 196 198 197 199 198 198 198 198 197 196 195 195 194 195 196 197 198 197 199 199 -193 199 198 198 198 196 197 197 197 197 196 197 197 197 200 199 197 196 195 196 197 196 195 193 194 196 198 198 198 198 198 197 197 196 197 195 195 193 192 192 193 193 193 190 192 193 194 195 196 195 195 196 198 197 196 196 196 195 195 195 195 190 0 0 0 0 0
    0 0 0 0 0 0 0 0 0 0 0 0 0 0 0 0 0 0 0 0 0 0 0 0 0 0 0 0 0 0 0 0 0 0 0 0 0 0 0 0 0 0 0 0 0 0 0 0 0 0 0 0 0 0 0 0 0 0 0 0 0 0 0 0 0 0 0 0 0 204 204 204 203 203 203 203 203 203 204 203 203 203 204 203 203 203 203 203 204 203 204 203 204 203 204 203 203 202 202 202 201 201 200 200 200 201 201 202 201 203 204 204 205 205 206 204 204 203 202 201 201 201 200 204 201 200 201 202 202 202 201 201 199 201 202 201 201 201 200 201 200 201 200 200 200 198 198 199 199 199 199 199 199 198 199 199 199 199 199 198 199 197 198 197 196 197 196 198 199 200 201 200 203 199 199 199 198 198 198 197 197 191 198 199 198 199 201 202 204 201 201 200 200 200 200 199 199 198 199 200 200 199 200 200 198 196 196 196 196 197 196 196 194 196 198 197 197 198 197 199 199 198 198 197 198 198 197 197 195 194 195 195 197 195 197 196 198 197 197 198 197 197 196 195 195 194 195 195 196 198 196 199 199 199 199 198 198 198 196 196 196 197 197 196 197 197 196 199 199 197 196 196 196 196 195 195 192 194 195 198 197 198 197 198 197 196 196 197 195 195 194 194 194 195 195 194 192 194 195 196 196 197 196 195 197 199 197 197 197 196 195 195 195 194 189 0 0 0 0 0
    0 0 0 0 0 0 0 0 0 0 0 0 0 0 0 0 0 0 0 0 0 0 0 0 0 0 0 0 0 0 0 0 0 0 0 0 0 0 0 0 0 0 0 0 0 0 0 0 0 0 0 0 0 0 0 0 0 0 0 0 0 0 0 0 0 0 0 0 0 204 204 204 203 203 203 203 203 203 204 203 203 203 204 203 204 204 203 203 204 203 204 203 205 203 204 203 203 203 203 202 201 200 200 200 200 200 200 201 200 202 204 204 204 204 205 203 204 203 202 201 201 201 201 204 201 201 202 202 202 202 201 202 200 202 202 201 202 202 200 201 200 201 200 200 200 199 199 200 199 199 199 199 199 197 198 199 198 198 198 198 198 196 197 196 195 195 195 197 198 199 200 200 203 199 199 200 198 198 198 198 198 192 199 199 198 200 202 202 204 201 200 199 199 199 199 199 199 198 200 200 200 201 201 201 199 196 196 196 196 197 196 196 195 197 198 197 197 198 197 198 198 198 197 197 198 197 197 197 195 194 195 195 196 194 197 196 198 197 197 198 197 197 196 195 195 194 194 195 195 197 196 198 198 198 198 -193 -193 -193 196 196 196 197 197 196 197 197 196 199 198 197 196 196 196 196 195 195 193 194 195 197 197 197 196 197 197 196 196 196 195 195 194 195 194 195 195 195 193 195 196 197 197 198 198 198 198 199 198 197 197 196 195 195 195 194 189 0 0 0 0 0
    0 0 0 0 0 0 0 0 0 0 0 0 0 0 0 0 0 0 0 0 0 0 0 0 0 0 0 0 0 0 0 0 0 0 0 0 0 0 0 0 0 0 0 0 0 0 0 0 0 0 0 0 0 0 0 0 0 0 0 0 0 0 0 0 0 0 0 0 0 204 204 204 203 203 203 202 203 203 203 203 203 203 204 202 204 204 203 203 203 203 204 203 205 203 204 204 204 203 203 202 201 201 200 200 200 200 200 201 200 202 204 204 204 204 204 202 204 203 202 201 201 201 201 204 201 201 202 202 202 202 202 202 200 202 202 201 202 202 200 200 200 200 200 200 200 199 199 200 199 200 199 199 199 197 198 199 198 198 198 198 197 196 197 195 194 194 194 197 198 200 200 200 204 200 200 200 199 199 199 198 199 194 200 200 199 201 203 203 204 200 200 199 199 199 199 199 200 199 200 200 200 200 201 200 198 196 195 196 196 196 195 195 195 197 198 197 197 198 197 198 198 198 197 197 198 197 197 196 195 194 194 195 196 194 196 195 197 197 196 198 197 197 196 195 195 195 195 196 195 197 196 198 198 198 198 -193 -193 -193 197 196 197 197 197 196 197 197 195 199 198 197 196 196 196 196 195 195 193 194 194 197 196 197 196 197 197 197 196 196 195 195 194 195 195 195 195 195 194 196 196 197 197 198 198 198 199 200 198 196 196 196 194 194 194 194 189 0 0 0 0 0
    0 0 0 0 0 0 0 0 0 0 0 0 0 0 0 0 0 0 0 0 0 0 0 0 0 0 0 0 0 0 0 0 0 0 0 0 0 0 0 0 0 0 0 0 0 0 0 0 0 0 0 0 0 0 0 0 0 0 0 0 0 0 0 0 0 0 0 0 0 204 204 203 202 202 203 202 203 203 203 202 202 202 203 202 204 203 202 203 203 203 204 203 205 203 204 204 204 203 203 202 201 201 201 200 200 200 200 200 200 202 204 205 204 205 204 203 204 203 202 201 201 201 202 204 202 201 202 202 202 202 202 202 200 202 202 201 201 202 200 200 199 200 199 200 200 198 199 199 199 199 199 199 199 197 198 198 198 198 197 198 197 196 197 194 195 193 196 197 199 200 200 200 203 200 200 200 199 198 198 198 199 195 200 200 200 202 203 203 203 200 199 198 198 198 198 198 199 198 199 199 198 199 199 198 197 195 194 195 195 196 195 195 195 196 198 197 197 197 197 198 198 198 197 197 197 197 197 196 195 194 194 194 195 193 196 194 196 197 195 198 196 197 196 195 195 196 195 196 196 197 196 197 197 197 198 -193 -193 -193 196 196 196 197 197 196 197 197 195 199 198 197 196 196 196 196 195 195 193 194 194 197 196 197 196 197 197 196 196 196 195 195 194 196 195 196 195 195 194 196 196 197 196 197 197 198 199 200 197 196 195 196 194 194 194 194 189 0 0 0 0 0
    0 0 0 0 0 0 0 0 0 0 0 0 0 0 0 0 0 0 0 0 0 0 0 0 0 0 0 0 0 0 0 0 0 0 0 0 0 0 0 0 0 0 0 0 0 0 0 0 0 0 0 0 0 0 0 0 0 0 0 0 0 0 0 0 0 0 0 0 0 204 203 203 202 202 203 202 203 202 202 202 202 202 203 202 203 203 202 203 204 0 -256 -1 32030 204 204 204 204 204 203 203 202 201 201 200 200 200 200 200 199 202 205 206 205 205 204 203 204 203 203 201 201 202 202 205 202 201 203 202 202 202 202 202 199 201 200 199 200 200 199 199 198 199 198 200 -193 198 199 199 199 199 199 199 199 197 199 199 198 198 198 198 198 196 197 193 196 194 197 198 198 199 199 200 202 200 200 199 198 198 198 198 199 196 200 200 200 201 202 201 201 198 198 196 196 196 197 197 199 198 198 199 198 199 199 198 197 195 194 196 195 197 195 195 195 196 197 197 196 197 197 198 198 197 197 197 197 197 196 196 195 193 194 194 194 193 195 193 195 196 194 197 195 197 196 195 195 196 195 197 196 197 196 197 197 197 198 197 197 197 196 196 196 197 197 195 197 196 194 198 197 197 195 196 196 195 195 195 192 193 194 197 196 196 196 197 196 196 196 196 194 195 194 195 195 195 195 194 193 195 195 197 196 197 197 198 199 200 198 196 196 196 195 194 194 194 189 0 0 0 0 0
    0 0 0 0 0 0 0 0 0 0 0 0 0 0 0 0 0 0 0 0 0 0 0 0 0 0 0 0 0 0 0 0 0 0 0 0 0 0 0 0 0 0 0 0 0 0 0 0 0 0 0 0 0 0 0 0 0 0 0 0 0 0 0 0 0 0 0 0 0 204 203 202 202 202 202 201 202 202 202 201 202 202 203 201 203 203 202 204 204 204 205 204 206 204 205 205 204 204 203 202 201 201 200 200 200 199 199 200 200 202 205 205 203 204 203 203 204 203 202 202 202 202 203 205 202 202 203 203 202 202 202 201 199 200 199 198 199 200 199 199 198 199 198 200 200 198 199 -193 199 199 199 199 199 197 200 199 199 199 199 199 198 197 198 194 197 194 197 198 198 200 200 200 202 200 200 199 199 198 198 198 199 197 200 199 199 201 201 199 200 197 197 195 195 195 196 197 199 198 198 199 198 199 199 199 198 196 195 196 196 196 195 194 195 195 196 196 195 196 196 198 198 197 197 197 197 196 196 196 195 193 194 194 194 193 195 193 194 195 194 196 195 196 195 195 195 196 195 197 197 197 196 197 197 197 198 196 196 196 196 195 195 197 196 195 196 196 194 198 197 197 195 196 196 195 195 195 192 192 193 196 195 195 195 196 196 196 196 196 194 195 193 195 195 195 195 193 191 194 194 196 196 197 197 198 199 200 198 196 196 196 195 194 194 194 189 0 0 0 0 0
    0 0 0 0 0 0 0 0 0 0 0 0 0 0 0 0 0 0 0 0 0 0 0 0 0 0 0 0 0 0 0 0 0 0 0 0 0 0 0 0 0 0 0 0 0 0 0 0 0 0 0 0 0 0 0 0 0 0 0 0 0 0 0 0 0 0 0 0 0 204 203 202 202 202 202 201 202 201 201 201 202 202 203 202 204 203 203 204 204 204 205 204 207 205 206 206 205 204 203 202 201 201 200 200 199 199 199 200 200 202 204 204 202 204 203 204 204 203 202 202 203 204 204 206 202 202 203 203 202 202 202 201 199 200 199 198 199 199 199 199 198 199 198 200 200 198 199 199 199 199 199 199 198 197 200 199 199 199 199 199 198 197 198 193 196 194 197 197 198 200 200 200 201 200 200 200 199 198 198 198 199 197 200 199 199 201 201 199 200 197 197 196 196 195 196 197 198 198 198 198 198 199 199 199 198 196 195 196 196 196 195 194 195 195 196 195 195 196 196 198 198 196 196 197 197 196 196 196 194 192 193 194 192 192 194 192 194 195 193 196 195 197 196 196 196 196 195 197 197 197 196 197 197 197 198 197 196 196 196 195 195 197 196 194 196 195 194 198 197 197 195 196 196 195 194 194 192 191 193 195 194 194 194 196 196 196 196 196 194 196 194 195 195 194 194 192 191 193 193 195 195 196 197 198 200 201 199 196 196 196 195 195 194 194 189 0 0 0 0 0
    0 0 0 0 0 0 0 0 0 0 0 0 0 0 0 0 0 0 0 0 0 0 0 0 0 0 0 0 0 0 0 0 0 0 0 0 0 0 0 0 0 0 0 0 0 0 0 0 0 0 0 0 0 0 0 0 0 0 0 0 0 0 0 0 0 0 0 0 0 205 204 203 202 202 202 201 202 201 200 200 202 202 204 202 204 204 203 205 204 204 205 204 207 206 206 207 206 205 204 203 202 201 201 200 200 199 200 199 200 201 202 203 202 204 204 205 205 204 203 203 203 204 205 205 203 203 203 203 203 202 202 201 199 200 199 198 199 199 199 198 197 198 198 199 200 198 199 199 199 200 199 199 198 197 200 199 199 199 198 198 198 197 197 194 196 195 197 197 198 199 199 199 200 199 200 200 199 199 198 198 199 197 200 200 200 201 201 200 200 198 198 197 197 195 196 196 198 197 197 198 197 198 199 198 198 196 195 196 196 196 195 193 195 195 195 195 195 195 195 197 198 196 196 197 197 196 196 195 195 192 194 194 192 192 193 193 194 195 194 196 196 197 196 196 196 196 196 198 197 197 197 197 197 197 197 196 196 196 196 195 195 197 195 194 196 195 194 198 197 197 195 196 196 195 194 194 192 191 192 195 193 194 194 196 196 196 196 196 194 195 194 195 194 194 194 191 191 193 193 194 194 196 197 198 200 201 199 196 196 196 196 195 195 195 189 0 0 0 0 0
    0 0 0 0 0 0 0 0 0 0 0 0 0 0 0 0 0 0 0 0 0 0 0 0 0 0 0 0 0 0 0 0 0 0 0 0 0 0 0 0 0 0 0 0 0 0 0 0 0 0 0 0 0 0 0 0 0 0 0 0 0 0 0 0 0 0 0 0 0 206 204 203 203 202 202 201 202 201 199 200 201 202 203 202 203 203 203 205 203 204 204 204 206 206 206 207 206 206 204 204 203 203 202 201 200 199 200 200 200 201 201 203 201 203 204 204 204 204 203 203 203 204 206 205 203 203 203 203 203 202 202 201 200 200 200 199 199 199 199 199 198 199 198 200 200 199 199 200 200 200 200 199 198 197 199 198 198 198 197 197 197 197 197 195 196 196 197 198 198 199 199 199 200 199 200 200 199 199 198 198 199 198 200 200 199 201 201 199 200 198 198 198 198 196 196 197 197 197 196 197 196 196 198 197 197 196 194 196 195 195 194 192 195 194 195 194 194 195 195 197 198 196 196 198 197 196 196 196 195 192 194 194 192 193 193 193 195 195 194 197 196 197 196 197 196 196 196 198 198 197 197 197 197 197 197 196 196 196 196 195 195 196 195 194 196 195 195 198 197 197 196 196 196 195 194 194 192 191 192 194 193 193 193 196 196 196 196 196 193 194 192 194 194 193 193 192 191 193 193 195 195 196 197 198 200 201 199 197 197 196 196 196 195 195 190 0 0 0 0 0</data></disparity>
</opencv_storage>
