<?xml version="1.0"?>
<opencv_storage>
<gps_time_stamp>22242</gps_time_stamp>
<gps_x>-2.9416604042053223e+000</gps_x>
<gps_y>3.1063047051429749e-001</gps_y>
<gps_z>-2.0604005455970764e-001</gps_z>
<image_time_stamp>10164</image_time_stamp>
<disparity type_id="opencv-matrix">
  <rows>80</rows>
  <cols>320</cols>
  <dt>s</dt>
  <data>
    0 0 0 0 0 0 0 0 0 0 0 0 0 0 0 0 0 0 0 0 0 0 0 0 0 0 0 0 0 0 0 0 0 0 0 0 0 0 0 0 0 0 0 0 0 0 0 0 0 0 0 0 0 0 0 0 0 0 0 0 0 0 0 0 0 0 0 0 0 205 204 205 204 206 205 205 207 207 210 210 212 211 208 211 208 205 205 205 205 205 205 205 204 205 207 207 209 207 206 202 204 202 203 203 203 204 205 205 208 207 208 206 207 208 207 206 207 205 206 204 207 207 206 205 205 206 205 205 204 204 204 204 205 204 204 208 204 204 204 204 204 204 205 205 204 206 206 207 209 208 207 207 207 206 208 209 207 205 205 207 207 204 206 204 203 204 204 203 203 203 203 202 202 205 204 205 204 205 206 206 205 205 204 -193 202 203 204 201 202 202 202 202 202 202 203 203 205 204 205 205 205 205 205 204 204 203 203 202 201 200 200 201 203 202 200 201 201 202 -193 -193 -209 -193 -209 -209 203 205 206 207 207 207 206 205 206 207 206 205 206 204 203 203 203 202 202 202 202 201 201 -209 -193 -193 205 207 -193 -193 -193 212 211 -193 -193 210 -209 206 206 -193 -193 -209 -209 -193 202 203 204 206 206 206 208 208 210 209 208 207 209 208 209 206 210 208 209 208 208 204 202 201 201 196 186 184 184 181 180 181 179 -193 -209 -209 -209 -193 -209 193 199 192 189 192 196 197 196 0 0 0 0 0
    0 0 0 0 0 0 0 0 0 0 0 0 0 0 0 0 0 0 0 0 0 0 0 0 0 0 0 0 0 0 0 0 0 0 0 0 0 0 0 0 0 0 0 0 0 0 0 0 0 0 0 0 0 0 0 0 0 0 0 0 0 0 0 0 0 0 0 0 0 205 204 205 204 206 204 204 206 206 207 207 209 207 206 210 206 205 205 204 205 205 206 205 204 205 207 206 208 207 205 202 203 202 204 203 204 204 205 205 208 207 208 206 206 207 207 206 207 205 206 204 206 206 205 205 204 205 204 204 204 204 204 205 205 205 204 209 205 205 206 205 205 205 206 206 205 208 208 208 209 209 209 208 207 207 208 208 207 206 205 205 206 204 206 204 203 203 203 203 203 202 203 202 203 205 205 207 206 206 207 207 207 207 205 205 204 205 205 202 203 202 202 203 203 203 204 203 205 204 206 205 206 206 206 204 204 204 204 203 202 201 201 203 204 203 201 202 201 203 201 201 -209 -209 203 205 204 206 207 208 207 207 207 206 206 207 206 205 207 205 204 204 203 203 202 203 203 201 202 202 201 203 204 204 208 -193 209 210 210 210 210 208 209 206 206 206 204 204 203 204 204 204 205 206 206 206 209 208 210 209 208 207 208 208 209 206 209 207 208 207 207 205 203 202 202 201 196 195 192 188 -193 -209 -209 -177 -209 -193 202 202 202 198 200 198 194 196 197 199 198 0 0 0 0 0
    0 0 0 0 0 0 0 0 0 0 0 0 0 0 0 0 0 0 0 0 0 0 0 0 0 0 0 0 0 0 0 0 0 0 0 0 0 0 0 0 0 0 0 0 0 0 0 0 0 0 0 0 0 0 0 0 0 0 0 0 0 0 0 0 0 0 0 0 0 205 204 205 204 206 204 204 206 206 207 206 208 206 205 208 205 204 204 204 204 204 205 205 204 205 207 207 208 207 206 203 203 202 204 204 203 203 204 205 208 207 208 206 206 208 207 207 208 205 206 204 206 206 205 206 204 205 204 204 204 204 204 205 205 205 205 210 205 205 205 205 205 205 206 206 204 208 208 208 209 209 209 208 207 206 207 207 206 205 204 205 205 203 206 203 202 202 202 202 202 202 202 202 202 204 204 206 206 206 207 206 206 206 205 206 204 204 205 202 203 203 203 203 203 203 204 203 205 204 206 205 205 206 206 204 205 205 205 204 203 202 203 204 205 204 202 202 201 202 201 201 -193 -209 202 205 204 206 207 207 207 207 207 206 206 207 206 205 208 206 204 204 203 203 203 203 204 202 202 202 202 203 202 202 205 205 206 207 207 208 208 207 207 206 205 205 204 205 203 205 205 205 206 206 206 206 208 208 209 208 208 206 207 207 208 206 207 206 206 206 206 205 203 203 202 202 201 200 200 201 202 203 -193 -193 204 205 204 203 203 199 200 199 198 199 200 200 199 0 0 0 0 0
    0 0 0 0 0 0 0 0 0 0 0 0 0 0 0 0 0 0 0 0 0 0 0 0 0 0 0 0 0 0 0 0 0 0 0 0 0 0 0 0 0 0 0 0 0 0 0 0 0 0 0 0 0 0 0 0 0 0 0 0 0 0 0 0 0 0 0 0 0 205 204 205 204 206 205 205 206 206 206 206 207 205 204 207 204 204 204 204 204 204 205 205 204 206 207 208 209 208 207 204 204 203 204 204 204 204 204 205 208 206 208 206 206 207 207 207 208 205 206 204 206 207 206 207 205 206 205 205 205 205 204 205 205 204 204 209 204 204 205 205 204 204 205 206 204 208 208 208 209 210 210 209 208 207 207 207 206 206 204 204 204 202 205 203 202 201 201 202 203 203 203 202 203 204 204 206 205 205 205 204 205 205 204 205 203 203 205 202 204 203 203 204 203 203 204 203 205 204 206 205 205 206 206 204 205 205 205 204 204 202 203 204 205 205 203 203 200 201 200 200 201 201 202 205 204 205 207 207 207 207 207 206 206 207 206 205 207 205 204 204 203 203 203 203 203 202 202 202 202 203 202 202 204 204 205 206 206 207 207 206 207 205 205 205 204 205 204 206 206 206 207 205 206 206 207 208 208 208 208 206 207 206 207 206 206 205 205 205 206 205 204 203 203 202 202 202 203 203 204 205 204 205 206 205 205 204 203 200 200 199 199 200 201 201 200 0 0 0 0 0
    0 0 0 0 0 0 0 0 0 0 0 0 0 0 0 0 0 0 0 0 0 0 0 0 0 0 0 0 0 0 0 0 0 0 0 0 0 0 0 0 0 0 0 0 0 0 0 0 0 0 0 0 0 0 0 0 0 0 0 0 0 0 0 0 0 0 0 0 0 205 204 204 204 206 205 205 206 207 206 206 207 205 204 207 204 204 204 204 204 204 206 205 204 206 208 208 209 209 207 204 205 204 205 205 204 204 204 205 207 206 207 206 206 208 207 207 208 205 207 205 206 207 205 207 -193 205 204 203 204 204 203 205 203 204 203 208 204 204 205 204 204 204 205 206 204 207 208 207 208 209 209 209 207 206 207 207 205 205 203 204 203 202 204 202 201 201 201 202 203 203 203 203 203 204 204 206 205 205 205 204 205 204 204 204 203 203 204 202 204 203 203 204 203 203 205 203 205 204 206 205 206 206 206 204 205 205 205 204 204 203 205 205 206 207 205 204 201 201 200 200 201 201 202 203 203 204 206 207 206 206 207 206 206 207 206 204 206 205 203 204 203 203 203 203 203 202 202 203 202 204 202 202 204 205 206 206 206 207 206 206 206 205 204 205 204 206 205 207 206 206 208 207 207 207 207 208 209 208 208 206 207 206 207 205 206 205 205 204 206 205 204 204 203 203 202 203 203 204 204 204 204 205 206 206 205 204 202 200 199 199 199 199 200 201 200 0 0 0 0 0
    0 0 0 0 0 0 0 0 0 0 0 0 0 0 0 0 0 0 0 0 0 0 0 0 0 0 0 0 0 0 0 0 0 0 0 0 0 0 0 0 0 0 0 0 0 0 0 0 0 0 0 0 0 0 0 0 0 0 0 0 0 0 0 0 0 0 0 0 0 204 204 205 205 207 206 206 206 207 206 206 206 205 204 206 204 204 204 204 204 204 206 205 204 207 208 208 209 209 207 205 206 204 205 205 204 204 204 204 206 205 207 205 206 207 206 207 208 205 207 205 206 206 204 -193 -193 -193 202 202 202 202 201 203 202 202 202 207 204 204 204 204 204 204 205 205 203 207 207 207 207 207 208 207 207 206 207 207 206 205 203 203 203 202 203 201 200 200 200 202 203 203 204 203 204 205 205 207 206 205 205 204 205 204 204 204 203 202 204 203 204 204 204 204 204 204 205 203 205 204 205 205 206 206 205 204 205 205 205 205 205 204 206 206 206 208 206 205 202 201 200 201 201 201 202 202 203 203 205 206 205 205 206 205 206 206 206 204 205 205 203 204 203 203 203 203 204 203 203 204 202 204 203 202 205 206 207 207 206 207 206 206 206 205 204 205 204 207 205 208 207 208 209 208 207 207 207 209 209 208 208 206 207 206 206 205 205 204 204 204 206 205 205 204 203 203 202 203 204 204 204 204 205 206 207 206 205 204 203 200 200 199 199 199 200 201 200 0 0 0 0 0
    0 0 0 0 0 0 0 0 0 0 0 0 0 0 0 0 0 0 0 0 0 0 0 0 0 0 0 0 0 0 0 0 0 0 0 0 0 0 0 0 0 0 0 0 0 0 0 0 0 0 0 0 0 0 0 0 0 0 0 0 0 0 0 0 0 0 0 0 0 204 205 205 206 207 207 206 207 207 206 205 206 204 204 206 204 203 204 204 204 204 206 205 205 207 208 208 209 209 208 205 206 205 205 205 204 204 204 204 206 204 206 205 205 206 206 207 207 205 207 205 206 206 204 -193 -193 204 202 201 201 201 200 202 201 201 201 206 204 204 204 204 204 204 205 205 203 206 206 207 207 206 207 206 206 205 207 207 206 205 203 202 202 201 202 200 200 200 200 201 203 203 204 204 205 206 205 207 206 206 206 205 205 204 204 204 203 203 205 204 205 205 205 205 205 204 206 203 205 203 205 204 205 205 204 204 204 205 205 205 205 204 206 207 207 208 207 206 203 202 202 202 202 202 202 203 203 203 204 205 204 204 205 205 205 205 205 203 205 205 203 204 203 203 203 204 204 203 203 205 203 205 204 204 206 207 207 207 206 207 206 206 206 205 204 205 205 207 206 208 207 208 209 208 207 207 207 208 208 208 208 205 206 205 205 205 204 204 203 203 205 205 205 204 203 203 202 203 204 204 204 204 205 206 207 206 205 205 203 201 200 200 199 200 201 202 201 0 0 0 0 0
    0 0 0 0 0 0 0 0 0 0 0 0 0 0 0 0 0 0 0 0 0 0 0 0 0 0 0 0 0 0 0 0 0 0 0 0 0 0 0 0 0 0 0 0 0 0 0 0 0 0 0 0 0 0 0 0 0 0 0 0 0 0 0 0 0 0 0 0 0 204 205 205 207 206 207 206 206 207 205 205 205 204 204 205 203 203 204 204 204 204 206 205 205 208 209 209 209 210 208 205 207 205 206 205 204 205 204 204 206 204 205 204 204 205 205 206 207 205 207 205 205 206 205 -193 -193 204 202 201 201 201 201 203 201 201 202 206 204 204 204 205 205 205 206 205 204 207 206 207 206 205 206 205 205 205 206 207 206 205 204 202 202 201 201 200 199 199 198 200 203 202 204 203 204 206 205 207 206 206 206 205 205 204 204 204 203 203 206 205 207 206 206 207 206 205 207 204 205 204 205 204 205 205 204 204 204 204 205 205 205 204 206 207 206 208 207 206 204 203 202 203 202 202 202 203 203 203 204 205 204 204 205 205 205 205 206 204 206 206 204 205 204 204 204 204 205 204 203 205 203 205 204 205 206 207 206 207 206 207 206 206 205 205 204 205 205 207 206 208 206 207 208 207 206 206 205 207 207 207 207 204 205 204 204 204 204 203 203 203 205 205 205 204 203 203 202 203 203 203 204 204 204 205 206 205 205 204 202 200 201 200 199 200 201 202 202 0 0 0 0 0
    0 0 0 0 0 0 0 0 0 0 0 0 0 0 0 0 0 0 0 0 0 0 0 0 0 0 0 0 0 0 0 0 0 0 0 0 0 0 0 0 0 0 0 0 0 0 0 0 0 0 0 0 0 0 0 0 0 0 0 0 0 0 0 0 0 0 0 0 0 204 205 206 208 207 208 207 207 207 205 205 205 203 204 205 203 203 204 204 204 204 206 205 205 208 208 208 208 209 207 205 207 205 206 205 204 204 204 204 205 203 205 204 204 205 205 206 206 205 207 206 206 206 206 -193 -193 204 202 -193 -193 201 200 202 201 201 202 206 204 204 205 205 205 205 206 205 204 206 206 206 206 204 205 203 203 203 204 206 205 204 203 202 201 201 200 200 199 198 198 200 203 202 -193 -193 204 205 205 206 205 205 205 204 204 204 203 204 203 203 207 205 208 207 207 208 207 206 208 204 206 204 205 205 206 205 204 204 204 204 204 204 205 203 205 206 205 207 207 206 204 205 203 203 203 202 202 203 203 203 203 204 203 204 204 205 205 205 206 205 207 207 205 206 205 205 205 205 205 204 203 204 203 205 203 204 205 206 206 206 206 207 206 206 205 205 204 206 205 207 206 207 206 207 207 206 205 205 205 207 207 207 207 204 204 204 204 204 203 203 202 202 204 205 205 205 203 204 203 204 203 204 204 204 204 205 205 205 204 204 202 200 200 199 199 199 200 201 201 0 0 0 0 0
    0 0 0 0 0 0 0 0 0 0 0 0 0 0 0 0 0 0 0 0 0 0 0 0 0 0 0 0 0 0 0 0 0 0 0 0 0 0 0 0 0 0 0 0 0 0 0 0 0 0 0 0 0 0 0 0 0 0 0 0 0 0 0 0 0 0 0 0 0 205 206 207 209 208 210 209 207 208 206 205 205 204 204 204 203 203 204 204 204 205 206 206 206 208 208 208 207 209 207 205 207 205 205 205 204 204 203 204 205 203 204 204 204 205 205 206 206 205 207 206 207 208 209 208 -193 204 202 -193 -193 201 200 202 201 201 203 206 204 204 204 205 205 205 206 205 204 206 204 205 204 202 203 202 201 202 203 205 205 204 202 201 200 200 200 200 199 198 198 200 204 -193 -193 -193 204 205 204 206 204 205 204 204 204 203 202 203 202 203 206 205 207 207 207 208 207 207 208 204 206 204 205 205 206 205 204 204 204 204 204 204 204 203 204 205 205 206 207 206 205 206 204 204 203 203 203 203 203 203 203 204 203 203 203 204 204 204 206 204 207 207 205 206 205 205 205 205 205 203 203 204 202 204 202 202 204 206 206 206 206 207 206 206 205 205 205 206 206 208 207 208 207 207 207 206 205 204 204 206 206 207 207 204 204 204 204 204 203 203 202 202 204 205 206 205 204 205 204 205 204 204 204 203 204 204 204 204 203 203 201 199 199 199 199 200 200 201 202 0 0 0 0 0
    0 0 0 0 0 0 0 0 0 0 0 0 0 0 0 0 0 0 0 0 0 0 0 0 0 0 0 0 0 0 0 0 0 0 0 0 0 0 0 0 0 0 0 0 0 0 0 0 0 0 0 0 0 0 0 0 0 0 0 0 0 0 0 0 0 0 0 0 0 205 206 207 209 208 211 209 207 208 206 205 205 204 204 203 203 203 204 204 205 205 206 206 206 209 209 208 208 209 207 205 207 205 205 205 204 205 204 204 205 203 204 204 204 205 205 205 206 205 207 207 207 -193 -193 207 205 204 -193 -193 201 201 201 202 201 201 203 206 204 204 204 205 205 205 206 205 204 205 204 -193 -193 202 -193 201 201 202 203 205 205 203 202 201 200 201 200 200 199 198 199 -193 -193 -193 -193 204 204 205 204 205 204 204 204 203 203 203 202 203 202 202 207 205 207 207 207 208 207 206 207 204 206 204 205 204 206 205 204 204 204 203 204 203 204 203 204 205 204 206 207 206 206 207 205 205 204 203 203 203 203 203 203 204 202 203 203 204 203 204 205 204 207 206 205 206 205 205 205 205 205 203 203 203 202 203 201 201 203 205 205 206 206 207 206 206 205 205 205 206 207 208 207 208 206 207 207 206 205 204 204 205 206 207 208 204 204 204 204 204 203 203 203 203 205 206 206 206 205 205 205 205 204 205 204 203 204 204 204 203 202 202 200 199 199 199 199 200 201 202 202 0 0 0 0 0
    0 0 0 0 0 0 0 0 0 0 0 0 0 0 0 0 0 0 0 0 0 0 0 0 0 0 0 0 0 0 0 0 0 0 0 0 0 0 0 0 0 0 0 0 0 0 0 0 0 0 0 0 0 0 0 0 0 0 0 0 0 0 0 0 0 0 0 0 0 204 205 206 208 208 211 208 207 208 206 205 205 205 204 204 204 204 204 204 206 206 207 206 206 209 209 208 208 208 207 205 207 206 205 205 204 205 204 204 206 203 204 204 205 205 205 205 206 205 207 207 -193 -193 -193 206 204 203 -193 -193 201 201 201 202 201 201 203 206 204 204 204 205 205 205 206 204 204 205 204 -193 -193 -193 -209 199 200 201 202 205 206 203 202 200 200 200 200 200 200 198 -209 -193 -193 -193 -193 205 205 206 205 206 205 204 204 204 203 203 202 203 202 202 207 205 207 207 207 207 206 206 207 204 206 204 204 204 206 204 203 204 203 203 203 203 204 203 204 205 205 206 207 207 206 208 205 206 204 204 203 204 204 203 203 204 202 203 204 204 203 204 206 205 207 206 205 206 205 205 205 205 205 203 203 203 201 203 201 201 203 204 205 206 206 208 206 206 206 206 206 207 207 208 207 207 206 207 206 205 205 203 203 205 206 208 209 204 205 204 204 204 204 204 204 203 205 206 207 207 206 206 206 205 204 205 204 203 204 203 203 203 203 203 201 201 201 200 201 202 203 204 204 0 0 0 0 0
    0 0 0 0 0 0 0 0 0 0 0 0 0 0 0 0 0 0 0 0 0 0 0 0 0 0 0 0 0 0 0 0 0 0 0 0 0 0 0 0 0 0 0 0 0 0 0 0 0 0 0 0 0 0 0 0 0 0 0 0 0 0 0 0 0 0 0 0 0 203 -193 205 206 206 209 207 207 208 207 206 205 206 205 205 205 205 205 205 207 206 207 206 206 209 208 207 207 208 207 205 207 206 205 205 205 205 204 204 206 203 204 205 205 205 205 205 206 205 207 207 207 207 208 205 204 203 -193 202 201 202 201 203 202 202 204 206 204 204 204 205 204 205 206 204 203 204 204 203 -193 -193 -209 198 199 200 201 203 205 203 202 200 200 200 200 200 200 199 -209 -193 -193 -193 -193 205 205 206 205 206 205 205 205 204 204 203 203 203 203 203 208 206 207 207 207 207 206 206 207 204 205 204 204 204 206 204 203 203 203 203 203 203 204 203 204 206 205 206 206 207 206 208 205 206 204 204 204 204 204 204 203 204 202 203 204 204 203 204 205 205 207 206 205 206 205 206 206 205 205 204 204 204 201 203 201 202 203 204 205 206 207 208 207 207 206 206 206 207 208 208 207 207 205 206 206 205 204 202 202 204 206 209 210 205 205 205 205 205 204 204 204 204 205 206 206 207 207 206 206 205 205 205 204 203 203 202 202 203 203 203 202 201 202 202 202 203 203 204 205 0 0 0 0 0
    0 0 0 0 0 0 0 0 0 0 0 0 0 0 0 0 0 0 0 0 0 0 0 0 0 0 0 0 0 0 0 0 0 0 0 0 0 0 0 0 0 0 0 0 0 0 0 0 0 0 0 0 0 0 0 0 0 0 0 0 0 0 0 0 0 0 0 0 0 203 -193 -193 205 206 208 206 206 207 206 205 205 206 205 205 206 205 206 206 207 206 207 206 206 208 208 207 207 207 207 205 207 206 205 205 205 205 204 204 206 204 205 205 205 205 205 205 206 205 206 206 207 206 207 204 203 203 202 202 202 202 202 204 203 203 204 207 204 204 204 205 204 205 206 204 203 204 204 203 202 201 201 199 200 200 201 203 205 203 203 201 200 201 201 201 202 201 -193 -193 -193 -193 -193 205 205 206 205 206 205 205 205 204 204 204 203 204 203 203 209 206 207 208 206 206 206 206 207 204 205 204 203 203 205 203 202 202 202 202 203 203 203 203 204 205 205 205 205 206 206 208 205 207 205 205 204 205 204 204 203 204 202 203 203 203 202 203 206 206 208 207 206 207 206 207 206 206 205 204 204 204 202 203 201 202 203 204 204 205 206 207 206 207 207 207 207 208 209 209 208 207 205 205 205 204 204 202 202 203 205 209 210 205 205 205 205 205 204 204 204 203 205 205 205 206 207 206 206 205 205 205 204 203 204 202 202 202 203 203 202 202 203 203 204 204 204 204 205 0 0 0 0 0
    0 0 0 0 0 0 0 0 0 0 0 0 0 0 0 0 0 0 0 0 0 0 0 0 0 0 0 0 0 0 0 0 0 0 0 0 0 0 0 0 0 0 0 0 0 0 0 0 0 0 0 0 0 0 0 0 0 0 0 0 0 0 0 0 0 0 0 0 0 -193 -193 -193 -193 205 207 206 206 206 206 205 206 206 206 206 206 206 207 207 208 207 208 206 206 209 209 208 208 208 207 205 207 206 204 205 205 205 205 205 207 205 205 206 205 205 206 206 206 205 206 206 207 206 207 204 203 203 203 203 202 203 203 205 204 203 205 207 204 204 204 205 204 205 206 204 203 204 204 203 203 201 201 199 199 199 200 202 204 204 204 201 201 202 202 203 204 202 204 204 207 -193 -193 205 205 205 205 205 205 205 205 204 204 204 203 204 204 203 210 206 207 208 206 206 206 206 206 204 205 204 203 203 205 203 202 202 202 202 202 202 203 202 203 204 205 205 204 205 206 207 205 208 206 205 205 206 205 204 204 205 202 203 203 203 203 204 208 207 210 207 207 208 206 207 206 206 205 203 204 203 201 203 202 202 203 204 203 204 206 207 206 207 207 207 208 209 210 209 208 207 205 205 205 204 204 202 202 202 205 209 211 205 205 205 205 205 204 204 204 203 204 205 205 205 206 205 205 204 205 205 204 203 204 202 203 203 203 203 203 203 204 204 205 205 205 205 206 0 0 0 0 0
    0 0 0 0 0 0 0 0 0 0 0 0 0 0 0 0 0 0 0 0 0 0 0 0 0 0 0 0 0 0 0 0 0 0 0 0 0 0 0 0 0 0 0 0 0 0 0 0 0 0 0 0 0 0 0 0 0 0 0 0 0 0 0 0 0 0 0 0 0 203 -209 -193 -193 205 205 205 205 206 206 205 206 207 207 207 207 207 208 208 210 208 208 206 206 210 209 208 208 208 207 205 207 207 205 206 205 205 205 206 207 206 206 206 206 206 207 206 207 206 207 206 208 206 -193 204 203 204 203 203 203 204 204 206 204 204 205 207 204 204 204 204 204 205 205 204 202 203 203 203 202 200 200 198 199 199 200 202 204 204 204 202 202 203 203 203 204 203 204 204 206 204 205 205 205 204 204 205 205 204 205 204 204 204 204 204 204 203 209 206 206 207 206 205 205 205 206 204 205 205 203 205 205 205 203 203 203 203 203 203 203 202 202 203 204 204 204 204 205 207 206 209 207 206 206 207 206 206 205 206 204 204 205 205 204 207 211 209 212 208 207 208 206 207 206 205 205 203 204 203 201 203 202 202 203 204 204 205 207 207 207 207 208 208 209 209 211 210 209 208 206 206 205 204 204 202 203 203 205 208 211 206 205 206 205 205 204 204 204 203 204 205 205 205 206 205 205 204 204 205 204 203 204 202 203 202 203 203 203 203 204 205 206 206 206 207 208 0 0 0 0 0
    0 0 0 0 0 0 0 0 0 0 0 0 0 0 0 0 0 0 0 0 0 0 0 0 0 0 0 0 0 0 0 0 0 0 0 0 0 0 0 0 0 0 0 0 0 0 0 0 0 0 0 0 0 0 0 0 0 0 0 0 0 0 0 0 0 0 0 0 0 204 203 204 205 205 205 205 205 207 207 207 208 209 209 210 209 209 209 209 210 209 208 207 206 210 209 209 208 208 208 206 209 209 206 207 206 207 207 207 208 206 207 207 206 207 207 207 207 206 207 206 208 206 206 205 204 204 203 203 203 204 204 205 204 204 205 207 204 203 203 203 203 204 204 203 201 203 203 203 202 200 200 199 199 199 200 202 204 204 204 203 203 203 203 203 205 204 205 204 206 204 205 205 206 204 204 204 205 204 204 204 204 204 204 204 204 203 208 205 205 206 205 205 205 205 206 203 205 205 203 205 205 205 203 203 203 204 203 203 203 203 202 203 204 204 204 204 205 207 206 209 207 207 207 209 207 207 206 208 206 206 207 206 205 210 212 211 212 208 207 207 205 206 206 205 205 202 203 202 202 204 203 202 203 204 204 205 206 206 206 205 208 207 208 209 210 210 209 209 207 206 206 205 205 203 203 203 206 208 211 206 205 206 205 205 205 204 205 203 204 205 205 206 206 206 206 204 205 205 204 204 204 203 203 203 203 203 203 203 204 206 207 207 208 210 209 0 0 0 0 0
    0 0 0 0 0 0 0 0 0 0 0 0 0 0 0 0 0 0 0 0 0 0 0 0 0 0 0 0 0 0 0 0 0 0 0 0 0 0 0 0 0 0 0 0 0 0 0 0 0 0 0 0 0 0 0 0 0 0 0 0 0 0 0 0 0 0 0 0 0 -193 203 204 205 205 205 204 206 207 207 208 209 210 210 211 211 211 211 211 211 210 208 207 207 211 209 210 209 209 210 208 210 210 207 209 207 207 208 207 209 207 207 207 207 207 207 207 207 206 207 205 207 205 205 204 203 204 203 204 203 204 204 205 204 204 204 206 203 203 202 203 202 203 203 202 201 202 202 202 202 200 200 199 200 200 200 201 204 204 204 203 204 203 203 203 205 204 205 204 206 204 205 205 206 205 204 204 205 204 205 204 204 204 204 205 204 203 207 205 205 206 205 205 205 205 206 203 204 205 203 205 205 204 203 203 204 204 204 203 203 203 203 204 204 204 204 204 205 206 206 209 208 208 208 210 208 208 207 210 207 207 208 208 206 212 213 211 212 207 207 207 205 206 206 205 205 203 205 204 203 206 205 204 205 205 205 206 206 206 206 205 210 207 207 208 210 210 209 209 207 206 206 206 205 204 203 203 206 206 211 207 206 207 205 205 205 205 206 204 205 206 205 206 207 206 206 205 205 206 205 205 204 202 203 203 203 203 202 202 205 207 209 209 211 213 212 0 0 0 0 0
    0 0 0 0 0 0 0 0 0 0 0 0 0 0 0 0 0 0 0 0 0 0 0 0 0 0 0 0 0 0 0 0 0 0 0 0 0 0 0 0 0 0 0 0 0 0 0 0 0 0 0 0 0 0 0 0 0 0 0 0 0 0 0 0 0 0 0 0 0 -209 -209 -193 -193 204 204 204 205 206 207 209 209 211 211 212 212 212 212 212 212 210 208 208 207 211 209 211 209 210 211 210 211 211 209 211 208 208 209 208 209 208 208 207 207 207 208 207 207 206 206 204 205 204 204 204 203 204 203 204 203 204 204 205 204 204 203 206 202 203 202 202 201 202 202 202 200 202 202 203 202 201 201 201 201 200 200 201 204 204 204 203 203 203 203 203 205 204 204 204 206 204 205 206 207 205 205 205 206 204 206 205 204 204 204 205 205 204 207 205 205 207 205 205 205 205 206 204 205 205 203 205 205 204 203 203 204 204 204 204 204 204 204 204 205 205 204 204 205 206 205 209 208 208 209 210 209 209 208 211 208 208 208 209 208 214 215 213 212 207 207 207 205 206 206 205 205 203 207 -209 -209 208 -193 205 205 206 205 205 206 206 207 206 212 208 207 208 209 210 208 208 206 206 206 206 205 204 203 202 205 205 210 207 206 206 205 205 205 205 206 204 205 206 205 206 206 206 205 204 205 205 205 204 204 201 201 201 202 202 -193 202 206 209 211 213 214 216 216 0 0 0 0 0
    0 0 0 0 0 0 0 0 0 0 0 0 0 0 0 0 0 0 0 0 0 0 0 0 0 0 0 0 0 0 0 0 0 0 0 0 0 0 0 0 0 0 0 0 0 0 0 0 0 0 0 0 0 0 0 0 0 0 0 0 0 0 0 0 0 0 0 0 0 -193 -193 -193 -193 204 204 204 205 207 207 210 210 212 212 213 213 213 212 212 212 210 209 208 207 209 209 210 209 209 211 211 212 212 210 211 209 209 209 208 209 207 208 207 207 207 207 207 207 206 206 204 205 204 205 204 204 205 204 204 204 205 204 206 204 204 202 205 202 202 201 201 201 201 201 201 198 201 -193 -193 203 201 201 201 202 201 200 200 203 204 204 203 204 203 203 203 205 204 204 203 205 204 205 206 207 205 205 205 206 204 206 206 205 205 205 206 206 204 208 205 205 207 206 205 205 206 206 204 205 206 204 206 205 205 203 203 204 204 204 204 204 204 203 204 205 204 204 204 205 206 205 209 207 208 209 210 208 208 208 211 208 208 208 208 209 215 216 213 213 207 207 206 205 206 205 204 205 204 208 -209 -193 -193 -209 -193 -193 -193 -193 206 207 207 209 209 215 209 207 207 208 210 208 209 206 205 206 206 206 205 203 203 205 204 210 207 205 206 205 205 205 205 206 203 204 205 204 205 206 206 205 203 204 204 204 204 203 201 201 201 203 204 204 205 209 212 214 215 216 220 219 0 0 0 0 0
    0 0 0 0 0 0 0 0 0 0 0 0 0 0 0 0 0 0 0 0 0 0 0 0 0 0 0 0 0 0 0 0 0 0 0 0 0 0 0 0 0 0 0 0 0 0 0 0 0 0 0 0 0 0 0 0 0 0 0 0 0 0 0 0 0 0 0 0 0 207 206 207 208 206 205 205 206 207 207 210 211 212 212 213 213 213 213 213 212 211 209 208 206 208 208 210 207 209 210 212 214 214 -193 212 210 210 210 209 210 208 208 207 206 206 207 -193 -193 -193 205 204 205 204 205 204 204 205 204 204 204 205 204 206 203 203 201 205 202 202 201 201 200 201 201 201 197 201 -193 -193 204 202 202 202 201 200 200 200 203 204 204 204 205 204 204 203 205 204 204 203 205 204 204 205 207 204 204 204 206 204 206 207 205 206 206 208 207 205 208 206 205 207 206 205 205 206 206 204 205 207 204 206 205 205 203 203 203 204 203 203 203 204 203 203 204 204 203 204 205 205 205 208 207 208 209 210 208 208 207 210 208 207 208 206 208 217 217 211 212 206 206 205 204 205 205 204 205 203 208 -209 -193 -193 -209 -193 -193 -209 -209 -193 210 -193 -193 -193 -209 210 206 207 208 210 208 209 207 206 207 207 206 206 204 203 205 203 209 207 205 206 205 205 205 205 205 203 203 204 -209 -193 205 205 -193 203 203 203 203 203 203 200 -209 -209 204 206 207 208 213 214 215 217 219 224 222 0 0 0 0 0
    0 0 0 0 0 0 0 0 0 0 0 0 0 0 0 0 0 0 0 0 0 0 0 0 0 0 0 0 0 0 0 0 0 0 0 0 0 0 0 0 0 0 0 0 0 0 0 0 0 0 0 0 0 0 0 0 0 0 0 0 0 0 0 0 0 0 0 0 0 212 212 211 213 210 207 205 206 207 207 211 212 213 213 213 213 213 213 214 213 213 211 209 -193 -209 -193 212 209 212 212 -209 218 216 -193 213 211 211 211 211 210 209 209 207 207 206 207 0 0 0 -193 203 204 204 204 204 204 204 204 204 -177 -177 204 205 203 202 200 205 202 202 201 201 200 201 201 202 196 201 -193 -209 205 203 202 202 201 200 199 201 204 204 205 205 206 205 205 203 206 204 204 203 -193 203 204 204 206 204 204 204 206 204 207 207 206 207 207 209 208 206 208 206 205 208 206 205 205 207 206 204 207 208 205 207 205 205 204 204 204 204 204 203 203 204 202 203 203 204 203 204 204 204 204 209 207 208 210 209 208 208 208 211 209 209 209 207 211 216 216 211 213 206 206 205 204 205 204 203 205 203 208 -209 -209 -209 -209 -193 -193 -209 -209 -209 -193 -193 -209 -193 -209 -209 -193 206 208 209 208 209 207 206 207 207 206 206 205 203 205 202 208 207 204 205 204 205 204 204 -193 -193 203 -209 -209 -209 -209 -193 -209 -209 -209 -209 203 203 203 -209 -209 -209 203 207 208 209 216 216 217 219 220 227 224 0 0 0 0 0
    0 0 0 0 0 0 0 0 0 0 0 0 0 0 0 0 0 0 0 0 0 0 0 0 0 0 0 0 0 0 0 0 0 0 0 0 0 0 0 0 0 0 0 0 0 0 0 0 0 0 0 0 0 0 0 0 0 0 0 0 0 0 0 0 0 0 0 0 0 213 213 212 213 209 206 203 207 208 208 -225 212 213 214 215 215 215 215 -209 -193 836 -193 -177 -193 -225 -225 -209 212 -225 -225 -209 223 220 -193 215 213 212 212 212 211 210 210 207 208 208 -193 -225 -225 -225 -225 204 -193 204 204 204 204 205 204 204 204 206 204 205 203 202 200 203 200 201 200 200 200 200 199 201 194 201 -209 -209 205 202 -225 200 199 197 198 200 204 204 205 205 206 206 205 203 206 204 204 203 -193 203 203 204 206 203 204 203 205 204 208 -193 207 208 207 208 208 206 207 205 204 208 207 206 206 208 208 206 209 -193 -193 207 205 206 205 205 204 204 204 203 202 204 202 202 202 203 203 204 204 204 205 210 -225 209 211 210 209 209 209 212 212 212 213 214 215 217 217 214 213 207 206 205 203 204 204 -193 204 203 -209 -209 -209 -209 -193 -193 -193 -209 -209 -209 -209 -193 -193 -193 -209 -209 -193 205 208 209 208 208 207 206 206 207 206 206 204 203 204 -193 -193 -193 203 204 204 -193 -193 -193 -193 -209 -209 -209 -209 -209 -209 -209 -209 -193 -193 -209 -209 201 -209 -209 -209 -209 -209 -209 -209 -209 -193 217 218 221 223 229 227 0 0 0 0 0
    0 0 0 0 0 0 0 0 0 0 0 0 0 0 0 0 0 0 0 0 0 0 0 0 0 0 0 0 0 0 0 0 0 0 0 0 0 0 0 0 0 0 0 0 0 0 0 0 0 0 0 0 0 0 0 0 0 0 0 0 0 0 0 0 0 0 0 0 0 212 215 214 -193 -209 -209 -225 -225 -225 -225 -225 212 214 215 215 216 -193 -209 -209 -193 -193 -225 -225 -225 -225 -225 -225 -225 -225 -225 -225 -225 224 222 216 214 213 212 213 -193 209 -193 -225 -225 -225 -225 -225 -225 -225 -225 -225 -225 -225 -225 -225 -225 -193 -209 -193 -193 208 205 206 204 203 -193 200 -209 -209 -209 -209 -209 -209 -209 -209 -193 980 981 985 -225 -225 -225 -225 -225 196 197 200 204 204 204 206 208 207 205 204 206 204 -193 -193 -209 203 203 204 205 202 202 203 205 203 206 -193 205 205 206 207 208 205 205 204 203 209 -193 -193 -209 211 212 -193 -193 -193 -209 209 205 206 205 205 204 204 204 204 203 204 -193 202 202 204 203 204 204 -225 -225 -225 -225 -225 -225 -225 210 209 210 213 214 214 215 -193 -193 219 219 -193 215 207 206 204 203 204 -209 -193 -193 -193 -209 -209 -209 -209 661 660 -193 -193 -209 -209 -209 -209 -209 -209 -209 -209 -209 204 207 208 207 207 206 206 206 207 206 205 204 202 -193 -193 -177 -177 -209 -209 -193 -193 -193 -193 -209 -209 -209 -209 -209 -209 -209 -209 -193 -193 -193 -209 -209 -209 -209 -209 -209 -209 -209 -209 -209 -209 -209 220 221 226 227 230 228 0 0 0 0 0
    0 0 0 0 0 0 0 0 0 0 0 0 0 0 0 0 0 0 0 0 0 0 0 0 0 0 0 0 0 0 0 0 0 0 0 0 0 0 0 0 0 0 0 0 0 0 0 0 0 0 0 0 0 0 0 0 0 0 0 0 0 0 0 0 0 0 0 0 0 -209 -209 -193 -209 467 -193 -225 -225 -225 -225 -225 -193 -209 -209 212 214 -209 -209 -193 -193 -225 -225 -225 -225 -225 -225 -225 -225 -225 -225 -225 -225 -225 -225 -225 -225 -225 -225 -225 -225 -225 -225 -225 -225 -225 -225 -225 -225 -225 -225 -225 -225 -225 -225 -225 -225 -225 -225 -225 -225 -225 -225 -209 -209 -209 -209 -209 -209 643 643 -209 -209 -193 -209 -209 973 976 981 -225 -225 -225 -225 -225 -225 -225 -209 -209 -209 -209 -193 206 209 211 -193 -193 -193 -209 -193 30 34 -209 -209 -209 -209 -225 709 -209 -209 -209 -209 842 -209 -193 -193 206 -193 -225 -209 -225 -225 -225 -225 -225 -225 -225 -225 -225 -225 -225 -209 -209 -193 -225 -209 -209 116 -209 -209 -225 -225 -225 -225 -193 -225 -225 -225 -225 -225 -225 -225 -225 -225 -225 -225 -225 -225 -225 -225 -209 -193 -193 -193 -209 -193 -225 -225 -225 -225 210 208 202 202 -209 -209 128 133 -209 -209 -209 -209 -209 -193 -209 -209 -209 -209 -209 -209 -209 -193 -209 237 -209 985 980 -193 -193 -193 -209 -209 -209 -209 -209 -209 13 -209 -209 -209 -193 422 -209 -209 -209 203 -209 -209 -209 -209 -209 -209 -209 -193 -193 -193 -193 -193 -193 -193 -193 -209 -209 -209 -209 -209 -209 -209 -209 -209 -209 -209 227 225 229 230 230 226 0 0 0 0 0
    0 0 0 0 0 0 0 0 0 0 0 0 0 0 0 0 0 0 0 0 0 0 0 0 0 0 0 0 0 0 0 0 0 0 0 0 0 0 0 0 0 0 0 0 0 0 0 0 0 0 0 0 0 0 0 0 0 0 0 0 0 0 0 0 0 0 0 0 0 -193 -209 -209 -209 -225 -225 -193 15 -209 -193 547 542 -193 426 -209 -193 -209 -193 -193 -209 -225 -225 -225 -225 -225 -225 -225 -225 -225 -225 -225 -225 -225 -225 -225 -225 -225 -225 -225 -225 -225 -225 -225 -225 -225 -225 -225 -225 -225 -225 -225 -225 -225 -225 -225 -225 -225 -225 -225 -225 -225 -225 -209 -209 431 -193 -209 -209 -209 -209 -209 -209 822 -209 -209 -209 -225 -225 -225 -225 -225 -225 -225 -225 -225 -225 -225 -209 841 844 -193 -193 -209 -193 -193 -225 -225 -225 -225 -225 -225 -225 -225 -225 -225 -225 -225 -225 -225 -225 -225 -225 -225 -225 -225 -225 -225 -225 -225 -225 -225 -225 -225 -225 -225 -225 -225 -225 -225 -225 -225 -225 -225 -209 -209 -225 -225 -225 -225 -225 -225 -225 -225 -225 -225 -225 -225 -225 -225 -225 -225 -225 -225 -225 -225 -225 -225 -225 -225 -225 -225 -225 -225 -225 -225 -225 -225 -225 -225 -225 -225 -225 -209 -193 130 -209 -209 -209 -209 -209 -209 -209 -209 -209 -209 -209 -209 -209 -209 -209 -209 -209 -209 -209 -209 -209 -209 -209 -209 -209 -209 -209 -209 -209 -209 -209 -193 -209 -209 -209 -209 -209 -209 -209 -209 -209 -209 -209 -209 -209 -209 -193 -193 -193 -193 -193 -193 -193 -193 -209 -209 -209 -209 -209 -209 -209 -209 -209 -209 -209 -209 227 232 235 233 -209 0 0 0 0 0
    0 0 0 0 0 0 0 0 0 0 0 0 0 0 0 0 0 0 0 0 0 0 0 0 0 0 0 0 0 0 0 0 0 0 0 0 0 0 0 0 0 0 0 0 0 0 0 0 0 0 0 0 0 0 0 0 0 0 0 0 0 0 0 0 0 0 0 0 0 298 296 -193 -209 -209 -177 17 -193 -209 -209 548 545 422 423 -209 -209 -209 288 285 -225 -225 -225 -225 -225 -225 -225 -225 -225 -225 -225 -225 -225 -225 -225 -225 -225 -225 -225 -225 -225 -225 -225 -225 -225 -225 -225 -225 -225 -225 -225 -225 -225 -225 -225 -225 -225 -225 -225 -225 -225 -225 290 286 286 -193 285 285 -193 -193 -193 281 -209 -209 -209 -209 772 -225 777 -225 -225 -225 -225 -225 -225 -225 -225 -225 -225 -225 -225 -209 -193 -209 -209 -209 -209 -225 -225 -225 -225 -225 -225 -225 -225 -225 -225 -225 -225 -225 -225 -225 -225 -225 -193 277 -225 -225 -225 -225 -225 -225 -225 -225 -225 -225 -225 -225 -225 -225 -225 -225 -225 282 287 287 289 288 289 287 289 290 291 -225 -225 -225 -225 -225 -225 -225 -225 -225 -225 -225 -225 -225 -225 -225 -225 271 -209 -193 -193 -193 -225 -225 -225 -225 -225 -225 -225 -225 -225 -209 -209 -209 -209 -209 -209 -193 -209 -193 -193 -209 -209 -209 -209 -209 -209 -209 -209 -209 -209 -209 -209 -209 -193 647 651 -209 -193 -193 283 287 284 284 284 283 283 281 282 -193 277 -193 -193 64 -209 -209 -209 -209 -209 -193 -193 -193 -193 -193 -193 -193 -193 -193 -209 -209 -209 -209 -209 -209 -209 -209 -209 -193 -209 -209 230 236 241 -209 -209 0 0 0 0 0
    0 0 0 0 0 0 0 0 0 0 0 0 0 0 0 0 0 0 0 0 0 0 0 0 0 0 0 0 0 0 0 0 0 0 0 0 0 0 0 0 0 0 0 0 0 0 0 0 0 0 0 0 0 0 0 0 0 0 0 0 0 0 0 0 0 0 0 0 0 296 295 293 -193 -209 0 -193 -209 -209 -209 -209 -209 -193 423 -209 -209 -209 -209 -209 0 -225 -225 -225 0 -193 -225 -225 -225 -225 -225 -225 -225 -225 -225 -225 -225 -225 -225 -225 -225 -225 269 272 281 283 282 283 -225 -225 -225 -225 -225 -225 -225 -225 -225 -225 -225 -225 -225 283 289 286 287 286 286 285 285 283 283 282 282 -209 -209 -209 -177 -177 776 776 -193 -209 -209 -193 -225 730 -225 -225 -225 -225 841 -209 903 -209 -209 -193 277 -177 975 979 979 -209 -225 -225 -225 -225 -225 -225 -225 -225 -193 -193 -193 -193 277 277 276 276 276 276 272 269 -225 -225 -225 -225 -225 274 273 276 279 279 280 281 286 286 288 286 286 285 286 286 287 -193 284 283 288 -225 -225 -225 289 -225 -225 -225 -225 -225 -193 273 273 272 274 271 272 272 270 274 -225 -225 -225 -225 -225 -225 -225 -225 -193 286 -209 -193 -193 -193 -193 -193 -193 -209 -209 -209 -209 -209 -209 -209 -209 -209 -209 -193 -209 -209 514 -209 -193 284 286 283 283 285 283 283 283 282 282 281 282 282 277 279 -209 -209 -209 -209 -209 -209 -209 -209 -193 -193 -193 -193 -193 -193 -193 -209 -209 -209 -209 -209 -209 165 -209 -209 -193 -209 -209 -209 -193 -209 -209 -209 -209 0 0 0 0 0
    0 0 0 0 0 0 0 0 0 0 0 0 0 0 0 0 0 0 0 0 0 0 0 0 0 0 0 0 0 0 0 0 0 0 0 0 0 0 0 0 0 0 0 0 0 0 0 0 0 0 0 0 0 0 0 0 0 0 0 0 0 0 0 0 0 0 0 0 0 293 294 291 287 -209 -209 -209 -209 -209 -209 -209 -193 -209 -209 -209 -209 -209 -209 -209 0 0 -193 -209 -193 -193 -209 -193 -193 -209 -209 -193 -193 -225 -225 -225 -225 -225 -225 -225 284 -193 278 281 281 283 281 282 283 283 -225 -225 -225 -225 -225 -225 -225 -225 -177 282 284 284 289 286 286 286 285 285 284 283 283 282 282 -193 285 -193 -209 -193 -193 286 287 286 -193 -209 -209 -193 -193 -193 -193 841 -193 -209 902 -209 -209 277 277 -209 -209 -209 -193 -209 -193 -177 -177 -177 -177 -177 44 -209 -193 -193 -177 -177 276 277 276 276 276 276 273 270 273 -225 272 274 272 274 274 276 279 279 280 281 285 285 286 285 285 284 285 285 285 282 283 283 287 289 291 289 288 284 283 284 -193 -193 -193 275 274 272 274 270 272 272 -193 275 -193 -225 -225 -225 -225 -225 -225 285 285 285 283 286 -193 -193 -193 -193 -193 -193 -209 -209 -209 -209 -209 -209 -209 -209 -209 -193 -193 -209 -193 -193 -193 283 285 283 283 284 283 283 283 282 281 280 281 282 277 279 -193 -209 -209 -209 -209 -209 -209 -209 -209 -209 -209 -193 -193 -193 -193 -193 62 -209 -209 -209 -193 164 166 -193 -193 -193 -209 -209 -209 -209 -209 -193 278 0 0 0 0 0
    0 0 0 0 0 0 0 0 0 0 0 0 0 0 0 0 0 0 0 0 0 0 0 0 0 0 0 0 0 0 0 0 0 0 0 0 0 0 0 0 0 0 0 0 0 0 0 0 0 0 0 0 0 0 0 0 0 0 0 0 0 0 0 0 0 0 0 0 0 291 292 288 286 -193 283 282 281 283 -209 -209 -193 -193 -193 -193 -209 -209 -209 -209 -193 -193 -209 -177 -193 -193 -193 -193 -193 -193 -193 283 284 284 283 283 282 283 284 283 284 282 281 -193 281 283 282 283 282 283 282 -193 -209 -209 -209 -177 -177 -177 -193 285 286 285 288 287 286 285 285 284 284 282 282 281 282 282 284 -193 284 -193 287 286 288 287 -193 284 284 -193 -193 -193 -193 -209 -193 -209 902 -209 -193 278 278 279 -209 -209 -193 -209 -209 -177 -177 -177 -177 -177 -209 -193 -209 -193 -193 -193 277 277 277 276 276 276 275 272 274 275 274 276 274 275 276 278 -209 280 281 282 284 285 285 284 285 283 285 284 284 282 283 283 287 287 290 288 287 283 283 283 283 282 281 275 274 273 274 272 272 274 273 277 281 283 282 283 284 286 284 284 284 283 282 284 282 282 -193 -193 -209 281 -193 282 281 282 285 283 282 -193 -209 -193 -193 -209 -193 384 388 282 284 283 282 284 283 283 283 281 281 280 281 281 277 278 277 -193 -209 -193 278 278 -193 -209 -209 -193 -209 -209 -193 -209 -209 -209 -209 -209 -209 -209 162 167 169 170 167 168 166 -209 -209 -209 269 279 280 0 0 0 0 0
    0 0 0 0 0 0 0 0 0 0 0 0 0 0 0 0 0 0 0 0 0 0 0 0 0 0 0 0 0 0 0 0 0 0 0 0 0 0 0 0 0 0 0 0 0 0 0 0 0 0 0 0 0 0 0 0 0 0 0 0 0 0 0 0 0 0 0 0 0 289 289 285 285 284 284 283 282 284 282 -193 -193 -193 -193 -193 -193 -209 -209 -193 283 283 284 -193 -193 -193 285 -193 285 283 284 283 284 284 283 283 282 283 284 284 284 283 281 281 282 282 281 282 282 282 281 282 -193 -193 282 -193 -193 -177 -193 285 286 285 288 287 286 285 285 284 283 282 282 281 281 282 283 283 284 284 286 286 288 287 -193 285 284 -193 -193 286 -193 -193 -193 -193 901 -209 -193 278 278 279 280 -193 279 -209 -209 -177 -177 -177 -177 -177 -193 -177 -209 -209 -193 -193 278 278 278 277 277 277 276 273 275 276 275 277 275 276 277 279 -193 281 281 283 285 285 286 284 285 283 285 284 283 281 283 283 286 285 289 286 286 283 283 283 283 282 282 277 276 275 276 274 274 277 277 279 281 283 282 282 282 283 282 282 282 281 281 282 281 281 280 281 281 280 281 281 281 283 285 284 283 282 -209 -193 282 -193 -193 -193 -193 282 283 282 282 283 283 283 283 281 281 280 281 282 278 279 279 279 278 278 278 278 278 -193 278 279 -209 -209 -209 -209 -209 -209 -209 -209 -209 -209 -209 -209 -193 -193 -209 -209 -209 -193 279 281 281 281 282 0 0 0 0 0
    0 0 0 0 0 0 0 0 0 0 0 0 0 0 0 0 0 0 0 0 0 0 0 0 0 0 0 0 0 0 0 0 0 0 0 0 0 0 0 0 0 0 0 0 0 0 0 0 0 0 0 0 0 0 0 0 0 0 0 0 0 0 0 0 0 0 0 0 0 288 288 284 285 284 284 284 283 284 282 282 -193 -193 -193 284 -193 -193 -193 -193 284 285 285 285 286 285 285 285 285 283 283 283 284 284 283 283 283 284 284 285 285 284 282 284 283 283 282 282 282 282 282 282 -193 -193 282 -193 -193 -177 -193 284 285 284 286 286 285 284 284 283 283 282 282 281 281 282 283 283 284 284 285 285 287 286 -193 285 284 286 286 285 284 282 282 -193 -193 -209 279 279 278 279 280 280 280 281 -209 -193 -193 -193 -177 -177 -193 -193 -209 -209 -193 -193 278 278 278 278 277 278 276 275 276 277 277 277 276 278 278 279 281 281 282 283 285 285 285 284 284 283 285 285 284 282 283 283 285 284 288 285 285 283 283 283 283 282 282 279 278 277 277 276 275 278 -193 279 281 281 281 281 281 282 281 281 282 281 281 281 280 280 280 280 280 279 281 281 281 283 285 283 283 282 282 281 282 282 281 -193 -193 282 282 281 281 282 282 283 282 281 281 281 282 282 278 280 279 279 279 279 279 279 278 280 278 279 -209 -193 -193 -193 -209 -209 -193 278 277 274 278 278 -209 278 281 281 282 281 281 282 281 282 282 0 0 0 0 0
    0 0 0 0 0 0 0 0 0 0 0 0 0 0 0 0 0 0 0 0 0 0 0 0 0 0 0 0 0 0 0 0 0 0 0 0 0 0 0 0 0 0 0 0 0 0 0 0 0 0 0 0 0 0 0 0 0 0 0 0 0 0 0 0 0 0 0 0 0 289 289 285 285 286 285 284 284 285 282 283 284 285 284 284 287 -193 -193 284 285 285 285 286 286 285 284 285 285 284 283 284 284 284 284 284 284 284 284 285 285 284 283 284 283 283 282 282 281 282 281 282 -193 282 282 -209 -193 -193 -193 283 283 283 285 286 285 284 284 283 283 282 282 281 281 282 283 283 284 284 285 284 287 286 -193 285 285 286 286 286 284 282 282 281 -193 280 280 279 279 280 281 280 280 281 282 -193 -193 -193 -193 -193 -193 -193 -209 -209 281 280 279 278 278 278 278 278 277 276 277 278 278 278 277 278 279 280 281 281 282 282 284 284 285 284 284 283 285 284 284 282 283 282 284 283 286 285 285 284 283 283 283 282 283 280 279 278 278 277 277 279 280 279 281 281 281 281 281 282 281 281 282 281 281 280 280 280 279 280 279 279 280 280 281 282 284 283 282 282 282 280 281 281 280 -193 -193 281 282 281 281 282 282 282 282 281 281 281 281 282 278 280 279 279 279 279 279 279 279 280 279 280 280 281 281 282 283 282 281 280 279 278 279 279 280 279 280 281 282 281 282 -209 282 283 283 0 0 0 0 0
    0 0 0 0 0 0 0 0 0 0 0 0 0 0 0 0 0 0 0 0 0 0 0 0 0 0 0 0 0 0 0 0 0 0 0 0 0 0 0 0 0 0 0 0 0 0 0 0 0 0 0 0 0 0 0 0 0 0 0 0 0 0 0 0 0 0 0 0 0 289 289 286 286 287 287 286 285 286 283 284 285 284 283 283 -193 284 284 285 286 285 286 287 287 285 285 286 285 284 284 284 284 284 284 284 284 285 285 286 285 285 283 283 283 282 282 281 281 281 281 282 282 282 282 -209 282 -209 -193 283 283 283 285 285 284 284 284 283 283 283 283 282 282 283 284 284 284 284 284 284 287 285 286 285 285 287 286 286 285 283 283 282 281 281 280 280 280 281 281 282 281 282 283 282 283 284 284 -193 283 -193 -193 281 281 280 279 278 278 278 278 279 278 277 278 279 279 279 278 279 280 280 281 281 282 282 284 284 284 284 284 284 285 284 284 281 282 281 282 282 284 283 284 283 283 283 283 283 283 281 280 280 279 279 278 279 281 279 282 281 282 282 282 282 282 282 282 281 281 281 280 280 280 280 279 279 280 280 281 282 283 282 282 282 282 280 281 280 280 -193 -193 281 281 281 281 282 282 283 283 282 281 281 282 282 279 280 280 279 279 279 279 279 279 280 279 280 280 281 281 281 282 282 281 280 280 279 280 280 280 279 281 281 282 281 282 -193 283 283 283 0 0 0 0 0
    0 0 0 0 0 0 0 0 0 0 0 0 0 0 0 0 0 0 0 0 0 0 0 0 0 0 0 0 0 0 0 0 0 0 0 0 0 0 0 0 0 0 0 0 0 0 0 0 0 0 0 0 0 0 0 0 0 0 0 0 0 0 0 0 0 0 0 0 0 288 288 285 287 288 287 286 286 286 284 284 -193 -193 -193 -193 -193 284 284 285 286 285 286 288 287 286 285 286 285 285 285 285 284 285 284 285 284 285 285 286 286 285 284 284 284 283 282 282 281 281 281 281 282 282 282 -193 282 -209 283 283 283 283 285 285 284 284 284 283 284 283 284 283 283 285 286 285 285 285 285 284 286 285 286 285 285 286 286 286 285 284 284 282 282 282 282 282 281 282 282 283 282 282 283 282 283 283 284 283 283 282 282 281 281 280 279 278 278 279 279 279 279 278 279 279 280 280 279 280 281 281 281 281 282 282 284 284 284 284 284 283 284 283 283 281 280 281 281 280 282 281 282 283 283 283 283 283 285 283 282 282 282 282 280 281 282 280 282 282 283 282 283 283 283 283 283 282 282 281 281 280 280 280 279 279 280 280 280 281 282 282 282 282 281 280 281 280 280 280 280 280 281 281 281 281 282 282 282 281 280 280 281 282 279 280 279 279 279 280 279 279 279 280 279 280 279 281 280 281 281 281 281 280 280 280 280 280 281 280 280 281 281 281 281 -209 282 282 283 0 0 0 0 0
    0 0 0 0 0 0 0 0 0 0 0 0 0 0 0 0 0 0 0 0 0 0 0 0 0 0 0 0 0 0 0 0 0 0 0 0 0 0 0 0 0 0 0 0 0 0 0 0 0 0 0 0 0 0 0 0 0 0 0 0 0 0 0 0 0 0 0 0 0 287 287 285 286 287 287 286 286 286 284 284 284 -193 -193 -193 -193 284 284 285 286 286 286 288 287 286 286 286 285 285 285 285 285 286 285 285 285 286 285 287 286 287 285 285 285 285 284 283 282 282 282 282 283 282 282 -193 282 -193 283 283 283 282 284 285 284 283 284 283 283 284 284 283 283 285 286 285 285 285 284 284 286 284 286 285 285 286 286 286 286 284 284 283 283 283 283 283 283 283 283 284 283 282 283 282 283 283 284 283 283 282 282 281 281 279 279 279 279 279 279 279 279 279 280 280 280 280 279 280 281 282 282 282 282 282 284 284 284 283 283 283 284 283 282 280 279 280 280 279 280 280 282 283 283 283 283 283 285 284 283 283 283 284 283 283 284 281 284 283 284 283 283 283 283 283 283 282 282 281 280 280 280 279 278 278 279 278 279 280 281 281 282 282 282 280 281 280 279 279 280 280 279 280 280 279 280 281 280 279 278 279 279 280 279 280 279 280 279 280 280 279 279 280 279 280 280 281 280 281 281 281 281 280 280 280 281 281 281 280 280 281 281 281 281 -209 281 281 282 0 0 0 0 0
    0 0 0 0 0 0 0 0 0 0 0 0 0 0 0 0 0 0 0 0 0 0 0 0 0 0 0 0 0 0 0 0 0 0 0 0 0 0 0 0 0 0 0 0 0 0 0 0 0 0 0 0 0 0 0 0 0 0 0 0 0 0 0 0 0 0 0 0 0 286 286 284 285 286 287 286 286 286 284 285 285 284 283 282 285 285 285 286 286 286 286 288 287 286 286 287 286 286 286 286 285 286 285 286 286 286 285 288 287 288 285 286 285 285 284 284 282 282 282 282 283 283 283 281 282 281 283 283 283 282 284 285 283 283 283 282 283 283 284 283 283 285 286 285 285 285 284 284 286 285 286 285 285 286 286 286 286 285 284 283 283 284 284 284 283 283 283 284 283 283 283 282 283 283 284 283 283 283 283 282 282 280 280 280 280 280 280 280 279 279 280 280 281 280 280 281 282 283 282 282 283 282 284 284 284 283 283 283 283 282 282 280 279 280 279 278 278 279 281 283 284 282 282 282 285 284 284 283 284 285 285 284 285 282 284 283 284 282 283 283 283 283 283 282 282 280 280 279 279 278 277 277 278 277 278 279 280 281 282 283 283 281 281 280 279 279 279 279 279 280 280 279 280 281 280 279 278 279 277 279 279 280 280 280 280 281 280 280 280 281 280 281 280 281 280 281 281 281 281 280 280 281 281 282 282 281 281 281 281 -193 -193 -177 -193 280 -193 0 0 0 0 0
    0 0 0 0 0 0 0 0 0 0 0 0 0 0 0 0 0 0 0 0 0 0 0 0 0 0 0 0 0 0 0 0 0 0 0 0 0 0 0 0 0 0 0 0 0 0 0 0 0 0 0 0 0 0 0 0 0 0 0 0 0 0 0 0 0 0 0 0 0 285 285 284 285 286 286 286 286 287 284 286 286 285 284 283 286 286 285 286 287 0 -256 -1 22393 287 286 287 286 286 286 286 285 286 285 286 286 286 285 288 287 288 286 286 285 285 284 284 283 283 283 283 285 284 284 282 282 281 283 282 282 282 283 285 283 282 283 282 283 283 284 283 283 285 286 285 285 285 284 284 285 285 285 285 285 286 286 286 286 285 284 284 284 284 284 284 284 283 284 284 283 283 284 283 283 283 284 283 283 283 283 282 283 281 281 281 280 281 280 281 279 280 280 281 282 281 282 282 283 284 283 283 283 282 284 283 283 283 283 283 283 281 281 279 278 280 279 278 278 278 281 283 283 282 282 282 285 283 283 283 284 284 284 284 284 282 284 283 284 282 283 282 283 283 282 282 282 280 280 279 279 278 277 277 278 277 277 279 281 281 282 284 284 282 281 280 279 279 279 279 278 279 279 279 279 280 279 279 278 279 278 279 279 280 280 280 281 281 280 280 280 281 281 282 282 282 281 281 282 282 281 280 281 281 282 283 282 281 281 281 281 -193 -209 -177 -193 279 -209 0 0 0 0 0
    0 0 0 0 0 0 0 0 0 0 0 0 0 0 0 0 0 0 0 0 0 0 0 0 0 0 0 0 0 0 0 0 0 0 0 0 0 0 0 0 0 0 0 0 0 0 0 0 0 0 0 0 0 0 0 0 0 0 0 0 0 0 0 0 0 0 0 0 0 285 285 284 285 286 286 285 286 287 284 285 285 284 284 283 285 286 285 286 287 286 287 289 288 287 286 287 286 285 286 286 285 286 284 286 285 286 285 288 286 287 285 285 285 285 284 285 283 284 283 284 285 285 284 283 282 281 281 281 281 281 282 284 282 282 283 282 283 284 284 284 283 286 287 286 285 285 284 284 284 284 285 284 285 285 286 286 286 285 285 284 284 284 284 284 284 284 284 284 283 283 283 282 283 283 284 283 283 284 284 283 284 282 282 282 281 282 281 281 280 280 281 282 282 282 283 284 284 285 283 283 283 282 283 283 282 282 282 283 282 281 281 279 277 279 279 278 278 278 281 284 284 283 283 283 285 284 283 283 284 284 284 284 284 282 284 282 284 282 283 282 283 282 282 282 282 280 280 278 279 278 278 278 278 278 277 280 281 281 282 283 283 282 281 281 280 280 279 278 278 279 279 279 278 279 279 279 279 279 278 280 280 281 280 281 281 282 281 281 281 282 283 283 283 282 282 282 282 283 282 280 281 281 282 283 282 281 281 281 281 280 -193 -177 -193 -193 -209 0 0 0 0 0
    0 0 0 0 0 0 0 0 0 0 0 0 0 0 0 0 0 0 0 0 0 0 0 0 0 0 0 0 0 0 0 0 0 0 0 0 0 0 0 0 0 0 0 0 0 0 0 0 0 0 0 0 0 0 0 0 0 0 0 0 0 0 0 0 0 0 0 0 0 285 285 284 285 286 286 285 285 286 284 285 -193 283 283 283 285 286 285 286 287 286 287 289 288 287 286 287 286 285 286 286 285 286 285 286 285 285 284 287 286 286 285 285 285 286 285 286 284 285 284 285 285 284 283 281 281 279 279 279 280 279 281 283 282 282 283 282 283 285 285 284 284 287 288 286 286 285 284 284 284 284 284 284 284 285 286 285 286 285 284 284 284 284 284 284 285 284 284 284 283 283 283 282 282 282 283 283 283 284 284 284 284 282 283 282 281 282 281 281 280 281 281 282 283 283 284 285 285 286 284 283 283 282 283 283 282 282 281 282 282 281 280 279 277 279 278 278 277 276 279 283 283 284 283 283 284 283 283 284 284 284 285 284 285 283 284 284 284 283 284 283 283 283 283 282 282 281 280 279 279 279 279 278 279 278 277 280 281 281 281 282 282 281 281 281 280 280 279 278 278 279 279 278 278 278 279 279 279 279 278 279 279 280 280 280 281 282 281 281 281 283 283 284 283 282 282 282 283 283 282 281 282 282 283 283 282 281 280 280 280 280 280 -193 -193 -193 -209 0 0 0 0 0
    0 0 0 0 0 0 0 0 0 0 0 0 0 0 0 0 0 0 0 0 0 0 0 0 0 0 0 0 0 0 0 0 0 0 0 0 0 0 0 0 0 0 0 0 0 0 0 0 0 0 0 0 0 0 0 0 0 0 0 0 0 0 0 0 0 0 0 0 0 285 285 284 285 286 286 285 285 287 284 285 285 284 283 283 285 286 285 286 287 286 288 289 288 287 287 288 287 286 286 286 285 287 285 286 285 285 284 286 285 286 -193 284 285 286 286 287 286 286 285 286 286 285 284 282 280 279 279 279 279 279 281 283 282 282 283 283 283 285 285 285 284 288 289 287 286 285 284 284 284 284 284 283 284 284 286 285 285 285 284 284 284 285 285 284 285 284 284 283 282 282 282 281 281 281 282 282 282 283 283 283 284 283 283 283 282 283 282 282 281 281 282 283 284 284 284 285 285 286 284 283 284 282 282 282 281 281 281 281 281 280 279 279 276 278 277 277 276 274 278 281 282 284 283 283 284 283 284 284 284 284 284 284 284 284 285 285 285 284 285 283 284 284 283 283 282 282 -193 279 280 280 279 279 280 279 277 279 280 280 280 281 281 280 281 282 281 280 279 279 279 280 279 279 278 278 279 279 279 278 277 278 279 279 279 279 280 281 281 280 281 282 283 284 283 282 281 281 282 282 282 281 282 282 283 283 282 281 280 280 280 279 279 -193 279 -193 -209 0 0 0 0 0
    0 0 0 0 0 0 0 0 0 0 0 0 0 0 0 0 0 0 0 0 0 0 0 0 0 0 0 0 0 0 0 0 0 0 0 0 0 0 0 0 0 0 0 0 0 0 0 0 0 0 0 0 0 0 0 0 0 0 0 0 0 0 0 0 0 0 0 0 0 284 284 284 284 285 285 285 285 286 284 286 285 284 283 284 285 285 285 286 287 286 288 289 288 288 287 288 287 286 287 286 286 288 285 286 285 285 285 286 285 285 284 285 286 288 288 289 289 288 287 287 287 285 284 283 281 281 279 279 278 278 281 283 282 282 283 283 283 285 285 285 285 289 290 287 287 285 284 284 283 284 283 283 283 284 285 284 285 285 284 284 284 285 285 284 285 284 283 283 282 282 281 280 279 279 280 281 281 -193 283 283 284 283 283 283 283 284 282 282 282 282 282 283 284 284 284 284 285 286 284 284 284 283 282 282 281 281 281 281 280 279 278 278 276 277 277 276 276 275 277 281 282 284 284 283 284 283 283 284 283 284 284 284 284 284 285 285 285 285 285 283 284 284 283 283 282 281 281 279 280 280 279 279 280 279 276 278 279 280 280 281 281 281 281 282 282 281 280 280 279 281 279 279 278 278 279 279 279 278 277 279 280 279 279 280 280 281 281 281 281 282 283 284 283 282 281 281 282 282 282 -193 282 283 284 283 282 281 280 280 279 279 279 278 279 280 -209 0 0 0 0 0
    0 0 0 0 0 0 0 0 0 0 0 0 0 0 0 0 0 0 0 0 0 0 0 0 0 0 0 0 0 0 0 0 0 0 0 0 0 0 0 0 0 0 0 0 0 0 0 0 0 0 0 0 0 0 0 0 0 0 0 0 0 0 0 0 0 0 0 0 0 284 284 283 283 285 284 284 284 285 284 286 284 284 284 284 285 286 285 286 287 286 287 288 287 288 287 288 287 286 287 286 286 288 286 286 285 286 285 286 286 286 285 286 287 289 290 291 -193 290 289 289 288 286 285 284 282 281 279 278 277 278 281 283 282 282 282 283 283 284 284 284 284 288 289 286 286 285 285 285 283 284 284 283 283 284 285 284 285 285 284 284 284 284 284 284 284 283 283 283 282 281 280 279 279 279 279 280 -193 -193 283 283 284 284 284 284 283 284 283 283 282 282 282 283 284 283 284 284 284 285 284 284 284 283 283 282 281 281 280 280 280 279 278 278 276 278 277 277 278 277 279 281 282 284 284 284 284 283 283 283 283 284 284 284 284 284 285 285 285 285 284 283 283 283 282 282 281 281 280 279 281 280 279 279 280 279 277 279 280 280 281 282 282 281 282 283 282 282 281 281 280 281 280 279 278 278 279 279 279 278 277 279 281 280 280 281 280 282 282 281 281 283 283 284 283 282 281 282 282 283 282 -193 282 283 284 283 281 280 280 279 279 279 279 278 279 280 -193 0 0 0 0 0
    0 0 0 0 0 0 0 0 0 0 0 0 0 0 0 0 0 0 0 0 0 0 0 0 0 0 0 0 0 0 0 0 0 0 0 0 0 0 0 0 0 0 0 0 0 0 0 0 0 0 0 0 0 0 0 0 0 0 0 0 0 0 0 0 0 0 0 0 0 283 283 283 283 284 284 284 284 285 284 286 285 285 285 285 286 286 286 287 287 286 287 288 288 288 288 288 287 286 287 287 287 289 286 286 286 286 285 286 286 286 285 286 288 289 290 291 -193 291 290 289 288 287 286 285 283 282 279 278 277 278 281 283 282 282 282 283 283 284 284 284 283 287 287 285 286 285 284 285 283 285 284 283 283 284 285 284 285 285 284 284 284 284 284 283 284 283 283 282 281 280 280 279 279 278 279 280 280 -193 283 283 284 284 284 284 283 285 283 283 282 282 283 284 284 283 283 284 284 284 284 283 283 283 282 282 281 280 280 280 280 279 278 278 277 278 278 278 279 279 280 282 282 284 283 284 283 282 283 283 283 284 284 284 285 285 285 285 285 284 283 282 282 281 281 281 280 280 280 279 280 279 279 279 280 279 278 280 280 281 281 282 282 282 282 283 283 282 282 281 281 281 280 279 278 277 278 279 279 278 277 277 280 280 281 281 281 282 282 281 282 283 284 284 283 282 282 282 283 283 -193 -193 -193 282 283 281 280 279 279 279 279 278 278 277 279 281 -193 0 0 0 0 0
    0 0 0 0 0 0 0 0 0 0 0 0 0 0 0 0 0 0 0 0 0 0 0 0 0 0 0 0 0 0 0 0 0 0 0 0 0 0 0 0 0 0 0 0 0 0 0 0 0 0 0 0 0 0 0 0 0 0 0 0 0 0 0 0 0 0 0 0 0 284 283 283 283 284 283 283 283 284 284 286 286 285 285 286 286 286 286 286 287 286 287 288 287 288 288 288 288 286 288 287 287 289 286 285 285 286 285 286 285 285 284 286 287 288 289 291 291 290 290 289 288 287 286 286 284 283 280 279 278 279 281 284 282 282 282 282 283 284 284 284 283 286 287 285 285 285 284 285 283 285 284 284 284 284 285 284 285 285 284 283 283 284 283 283 284 283 282 282 281 280 280 279 279 278 279 280 280 282 283 283 284 284 284 284 284 285 283 284 283 283 284 284 285 284 284 284 284 284 283 283 283 283 282 281 280 280 280 280 280 279 278 278 277 278 278 279 279 279 280 281 282 283 283 284 283 283 283 283 283 284 284 284 284 285 285 285 284 284 282 280 280 280 280 280 280 280 279 280 281 280 280 279 280 280 279 281 281 281 281 282 282 283 282 283 283 283 282 282 281 282 280 279 278 278 278 280 279 278 278 276 280 279 281 281 280 282 282 281 282 284 284 284 283 282 282 282 283 283 -193 -193 -209 -193 281 280 278 278 278 279 278 278 278 277 279 282 282 0 0 0 0 0
    0 0 0 0 0 0 0 0 0 0 0 0 0 0 0 0 0 0 0 0 0 0 0 0 0 0 0 0 0 0 0 0 0 0 0 0 0 0 0 0 0 0 0 0 0 0 0 0 0 0 0 0 0 0 0 0 0 0 0 0 0 0 0 0 0 0 0 0 0 284 284 283 283 284 283 283 283 283 283 286 285 285 285 285 285 285 286 286 287 286 287 287 287 287 288 287 287 286 287 286 286 288 286 285 286 286 285 286 286 285 284 285 286 286 288 290 290 290 290 289 287 286 286 286 284 284 281 280 278 280 281 284 282 282 282 282 283 284 284 284 283 286 286 284 285 285 284 284 283 284 283 283 284 284 284 283 284 284 283 283 283 283 283 283 283 283 282 282 281 280 280 280 279 279 279 281 281 283 283 283 284 284 284 284 284 285 283 284 283 284 284 285 285 284 284 284 284 284 283 283 283 283 282 281 280 280 280 280 280 280 278 279 278 278 278 279 279 279 279 281 282 283 283 284 283 283 283 283 283 284 284 284 284 285 285 285 284 283 281 279 280 279 280 280 279 280 279 280 281 281 281 280 281 281 280 281 281 281 281 282 281 282 282 283 283 283 282 281 281 282 280 279 279 278 278 280 280 279 278 277 280 279 281 281 279 282 282 282 282 283 283 283 283 282 281 281 282 281 -193 -193 -209 -193 280 278 277 277 278 278 278 278 278 277 279 282 283 0 0 0 0 0
    0 0 0 0 0 0 0 0 0 0 0 0 0 0 0 0 0 0 0 0 0 0 0 0 0 0 0 0 0 0 0 0 0 0 0 0 0 0 0 0 0 0 0 0 0 0 0 0 0 0 0 0 0 0 0 0 0 0 0 0 0 0 0 0 0 0 0 0 0 284 284 283 283 284 283 282 283 283 283 285 285 284 284 285 285 285 286 286 286 286 287 287 287 287 288 287 287 286 286 286 286 288 286 286 287 286 286 286 286 286 285 286 286 286 288 288 288 289 289 287 286 285 285 285 283 284 282 282 280 281 282 285 282 283 283 283 283 284 284 284 283 285 285 284 284 284 284 284 283 284 283 284 284 285 284 283 284 284 283 283 283 283 282 282 283 282 281 281 279 279 280 280 280 280 280 281 281 283 283 282 283 284 283 283 283 284 283 283 283 283 284 284 285 284 283 284 284 283 283 283 283 283 283 282 281 281 281 281 281 280 279 279 279 278 278 279 279 279 279 281 282 283 283 284 283 283 283 283 283 284 284 285 285 285 286 286 284 283 281 279 280 280 280 280 280 280 280 281 282 282 282 281 281 281 280 281 281 281 281 281 281 282 282 283 284 283 282 281 281 282 281 279 279 278 278 281 281 281 279 278 281 280 282 282 279 282 282 282 282 283 283 283 282 282 281 279 281 -193 -193 -193 -209 -193 279 278 276 277 277 278 277 277 278 277 280 283 283 0 0 0 0 0
    0 0 0 0 0 0 0 0 0 0 0 0 0 0 0 0 0 0 0 0 0 0 0 0 0 0 0 0 0 0 0 0 0 0 0 0 0 0 0 0 0 0 0 0 0 0 0 0 0 0 0 0 0 0 0 0 0 0 0 0 0 0 0 0 0 0 0 0 0 284 284 283 282 284 282 282 282 282 282 285 284 284 284 285 285 285 286 286 286 286 287 287 287 287 288 286 287 287 286 286 285 288 286 286 287 287 287 287 287 286 285 286 287 286 287 286 287 287 288 287 286 285 285 285 284 284 283 283 280 282 283 285 283 283 283 283 283 284 284 284 282 285 285 284 284 284 284 284 283 285 284 284 285 285 284 284 284 284 283 283 283 283 282 282 282 281 281 280 279 278 280 280 280 281 280 282 281 283 283 282 283 283 283 283 283 284 283 283 283 283 284 284 284 283 283 283 283 283 283 283 283 283 283 282 281 281 281 281 281 280 279 279 279 278 278 279 279 279 280 281 282 283 283 283 283 282 283 283 283 284 284 285 285 286 286 286 284 283 281 279 280 280 280 280 280 280 281 282 282 283 282 282 282 281 281 281 281 281 281 281 281 282 282 282 284 284 283 282 281 283 281 280 280 279 279 281 281 281 279 279 281 281 282 283 279 282 282 280 282 282 282 281 281 281 279 278 281 -193 -193 -193 -209 -209 279 278 276 277 277 277 277 277 278 277 279 282 282 0 0 0 0 0
    0 0 0 0 0 0 0 0 0 0 0 0 0 0 0 0 0 0 0 0 0 0 0 0 0 0 0 0 0 0 0 0 0 0 0 0 0 0 0 0 0 0 0 0 0 0 0 0 0 0 0 0 0 0 0 0 0 0 0 0 0 0 0 0 0 0 0 0 0 284 283 283 282 283 282 282 282 282 282 284 284 284 283 284 284 285 286 286 286 286 286 287 286 286 287 285 286 286 286 285 284 288 286 286 288 287 288 287 287 286 285 286 287 285 286 286 286 287 287 286 286 285 285 285 284 286 284 284 281 282 283 286 283 283 283 283 283 284 283 284 282 284 284 283 284 284 284 284 284 285 284 285 285 285 284 284 284 284 283 283 283 283 282 282 282 282 282 281 279 279 281 281 281 281 281 281 281 282 283 281 282 282 282 282 282 283 283 283 283 283 283 284 284 283 282 282 282 282 283 282 283 283 284 282 282 282 282 282 281 281 280 279 280 279 278 279 279 280 280 282 283 283 283 283 283 282 282 283 283 283 284 285 285 285 285 285 283 282 280 279 279 279 280 280 280 280 281 282 282 283 282 282 282 282 282 281 281 281 281 281 281 282 282 282 284 284 283 282 282 284 281 280 280 279 278 281 281 281 279 280 281 282 283 283 280 282 281 280 281 281 281 279 279 279 277 277 280 -193 -193 -193 -209 -209 279 278 276 276 277 277 277 277 277 276 277 281 -209 0 0 0 0 0
    0 0 0 0 0 0 0 0 0 0 0 0 0 0 0 0 0 0 0 0 0 0 0 0 0 0 0 0 0 0 0 0 0 0 0 0 0 0 0 0 0 0 0 0 0 0 0 0 0 0 0 0 0 0 0 0 0 0 0 0 0 0 0 0 0 0 0 0 0 284 284 283 282 283 -193 282 282 281 281 284 284 284 284 284 285 285 286 286 286 285 286 286 286 286 286 284 285 285 285 285 284 288 286 286 288 287 288 287 287 286 285 286 286 285 285 285 285 286 286 286 286 285 286 286 285 287 285 287 283 284 285 287 283 283 283 283 283 284 284 283 282 284 284 283 284 284 284 284 284 285 285 286 286 286 285 285 284 284 284 283 283 283 283 282 282 282 283 282 281 280 283 282 282 282 282 282 281 283 283 281 282 281 281 281 282 283 282 282 282 283 283 283 283 -193 282 282 282 282 282 282 283 283 284 283 283 283 283 283 282 282 281 280 280 280 279 280 280 281 281 282 283 282 282 283 282 282 282 282 282 283 284 285 284 284 285 284 283 281 279 278 278 279 279 280 280 280 280 282 282 282 282 282 282 282 282 281 281 281 282 282 281 282 281 282 283 284 283 282 282 284 281 280 280 279 278 281 280 281 278 281 281 282 283 283 280 282 281 280 281 281 280 279 279 278 276 276 280 273 272 -193 -209 -209 279 278 276 277 277 277 277 277 277 -193 277 280 -209 0 0 0 0 0
    0 0 0 0 0 0 0 0 0 0 0 0 0 0 0 0 0 0 0 0 0 0 0 0 0 0 0 0 0 0 0 0 0 0 0 0 0 0 0 0 0 0 0 0 0 0 0 0 0 0 0 0 0 0 0 0 0 0 0 0 0 0 0 0 0 0 0 0 0 284 284 283 282 283 -193 281 282 281 281 284 284 284 284 285 286 285 286 286 286 285 285 286 286 285 286 283 284 285 285 285 284 287 286 286 288 287 287 287 287 286 285 285 285 284 284 284 285 285 285 285 285 285 285 286 285 287 286 288 284 285 286 288 284 284 284 284 283 284 284 283 282 284 284 283 284 284 284 284 285 285 286 287 287 287 286 286 284 284 284 284 284 284 283 282 283 283 284 283 283 281 284 283 284 284 283 283 282 283 283 282 283 282 281 281 282 283 282 282 282 283 283 283 283 -193 282 282 282 282 282 282 282 283 284 283 283 283 283 282 282 282 281 280 280 280 279 280 280 281 281 282 282 282 282 282 282 281 -209 281 282 281 284 285 284 283 283 283 282 280 279 278 278 279 279 280 280 280 281 282 282 283 283 283 283 283 284 283 283 282 282 283 282 283 282 282 283 284 283 282 282 284 280 280 280 279 278 280 280 280 278 281 281 282 283 283 281 282 281 279 280 280 279 278 278 276 274 273 276 269 270 -193 -209 -209 279 278 277 277 277 278 277 277 277 -193 276 280 -209 0 0 0 0 0
    0 0 0 0 0 0 0 0 0 0 0 0 0 0 0 0 0 0 0 0 0 0 0 0 0 0 0 0 0 0 0 0 0 0 0 0 0 0 0 0 0 0 0 0 0 0 0 0 0 0 0 0 0 0 0 0 0 0 0 0 0 0 0 0 0 0 0 0 0 285 284 284 283 284 -193 280 281 281 281 284 284 285 285 285 286 285 286 286 286 285 285 285 285 284 285 283 283 284 285 285 283 287 286 285 287 287 287 286 286 286 284 285 284 283 283 283 284 284 285 284 285 284 285 286 285 287 286 288 285 285 286 288 284 284 283 283 283 284 283 283 282 284 284 284 284 284 284 284 285 285 286 286 287 287 286 286 284 284 285 285 285 285 284 283 284 284 284 284 283 281 283 283 284 284 284 284 283 284 284 283 283 282 282 282 283 283 282 282 282 283 284 283 283 282 282 282 283 282 283 283 283 283 284 283 283 282 282 282 282 281 281 280 280 279 279 280 280 281 281 282 282 282 282 282 281 281 281 281 281 280 283 283 282 281 281 281 280 280 279 278 279 279 279 280 280 280 281 282 282 282 283 283 283 283 284 282 282 282 282 282 282 282 281 281 283 284 283 282 281 284 280 280 281 279 279 280 280 281 278 281 281 281 282 282 280 281 280 278 279 280 278 277 277 273 275 272 275 270 271 276 -193 -193 280 279 278 278 278 278 278 277 277 -193 276 279 -209 0 0 0 0 0
    0 0 0 0 0 0 0 0 0 0 0 0 0 0 0 0 0 0 0 0 0 0 0 0 0 0 0 0 0 0 0 0 0 0 0 0 0 0 0 0 0 0 0 0 0 0 0 0 0 0 0 0 0 0 0 0 0 0 0 0 0 0 0 0 0 0 0 0 0 286 285 284 283 284 281 279 280 280 281 284 284 285 284 285 285 285 286 285 285 284 284 285 284 283 284 282 283 284 285 285 284 287 285 285 287 286 286 285 285 285 284 284 284 282 282 283 283 284 284 284 284 284 285 286 285 287 286 288 285 284 285 287 284 283 283 283 282 283 283 283 282 284 284 284 284 284 284 284 284 284 285 285 286 286 286 -193 284 284 284 285 284 285 284 283 283 284 284 284 283 283 283 283 284 285 285 285 284 285 284 284 284 283 283 283 283 283 282 282 282 284 284 284 284 283 283 283 284 283 283 283 283 284 284 283 283 282 282 282 282 282 281 280 280 279 279 280 279 281 281 282 282 282 282 282 281 281 280 281 280 280 282 282 281 280 280 280 280 279 279 278 279 279 279 280 280 280 281 282 282 282 282 283 282 283 284 283 282 282 282 282 -193 -193 280 281 282 284 283 282 281 284 280 281 281 280 279 281 280 281 279 282 281 281 282 282 280 280 279 278 278 279 278 276 276 272 275 273 275 272 274 277 280 281 281 280 279 279 279 279 279 278 278 -193 278 281 -209 0 0 0 0 0
    0 0 0 0 0 0 0 0 0 0 0 0 0 0 0 0 0 0 0 0 0 0 0 0 0 0 0 0 0 0 0 0 0 0 0 0 0 0 0 0 0 0 0 0 0 0 0 0 0 0 0 0 0 0 0 0 0 0 0 0 0 0 0 0 0 0 0 0 0 285 284 284 283 284 281 280 281 281 281 285 284 285 285 285 286 285 286 286 285 285 284 284 284 283 284 282 283 284 284 284 283 286 285 285 286 285 285 285 285 285 284 284 283 283 283 283 -193 283 283 283 284 284 284 285 285 286 286 288 284 284 284 286 283 283 282 282 282 283 283 283 282 284 284 284 284 284 284 284 284 284 284 284 284 285 285 285 284 284 284 285 284 285 285 284 284 285 285 286 285 286 285 284 286 286 287 286 285 286 285 285 284 283 283 282 282 283 281 282 282 283 284 283 284 283 284 283 284 283 284 283 284 284 285 283 283 283 283 283 282 282 281 280 280 280 280 280 280 282 282 282 -193 281 281 281 281 280 279 281 280 280 283 282 282 281 282 281 281 280 281 279 279 279 280 280 281 281 281 282 281 282 283 283 283 283 284 283 281 282 281 -193 -193 -193 279 279 281 283 283 282 282 285 281 281 281 280 280 281 281 281 279 282 280 280 282 282 280 280 278 277 277 278 277 276 275 270 274 273 277 274 276 279 280 283 282 281 280 280 280 280 280 279 279 -193 -193 281 -209 0 0 0 0 0
    0 0 0 0 0 0 0 0 0 0 0 0 0 0 0 0 0 0 0 0 0 0 0 0 0 0 0 0 0 0 0 0 0 0 0 0 0 0 0 0 0 0 0 0 0 0 0 0 0 0 0 0 0 0 0 0 0 0 0 0 0 0 0 0 0 0 0 0 0 285 284 283 283 284 -193 279 281 281 281 285 284 285 285 286 286 286 287 287 286 285 284 285 284 284 284 283 283 283 284 284 284 286 284 284 285 284 284 284 284 284 284 284 283 283 283 283 283 283 283 283 284 284 285 286 286 286 287 288 284 283 284 286 283 282 282 282 282 283 282 283 282 284 285 285 284 284 284 285 285 285 285 285 285 285 286 286 285 285 285 286 285 287 286 286 286 286 287 287 287 288 285 284 286 287 287 286 285 286 285 286 285 284 283 283 282 283 281 282 282 283 283 283 283 283 283 283 283 283 284 283 283 284 284 283 283 283 283 282 282 282 281 280 279 279 279 280 281 282 281 282 -193 -193 -193 -193 280 280 279 281 281 281 283 283 282 282 282 282 282 282 282 281 281 281 281 282 283 282 281 283 282 283 284 284 284 285 286 284 282 282 281 281 -193 -193 278 278 -193 282 283 282 282 285 281 281 281 281 280 281 280 281 277 282 279 280 281 281 280 279 278 277 277 277 276 275 274 269 274 274 280 277 278 280 282 284 283 282 280 280 280 280 280 280 280 -193 280 282 -209 0 0 0 0 0
    0 0 0 0 0 0 0 0 0 0 0 0 0 0 0 0 0 0 0 0 0 0 0 0 0 0 0 0 0 0 0 0 0 0 0 0 0 0 0 0 0 0 0 0 0 0 0 0 0 0 0 0 0 0 0 0 0 0 0 0 0 0 0 0 0 0 0 0 0 285 284 284 283 285 -193 280 282 281 281 286 284 286 286 287 287 287 288 287 286 285 284 285 284 283 284 283 283 283 284 285 284 285 284 282 283 283 283 282 283 284 283 284 284 -193 283 283 -193 284 284 284 285 285 285 286 286 286 287 288 284 283 284 286 283 282 282 282 281 282 282 282 281 284 285 285 284 284 285 285 285 286 285 286 285 286 287 286 285 285 285 286 286 288 287 287 287 287 289 288 288 289 286 284 286 286 286 286 284 286 285 286 285 284 284 284 283 284 282 282 282 284 283 283 283 284 284 283 284 283 283 283 283 284 284 283 283 283 282 282 282 282 280 279 278 277 278 279 281 281 281 281 281 281 -193 281 280 279 279 281 281 281 283 282 282 281 281 -193 281 281 282 281 281 281 282 283 284 283 282 284 282 284 285 285 284 286 286 285 283 283 282 282 281 -193 279 279 -193 282 284 283 283 286 282 282 282 281 281 281 280 281 277 282 279 279 280 280 280 278 277 276 276 277 275 274 273 269 274 276 279 277 279 280 283 284 284 283 281 280 281 281 281 280 280 -193 280 282 -193 0 0 0 0 0
    0 0 0 0 0 0 0 0 0 0 0 0 0 0 0 0 0 0 0 0 0 0 0 0 0 0 0 0 0 0 0 0 0 0 0 0 0 0 0 0 0 0 0 0 0 0 0 0 0 0 0 0 0 0 0 0 0 0 0 0 0 0 0 0 0 0 0 0 0 285 284 285 284 287 283 -209 284 282 282 287 285 287 286 288 287 287 288 287 285 285 284 284 283 283 284 283 283 283 285 285 285 285 284 282 283 283 282 281 282 284 284 284 284 -193 283 284 -193 285 285 285 285 285 286 286 286 286 286 286 283 283 283 287 282 282 282 282 281 282 282 282 281 284 285 284 284 284 284 285 285 286 285 285 285 286 286 285 285 284 285 286 285 287 287 287 287 288 289 288 289 290 286 285 286 286 286 286 284 286 285 286 285 285 285 285 284 285 283 283 283 284 283 283 283 284 285 284 284 284 284 283 283 284 285 283 283 283 282 282 282 282 281 279 278 275 278 279 280 281 281 281 281 281 281 281 280 279 279 281 281 280 282 282 281 281 -193 -193 -193 282 283 282 283 282 283 284 285 284 283 285 282 284 285 285 284 286 286 285 283 283 282 282 282 282 280 281 -193 283 285 283 284 287 283 283 282 282 281 280 280 282 278 281 279 279 279 279 279 278 276 276 276 276 274 274 273 269 273 276 278 276 277 279 281 283 283 283 281 280 281 281 281 280 280 -193 280 281 -193 0 0 0 0 0
    0 0 0 0 0 0 0 0 0 0 0 0 0 0 0 0 0 0 0 0 0 0 0 0 0 0 0 0 0 0 0 0 0 0 0 0 0 0 0 0 0 0 0 0 0 0 0 0 0 0 0 0 0 0 0 0 0 0 0 0 0 0 0 0 0 0 0 0 0 285 285 285 284 287 283 285 284 283 284 289 286 288 287 288 -193 287 288 286 285 285 283 284 283 283 284 283 284 284 286 287 286 286 285 283 284 284 283 282 283 284 284 284 284 284 284 285 285 285 285 285 285 285 285 286 286 285 286 285 283 283 283 286 282 281 281 281 281 281 281 282 281 283 284 284 283 284 284 285 284 285 285 285 285 285 286 285 285 284 286 286 285 287 287 287 287 288 290 288 290 291 286 285 286 287 287 287 285 287 286 287 287 287 287 286 284 285 284 284 284 284 283 283 284 285 285 285 285 284 284 284 283 284 284 283 283 283 282 282 282 282 281 279 277 271 277 278 280 280 280 281 280 280 280 281 280 279 279 280 280 280 281 281 281 281 -193 -193 -193 283 284 284 284 284 284 284 285 284 283 284 280 282 283 283 282 284 284 284 282 283 283 283 283 283 281 281 281 283 286 283 284 286 283 283 283 283 282 281 281 282 279 281 279 279 279 279 279 277 276 275 276 276 275 275 274 271 275 279 280 278 279 281 282 283 284 284 282 281 282 282 282 281 281 -193 281 282 282 0 0 0 0 0
    0 0 0 0 0 0 0 0 0 0 0 0 0 0 0 0 0 0 0 0 0 0 0 0 0 0 0 0 0 0 0 0 0 0 0 0 0 0 0 0 0 0 0 0 0 0 0 0 0 0 0 0 0 0 0 0 0 0 0 0 0 0 0 0 0 0 0 0 0 284 284 285 284 287 283 284 283 283 284 288 286 287 286 287 -193 286 287 286 285 285 283 284 283 284 285 284 285 286 287 287 287 286 285 284 284 284 282 282 284 284 285 286 285 286 285 285 286 284 285 285 285 285 286 286 285 285 285 285 283 283 283 285 282 281 281 280 280 281 281 282 280 283 284 284 283 284 284 284 284 285 284 285 284 285 286 285 285 284 286 286 286 288 288 288 288 289 290 289 292 293 288 287 288 288 287 288 286 288 286 288 288 288 288 288 285 285 284 283 284 284 283 283 284 286 286 285 286 285 284 284 283 284 284 283 283 283 282 282 282 282 281 279 279 275 279 281 282 282 282 281 281 281 281 281 280 280 280 281 281 281 282 281 282 282 282 -193 -193 283 284 283 284 283 283 283 284 283 282 283 280 282 282 282 282 284 284 284 282 283 283 283 283 283 281 281 281 283 285 283 284 286 283 283 283 283 282 281 282 282 281 282 281 280 279 279 280 278 276 276 276 276 275 275 274 271 275 280 282 281 281 283 284 286 287 288 285 283 284 285 284 283 282 282 281 282 283 0 0 0 0 0
    0 0 0 0 0 0 0 0 0 0 0 0 0 0 0 0 0 0 0 0 0 0 0 0 0 0 0 0 0 0 0 0 0 0 0 0 0 0 0 0 0 0 0 0 0 0 0 0 0 0 0 0 0 0 0 0 0 0 0 0 0 0 0 0 0 0 0 0 0 285 285 285 285 287 285 286 284 283 284 288 286 286 285 286 -193 286 286 285 285 285 284 285 284 286 286 285 286 287 288 287 287 286 284 284 284 284 283 282 285 286 287 288 288 287 286 286 287 284 284 285 285 285 285 285 284 284 285 284 282 282 282 284 281 280 280 280 280 281 281 282 280 283 284 284 284 284 284 284 284 285 284 284 284 285 287 286 286 285 286 286 286 288 288 287 288 289 289 290 292 293 291 290 290 289 288 289 287 288 287 287 288 289 289 289 284 284 283 283 284 284 283 283 284 287 287 286 287 286 285 284 283 285 284 283 284 283 283 283 283 283 282 281 281 277 281 285 285 284 283 283 282 282 281 282 281 281 281 282 283 282 284 282 283 282 282 282 282 283 283 283 283 282 283 283 283 282 281 282 280 282 283 -193 282 284 284 285 282 284 283 283 -193 282 281 281 281 283 285 283 284 285 283 283 283 283 283 282 283 283 282 284 284 282 280 280 281 278 277 276 276 276 275 275 274 272 275 280 283 282 282 284 284 287 289 290 287 285 286 286 286 285 283 283 282 283 283 0 0 0 0 0
    0 0 0 0 0 0 0 0 0 0 0 0 0 0 0 0 0 0 0 0 0 0 0 0 0 0 0 0 0 0 0 0 0 0 0 0 0 0 0 0 0 0 0 0 0 0 0 0 0 0 0 0 0 0 0 0 0 0 0 0 0 0 0 0 0 0 0 0 0 285 286 286 286 288 287 289 288 285 286 288 285 286 285 285 285 285 286 285 285 285 285 286 286 287 287 286 288 288 288 287 286 285 284 283 284 283 282 282 285 286 288 289 290 289 288 288 289 286 286 286 286 286 286 285 284 284 284 284 283 283 283 286 282 281 281 281 281 282 282 282 281 284 284 285 284 284 284 285 284 286 285 286 285 285 288 287 287 285 286 285 286 287 287 286 287 288 288 290 292 293 292 292 292 291 290 291 288 288 287 287 287 289 289 289 283 282 282 283 284 283 283 284 285 289 287 288 287 286 285 285 284 285 285 284 285 284 284 284 284 285 283 282 282 278 281 286 286 285 284 283 283 282 281 282 281 281 282 283 283 283 285 283 283 283 283 282 283 283 283 283 283 283 283 283 283 282 281 282 281 282 283 -193 283 284 285 286 283 284 283 283 -209 -209 281 -193 281 283 285 283 284 285 283 283 283 284 283 282 283 284 282 286 286 285 282 282 282 280 278 277 276 275 276 276 275 273 275 279 283 282 282 283 283 286 288 290 288 285 286 287 287 287 284 283 283 283 283 0 0 0 0 0
    0 0 0 0 0 0 0 0 0 0 0 0 0 0 0 0 0 0 0 0 0 0 0 0 0 0 0 0 0 0 0 0 0 0 0 0 0 0 0 0 0 0 0 0 0 0 0 0 0 0 0 0 0 0 0 0 0 0 0 0 0 0 0 0 0 0 0 0 0 285 287 287 287 289 288 289 289 286 287 288 285 285 285 284 284 284 285 285 285 286 286 287 287 289 288 288 289 288 289 287 287 285 284 283 283 282 282 282 286 287 289 290 291 290 289 289 290 288 287 288 286 286 286 285 284 284 284 284 283 283 284 286 282 282 282 282 281 282 283 283 281 284 284 285 285 285 284 285 285 287 286 286 286 286 289 287 287 285 286 285 286 287 286 286 287 288 287 290 292 293 292 292 292 291 289 290 288 288 286 286 286 288 287 287 283 281 281 283 283 283 283 284 285 289 287 288 287 287 285 285 284 285 285 285 285 285 284 284 284 285 284 282 282 278 281 285 286 286 284 284 283 282 281 282 281 282 282 283 284 283 285 284 284 283 283 282 283 284 284 283 283 283 283 -193 284 283 281 282 -209 -193 284 282 283 284 284 286 283 284 -193 282 -209 -209 -193 -209 280 282 284 283 283 285 283 283 284 284 284 282 284 284 283 288 288 286 283 282 283 280 279 278 276 275 275 276 275 273 275 278 282 282 282 282 281 286 288 289 288 285 285 288 289 288 283 282 282 283 283 0 0 0 0 0
    0 0 0 0 0 0 0 0 0 0 0 0 0 0 0 0 0 0 0 0 0 0 0 0 0 0 0 0 0 0 0 0 0 0 0 0 0 0 0 0 0 0 0 0 0 0 0 0 0 0 0 0 0 0 0 0 0 0 0 0 0 0 0 0 0 0 0 0 0 286 287 287 287 289 288 289 290 287 288 287 285 284 284 283 284 284 284 284 285 286 286 287 288 289 288 289 290 289 290 287 288 286 285 284 283 282 282 283 288 289 291 292 293 292 291 290 291 290 290 289 287 287 286 285 284 284 284 284 283 284 284 287 283 283 282 282 282 283 283 283 281 284 284 285 285 285 284 284 285 288 286 287 286 286 -193 288 288 285 285 285 286 287 287 286 287 288 287 289 291 292 291 291 291 290 288 289 287 287 286 285 286 288 287 288 284 281 282 283 283 284 283 284 285 289 287 288 287 287 285 285 284 285 285 285 286 285 284 284 284 285 284 282 282 277 281 285 286 286 285 285 285 284 283 284 282 283 283 283 284 283 284 283 283 283 282 -193 -193 -193 -193 -193 283 -193 -193 -209 -193 -193 -209 -209 -209 -209 -193 -193 283 284 284 286 284 284 -209 -193 -209 -209 -209 -209 -193 282 285 283 284 284 284 283 284 285 284 282 284 284 284 289 289 288 284 283 284 281 279 278 275 275 275 277 275 274 276 278 282 284 283 281 281 286 289 290 290 287 287 291 293 294 284 280 282 282 282 0 0 0 0 0
    0 0 0 0 0 0 0 0 0 0 0 0 0 0 0 0 0 0 0 0 0 0 0 0 0 0 0 0 0 0 0 0 0 0 0 0 0 0 0 0 0 0 0 0 0 0 0 0 0 0 0 0 0 0 0 0 0 0 0 0 0 0 0 0 0 0 0 0 0 287 288 289 288 290 289 289 290 287 288 287 284 283 284 282 283 282 283 283 284 285 285 286 288 289 288 289 291 289 290 287 288 287 286 286 285 283 284 283 292 291 294 293 294 293 292 292 292 291 291 290 287 287 286 285 283 284 284 284 283 -193 -193 287 283 284 283 283 282 283 283 283 281 284 284 285 285 285 284 284 285 287 286 286 285 -193 -209 -193 288 285 285 284 286 287 286 285 286 287 286 288 291 291 290 290 291 290 289 290 287 287 286 286 287 289 288 289 284 282 283 284 284 284 284 285 285 289 288 288 288 287 285 286 284 285 285 285 286 285 285 285 285 286 285 283 283 278 282 286 287 288 287 288 288 286 285 286 284 285 284 283 283 283 283 283 -193 -193 281 -193 -209 -193 -209 -209 -193 -209 -193 -209 -209 -209 -209 -209 -209 -209 -209 -209 283 284 -193 -193 -209 -193 -209 -209 -209 -209 -209 -209 -209 283 285 283 284 284 283 283 284 285 284 283 284 284 285 289 290 289 284 283 285 283 280 279 276 276 277 278 277 276 277 278 283 285 284 282 282 287 290 291 292 292 292 295 297 299 -193 279 281 281 281 0 0 0 0 0
    0 0 0 0 0 0 0 0 0 0 0 0 0 0 0 0 0 0 0 0 0 0 0 0 0 0 0 0 0 0 0 0 0 0 0 0 0 0 0 0 0 0 0 0 0 0 0 0 0 0 0 0 0 0 0 0 0 0 0 0 0 0 0 0 0 0 0 0 0 288 289 290 289 289 289 289 289 287 287 286 284 282 283 280 281 281 281 282 283 284 286 286 290 290 289 291 292 290 290 287 288 287 285 286 285 283 283 283 291 291 293 292 293 292 291 290 291 290 289 289 286 286 286 285 283 284 -193 -193 -193 -193 -193 -193 -193 -193 -193 283 283 -193 283 282 282 284 285 285 -193 285 284 -193 285 287 286 285 -193 -209 -177 -193 288 285 -193 -193 286 286 286 285 285 286 285 288 291 292 290 291 291 290 290 292 288 287 286 286 287 289 288 287 284 281 282 285 285 284 284 285 286 289 288 288 288 287 286 286 284 286 286 286 287 286 286 286 285 287 286 284 284 280 282 287 288 289 288 288 289 287 285 288 284 286 285 284 283 283 -193 -193 -193 -193 282 282 -209 -193 -193 -209 -209 -193 -193 -193 -177 -209 -209 -209 -209 -209 -209 -209 282 283 -193 -193 -209 -209 -209 -209 -209 -209 -209 -209 -209 282 283 282 282 282 282 281 283 284 284 282 283 283 284 289 289 288 284 -193 285 284 281 279 276 276 277 279 278 276 277 278 284 287 289 284 284 289 291 292 294 295 295 297 299 300 -193 -193 284 282 283 0 0 0 0 0
    0 0 0 0 0 0 0 0 0 0 0 0 0 0 0 0 0 0 0 0 0 0 0 0 0 0 0 0 0 0 0 0 0 0 0 0 0 0 0 0 0 0 0 0 0 0 0 0 0 0 0 0 0 0 0 0 0 0 0 0 0 0 0 0 0 0 0 0 0 290 291 291 290 289 289 288 289 287 287 285 284 282 282 278 279 -193 281 282 284 285 288 288 292 292 290 292 293 291 291 288 288 286 284 -193 284 281 280 282 286 288 290 290 292 290 289 288 289 289 286 288 285 286 285 284 282 284 -193 -193 -193 -193 705 -193 -193 -209 -209 283 -193 -177 -193 283 283 285 -193 287 -193 -193 -193 -193 -193 287 287 284 -193 -177 -177 -193 291 -193 -193 -193 286 287 286 286 286 287 286 290 292 293 291 292 292 291 291 293 289 287 285 286 286 287 287 282 284 279 281 286 285 285 284 285 286 289 287 288 288 287 286 286 284 286 285 286 288 287 286 287 286 289 287 285 286 281 283 288 289 290 288 289 289 287 285 288 284 286 285 284 284 284 284 283 -193 283 282 282 -193 -209 -209 -209 -209 -193 -177 -193 -193 -209 -209 -209 -209 -209 -209 -209 -193 283 -193 285 -209 -209 -209 -209 -209 -193 -209 -209 -209 -209 -209 -209 -209 -209 -209 -209 283 284 284 283 283 283 285 290 290 289 286 -193 287 286 286 281 276 276 277 279 278 277 277 278 285 292 295 287 287 292 293 294 295 297 296 298 300 301 301 -193 293 288 290 0 0 0 0 0
    0 0 0 0 0 0 0 0 0 0 0 0 0 0 0 0 0 0 0 0 0 0 0 0 0 0 0 0 0 0 0 0 0 0 0 0 0 0 0 0 0 0 0 0 0 0 0 0 0 0 0 0 0 0 0 0 0 0 0 0 0 0 0 0 0 0 0 0 0 293 294 293 292 290 290 289 290 287 288 286 284 282 283 278 281 -193 282 -193 -193 -193 -193 289 292 292 290 293 -193 290 290 287 287 285 283 -193 -193 281 280 281 283 288 292 291 293 291 290 289 290 291 285 287 285 286 -177 284 -193 -193 -209 -193 -193 -193 704 -193 -209 -209 -193 -209 526 528 529 -193 285 287 -193 -193 -193 -193 -193 -193 -193 288 289 286 -193 -193 -225 -209 -193 -193 -193 -193 287 287 286 286 286 287 286 291 292 293 292 293 293 292 292 294 289 286 -225 -225 -225 -225 -225 -193 282 -209 -193 290 285 286 285 286 288 290 287 288 288 287 285 286 284 286 285 287 289 288 288 288 288 290 289 289 287 -209 286 291 292 292 291 -225 -225 -225 286 -225 -225 -225 -225 -225 -225 285 285 284 -193 -193 282 -193 -209 -209 -209 -209 -193 -193 -177 686 688 -209 -209 -209 -209 -209 -209 -209 284 285 286 288 -209 -193 -209 -209 -209 -209 -209 -209 -209 -209 -209 -209 -209 -209 -209 -209 -209 -209 -209 -209 -209 -193 287 -193 292 292 290 -209 -209 289 289 -209 275 274 276 278 276 275 274 274 -209 -209 -209 -209 -209 -209 -193 297 298 299 298 299 302 303 302 299 -193 295 296 0 0 0 0 0
    0 0 0 0 0 0 0 0 0 0 0 0 0 0 0 0 0 0 0 0 0 0 0 0 0 0 0 0 0 0 0 0 0 0 0 0 0 0 0 0 0 0 0 0 0 0 0 0 0 0 0 0 0 0 0 0 0 0 0 0 0 0 0 0 0 0 0 0 0 297 298 296 294 292 292 291 292 289 289 -193 -193 -209 -193 -177 -209 -193 -193 -193 -193 386 388 -193 292 291 -193 -193 -209 289 288 -193 283 284 -209 -209 -193 280 280 281 281 287 292 291 294 290 290 289 291 292 -209 286 284 284 -177 -209 -209 -209 -209 -193 705 701 703 -209 -209 -193 -209 -209 -193 528 527 -193 -193 288 -193 171 -193 -193 -193 -193 -193 289 291 289 -225 -225 -225 -225 -193 -193 -209 12 -193 -193 285 285 286 -225 -225 291 292 294 293 293 293 -193 292 293 -225 -225 -225 -225 -225 -225 -225 -225 279 281 281 293 286 287 286 287 289 291 290 290 288 290 287 287 -193 -193 -193 290 292 290 -193 289 -193 291 -193 290 -225 -225 -225 -225 -225 -225 -225 -225 -225 -225 -225 -225 -225 -225 -225 -225 -225 -225 -225 -225 -225 -193 -193 -209 -209 -209 -193 -209 -193 -193 689 688 691 -209 -209 -209 -209 -209 -209 -209 -193 -193 -193 -209 -209 174 -209 -209 -193 -209 -209 -209 62 -209 -209 -209 -209 -209 -209 -209 -209 -209 -209 -209 -209 -209 -209 -209 -209 -209 -209 -209 -209 -209 289 -209 -209 271 273 276 275 274 274 273 -209 -209 -209 -209 -209 -209 -209 301 302 303 303 303 305 307 306 304 301 300 300 0 0 0 0 0
    0 0 0 0 0 0 0 0 0 0 0 0 0 0 0 0 0 0 0 0 0 0 0 0 0 0 0 0 0 0 0 0 0 0 0 0 0 0 0 0 0 0 0 0 0 0 0 0 0 0 0 0 0 0 0 0 0 0 0 0 0 0 0 0 0 0 0 0 0 299 300 299 -193 293 -193 292 -193 291 -193 -193 358 -209 -209 -209 -209 385 384 385 385 383 386 -193 289 288 -193 -193 -193 288 -193 734 -209 -209 -193 -209 -225 278 278 279 278 284 282 287 292 289 291 290 294 295 -209 291 286 285 -193 -193 -209 -209 -209 -209 -209 -225 -225 -225 -225 -225 -225 -225 -225 -225 -225 -209 -193 -193 171 171 174 173 172 174 -225 -225 -225 -225 -225 -225 -225 -225 -225 -225 -225 -225 -225 -225 -225 -225 -225 -225 -225 -225 -225 -225 -225 -225 -225 -225 -225 -225 -225 -225 -225 -225 -225 -225 -225 -225 -225 -225 293 294 289 289 288 289 291 292 -225 -225 -225 -225 -225 -225 -225 -225 -225 -225 -225 -225 -193 292 -225 291 -225 -225 -225 -225 -225 -225 -225 -225 -225 -225 -225 -225 -225 -225 -225 -225 -225 -225 -225 -225 -225 -225 -225 -225 -225 -225 -225 -225 -225 -225 -225 -225 -225 -225 -225 -225 -225 -225 -225 -225 -225 -225 -225 -225 -225 -225 -225 -225 -209 -209 -209 -209 -209 -209 -209 -209 -209 -209 -209 -209 -209 -209 -209 -209 -209 -209 -209 -209 -209 -209 -209 -209 -209 -209 -209 -209 -209 -209 -209 -209 -209 -209 -209 275 -209 275 -209 -209 -209 -209 -209 -209 -209 -209 309 308 307 308 308 310 309 307 305 303 305 0 0 0 0 0
    0 0 0 0 0 0 0 0 0 0 0 0 0 0 0 0 0 0 0 0 0 0 0 0 0 0 0 0 0 0 0 0 0 0 0 0 0 0 0 0 0 0 0 0 0 0 0 0 0 0 0 0 0 0 0 0 0 0 0 0 0 0 0 0 0 0 0 0 0 302 300 -225 -225 -225 -225 -225 -225 -225 -225 -225 -225 -225 -225 -225 -225 -225 -225 -225 -225 -225 -225 -225 -225 -225 -225 -209 -225 -225 767 -209 -225 -225 -225 -225 -225 -225 -225 -225 -225 -225 -225 -225 -225 -225 -225 -225 -225 -209 -209 -209 -209 -209 -209 -225 -225 -225 -225 -225 -225 -225 -225 -225 -225 -225 -225 -225 -225 -225 -225 -225 -225 -225 -225 -225 -225 -225 -225 -225 -225 -225 -225 -225 -225 -225 -225 -225 -225 -225 -225 -225 -225 -225 -225 -225 -225 -225 -225 -225 -225 -225 -225 -225 -225 -225 -225 -225 -225 -225 -225 -225 -225 -225 -225 -225 -225 -225 -225 -225 -225 -225 -225 -225 -225 -225 -225 -225 -225 -225 -225 -225 -225 -225 -225 -225 -225 -225 -225 -225 -225 -225 -225 -225 -225 -225 -225 -225 -225 -225 -225 -225 -225 -225 -225 -225 -225 -225 -225 -225 -225 -225 -225 -225 -225 -225 -225 -225 -225 -225 -225 -225 -225 -225 -225 -225 -225 -225 -225 -225 -225 -225 -225 -225 -225 -225 -225 -225 -225 -225 -225 -225 -225 -209 -209 -209 -209 -209 -209 -209 -209 -209 -209 -209 -209 -209 -209 -209 -209 -209 -209 -209 -209 -209 -209 -209 -209 -209 -209 -209 -209 -209 -209 -209 -209 -193 -209 -193 -209 -209 303 -209 -209 -209 -209 312 313 312 310 311 310 313 312 312 312 311 313 0 0 0 0 0
    0 0 0 0 0 0 0 0 0 0 0 0 0 0 0 0 0 0 0 0 0 0 0 0 0 0 0 0 0 0 0 0 0 0 0 0 0 0 0 0 0 0 0 0 0 0 0 0 0 0 0 0 0 0 0 0 0 0 0 0 0 0 0 0 0 0 0 0 0 -225 -225 -225 -225 -225 -225 -225 -225 -225 -225 -225 -225 -225 -225 -225 -225 -225 -225 -225 -225 -225 -225 -225 -225 -225 -225 -225 -225 -225 -225 -225 -225 -225 -225 -225 -225 -225 -225 -225 -225 -225 -225 -225 -225 -225 -225 -225 -225 -225 -225 -225 -225 -225 -225 -225 -225 -225 -225 -225 -225 -225 -225 -225 -225 -225 -225 -225 -225 -225 -225 -225 -225 -225 -225 -225 -225 -225 -225 -225 -225 -225 -225 -225 -225 -225 -225 -225 -225 -225 -225 -225 -225 -225 -225 -225 -225 -225 -225 -225 -225 -225 -225 -225 -225 -225 -225 -225 -225 -225 -225 -225 -225 -225 -225 -225 -225 -225 -225 -225 -225 -225 -225 -225 -225 -225 -225 -225 -225 -225 -225 -225 -225 -225 -225 -225 -225 -225 -225 -225 -225 -225 -225 -225 -225 -225 -225 -225 -225 -225 -225 -225 -225 -225 -225 -225 -225 -225 -225 -225 -225 -225 -225 -225 -225 -225 -225 -225 -225 -225 -225 -225 -225 -225 -225 -225 -225 -225 -225 -225 -225 -225 -225 -225 -225 -225 -225 -225 -225 -225 -225 -225 -225 -225 -209 -209 -209 -209 -209 -209 -209 -209 -209 -209 11 17 -209 -209 -209 -209 -209 -209 -209 -209 -209 -209 -209 -209 -209 -209 -193 -177 -209 -209 -209 -193 -193 -193 297 299 304 -209 -193 -209 -209 314 315 316 313 314 312 314 314 314 316 314 315 0 0 0 0 0
    0 0 0 0 0 0 0 0 0 0 0 0 0 0 0 0 0 0 0 0 0 0 0 0 0 0 0 0 0 0 0 0 0 0 0 0 0 0 0 0 0 0 0 0 0 0 0 0 0 0 0 0 0 0 0 0 0 0 0 0 0 0 0 0 0 0 0 0 0 -225 -225 -225 -225 -225 -225 -225 -225 -225 -225 -225 -225 -225 -225 -225 -225 -225 -225 -225 -225 -225 -225 -225 -225 -225 -225 -225 -225 -225 -225 -225 -225 -225 -225 -225 -225 -225 -225 -225 -225 -225 -225 -225 -225 -225 -225 -225 -225 -225 -225 -225 -225 -225 -225 -225 -225 -225 -225 -225 -225 -225 -225 -225 -225 -225 -225 -225 -225 -225 -225 -225 -225 -225 -225 -225 -225 -225 -225 -225 -225 -225 -225 -225 -225 -225 -225 -225 -225 -225 -225 -225 -225 -225 -225 -225 -225 -225 -225 -225 -225 -225 -225 -225 -225 -225 -225 -225 -225 -225 -225 -225 -225 -225 -225 -225 -225 -225 -225 -225 -225 -225 -225 -225 -225 -225 -225 -225 -225 -225 -225 -225 -225 -225 -225 -225 -225 -225 -225 -225 -225 -225 -225 -225 -225 -225 -225 -225 -225 -225 -225 -225 -225 -225 -225 -225 -225 -225 -225 -225 -225 -225 -225 -225 -225 -225 -225 -225 -225 -225 -225 -225 -225 -225 -225 -225 -225 -225 -225 -225 -225 -225 -225 -225 -225 -225 -225 -225 -225 -225 -225 -225 -225 -209 -209 -209 -209 -209 -209 -209 -209 -209 -209 -209 15 20 22 22 21 12 -193 -209 -209 -209 -209 -209 -209 -209 -209 -209 -209 -193 -209 -209 -209 -209 -193 -193 297 300 308 -209 315 327 321 320 321 325 -209 -209 312 314 314 315 317 315 315 0 0 0 0 0
    0 0 0 0 0 0 0 0 0 0 0 0 0 0 0 0 0 0 0 0 0 0 0 0 0 0 0 0 0 0 0 0 0 0 0 0 0 0 0 0 0 0 0 0 0 0 0 0 0 0 0 0 0 0 0 0 0 0 0 0 0 0 0 0 0 0 0 0 0 -225 -225 -225 -225 -225 -225 -225 -225 -225 -225 -225 -225 -225 -225 -225 -225 -225 -225 -225 -225 -225 -225 -225 -225 -225 -225 -225 -225 -225 -225 -225 -225 -225 -225 -225 -225 -225 -225 -225 -225 -225 -225 -225 -225 -225 -225 -225 -225 -225 -225 -225 -225 -225 -225 -225 -225 -225 -225 -225 -225 -225 -225 -225 -225 -225 -225 -225 -225 -225 -225 -225 -225 -225 -225 -225 -225 -225 -225 -225 -225 -225 -225 -225 -225 -225 -225 -225 -225 -225 -225 -225 -225 -225 -225 -225 -225 -225 -225 -225 -225 -225 -225 -225 -225 -225 -225 -225 -225 -225 -225 -225 -225 -225 -225 -225 -225 -225 -225 -225 -225 -225 -225 -225 -225 -225 -225 -225 -225 -225 -225 -225 -225 -225 -225 -225 -225 -225 -225 -225 -225 -225 -225 -225 -225 -225 -225 -225 -225 -225 -225 -225 -225 -225 -225 -225 -225 -225 -225 -225 -225 -225 -225 -225 -225 -225 -225 -225 -225 -225 -225 -225 -225 -225 -225 -225 -225 -225 -225 -225 -225 -225 -225 -225 -225 -225 -225 -225 -225 -225 -225 -209 -209 -209 -209 -209 -209 -209 -209 -209 -209 -209 -209 -209 -209 -209 -209 19 18 9 -177 -177 -209 -209 -209 -209 -209 -209 -209 -209 -209 -193 -209 -209 -209 -209 -209 -193 -209 301 309 -209 314 325 320 320 323 327 -209 -209 -209 -209 316 317 319 316 316 0 0 0 0 0
    0 0 0 0 0 0 0 0 0 0 0 0 0 0 0 0 0 0 0 0 0 0 0 0 0 0 0 0 0 0 0 0 0 0 0 0 0 0 0 0 0 0 0 0 0 0 0 0 0 0 0 0 0 0 0 0 0 0 0 0 0 0 0 0 0 0 0 0 0 -225 -225 -225 -225 -225 -225 -225 -225 -225 -225 -225 -225 -225 -225 -225 -225 -225 -225 -225 -225 -225 -225 -225 -225 -225 -225 -225 -225 -225 -225 -225 -225 -225 -225 -225 -225 -225 -225 -225 -225 -225 -225 -225 -225 -225 -225 -225 -225 -225 -225 -225 -225 -225 -225 -225 -225 -225 -225 -225 -225 -225 -225 -225 -225 -225 -225 -225 -225 -225 -225 -225 -225 -225 -225 -225 -225 -225 -225 -225 -225 -225 -225 -225 -225 -225 -225 -225 -225 -225 -225 -225 -225 -225 -225 -225 -225 -225 -225 -225 -225 -225 -225 -225 -225 -225 -225 -225 -225 -225 -225 -225 -225 -225 -225 -225 -225 -225 -225 -225 -225 -225 -225 -225 -225 -225 -225 -225 -225 -225 -225 -225 -225 -225 -225 -225 -225 -225 -225 -225 -225 -225 -225 -225 -225 -225 -225 -225 -225 -225 -225 -225 -225 -225 -225 -225 -225 -225 -225 -225 -225 -225 -225 -225 -225 -225 -225 -225 -225 -225 -225 -225 -225 -225 -225 -225 -225 -225 -225 -225 -225 -225 -225 -225 -225 -225 -225 -225 -225 -225 -209 -209 -209 -209 -209 -209 -209 -209 -209 -209 -209 -209 -209 -209 -209 -209 -209 14 14 -193 -177 -177 -209 -209 -209 -209 -209 -209 -209 -209 -209 -209 -209 -209 -193 -209 -209 -193 -209 299 308 -193 314 322 320 321 325 329 -209 -209 -209 -209 -209 -209 -209 -209 319 0 0 0 0 0
    0 0 0 0 0 0 0 0 0 0 0 0 0 0 0 0 0 0 0 0 0 0 0 0 0 0 0 0 0 0 0 0 0 0 0 0 0 0 0 0 0 0 0 0 0 0 0 0 0 0 0 0 0 0 0 0 0 0 0 0 0 0 0 0 0 0 0 0 0 -225 -225 -225 -225 -225 -225 -225 -225 -225 -225 -225 -225 -225 -225 -225 -225 -225 -225 -225 -225 -225 -225 -225 -225 -225 -225 -225 -225 -225 -225 -225 -225 -225 -225 -225 -225 -225 -225 -225 -225 -225 -225 -225 -225 -225 -225 -225 -225 -225 -225 -225 -225 -225 -225 -225 -225 -225 -225 -225 -225 -225 -225 -225 -225 -225 -225 -225 -225 -225 -225 -225 -225 -225 -225 -225 -225 -225 -225 -225 -225 -225 -225 -225 -225 -225 -225 -225 -225 -225 -225 -225 -225 -225 -225 -225 -225 -225 -225 -225 -225 -225 -225 -225 -225 -225 -225 -225 -225 -225 -225 -225 -225 -225 -225 -225 -225 -225 -225 -225 -225 -225 -225 -225 -225 -225 -225 -225 -225 -225 -225 -225 -225 -225 -225 -225 -225 -225 -225 -225 -225 -225 -225 -225 -225 -225 -225 -225 -225 -225 -225 -225 -225 -225 -225 -225 -225 -225 -225 -225 -225 -225 -225 -225 -225 -225 -225 -225 -225 -225 -225 -225 -225 -225 -225 -225 -225 -225 -225 -225 -225 -225 -225 -225 -225 -225 -225 -225 -209 -209 -209 -209 -209 -209 -209 -209 -209 -209 -209 -209 -209 -209 -209 -209 -209 -209 -209 16 13 10 -177 -177 -177 -209 -209 -209 -209 -209 -209 -209 -209 -193 -209 -209 -193 -209 -209 279 291 -193 305 -193 315 320 321 321 325 329 329 -209 -209 -209 -209 612 -193 -209 -209 0 0 0 0 0
    0 0 0 0 0 0 0 0 0 0 0 0 0 0 0 0 0 0 0 0 0 0 0 0 0 0 0 0 0 0 0 0 0 0 0 0 0 0 0 0 0 0 0 0 0 0 0 0 0 0 0 0 0 0 0 0 0 0 0 0 0 0 0 0 0 0 0 0 0 -225 -225 -225 -225 -225 -225 -225 -225 -225 -225 -225 -225 -225 -225 -225 -225 -225 -225 -225 -225 -225 -225 -225 -225 -225 -225 -225 -225 -225 -225 -225 -225 -225 -225 -225 -225 -225 -225 -225 -225 -225 -225 -225 -225 -225 -225 -225 -225 -225 -225 -225 -225 -225 -225 -225 -225 -225 -225 -225 -225 -225 -225 -225 -225 -225 -225 -225 -225 -225 -225 -225 -225 -225 -225 -225 -225 -225 -225 -225 -225 -225 -225 -225 -225 -225 -225 -225 -225 -225 -225 -225 -225 -225 -225 -225 -225 -225 -225 -225 -225 -225 -225 -225 -225 -225 -225 -225 -225 -225 -225 -225 -225 -225 -225 -225 -225 -225 -225 -225 -225 -225 -225 -225 -225 -225 -225 -225 -225 -225 -225 -225 -225 -225 -225 -225 -225 -225 -225 -225 -225 -225 -225 -225 -225 -225 -225 -225 -225 -225 -225 -225 -225 -225 -225 -225 -225 -225 -225 -225 -225 -225 -225 -225 -225 -225 -225 -225 -225 -225 -225 -225 -225 -225 -225 -225 -225 -225 -225 -225 -225 -225 -225 -225 -225 -209 -209 -209 -209 -209 -209 -209 -209 -209 -209 -209 -209 -209 -209 -209 -209 -209 -209 -209 -209 -209 -209 15 13 11 -177 -177 -177 -209 -209 -209 -177 -209 -177 -209 -177 -177 -209 -209 -193 -209 -209 280 289 294 297 312 314 318 323 324 326 329 329 -209 -209 -209 -209 613 -193 -209 -209 0 0 0 0 0
    0 0 0 0 0 0 0 0 0 0 0 0 0 0 0 0 0 0 0 0 0 0 0 0 0 0 0 0 0 0 0 0 0 0 0 0 0 0 0 0 0 0 0 0 0 0 0 0 0 0 0 0 0 0 0 0 0 0 0 0 0 0 0 0 0 0 0 0 0 -225 -225 -225 -225 -225 -225 -225 -225 -225 -225 -225 -225 -225 -225 -225 -225 -225 -225 -225 -225 -225 -225 -225 -225 -225 -225 -225 -225 -225 -225 -225 -225 -225 -225 -225 -225 -225 -225 -225 -225 -225 -225 -225 -225 -225 -225 -225 -225 -225 -225 -225 -225 -225 -225 -225 -225 -225 -225 -225 -225 -225 -225 -225 -225 -225 -225 -225 -225 -225 -225 -225 -225 -225 -225 -225 -225 -225 -225 -225 -225 -225 -225 -225 -225 -225 -225 -225 -225 -225 -225 -225 -225 -225 -225 -225 -225 -225 -225 -225 -225 -225 -225 -225 -225 -225 -225 -225 -225 -225 -225 -225 -225 -225 -225 -225 -225 -225 -225 -225 -225 -225 -225 -225 -225 -225 -225 -225 -225 -225 -225 -225 -225 -225 -225 -225 -225 -225 -225 -225 -225 -225 -225 -225 -225 -225 -225 -225 -225 -225 -225 -225 -225 -225 -225 -225 -225 -225 -225 -225 -225 -225 -225 -225 -225 -225 -225 -225 -225 -225 -225 -225 -225 -225 -225 -225 -225 -225 -225 -225 -225 -225 -225 -225 -209 -209 -209 -209 -209 -209 -209 -209 -209 -209 -209 -209 -209 -209 -209 -209 -209 -209 -209 -209 -209 -209 -209 15 14 12 -177 -177 -177 -209 -209 -209 -177 -177 -209 -177 -177 -177 -209 -209 -209 -209 -209 281 290 -193 308 -193 315 317 324 326 327 330 331 330 -209 -209 -209 -209 -209 -209 -209 0 0 0 0 0
    0 0 0 0 0 0 0 0 0 0 0 0 0 0 0 0 0 0 0 0 0 0 0 0 0 0 0 0 0 0 0 0 0 0 0 0 0 0 0 0 0 0 0 0 0 0 0 0 0 0 0 0 0 0 0 0 0 0 0 0 0 0 0 0 0 0 0 0 0 -225 -225 -225 -225 -225 -225 -225 -225 -225 -225 -225 -225 -225 -225 -225 -225 -225 -225 -225 -225 -225 -225 -225 -225 -225 -225 -225 -225 -225 -225 -225 -225 -225 -225 -225 -225 -225 -225 -225 -225 -225 -225 -225 -225 -225 -225 -225 -225 -225 -225 -225 -225 -225 -225 -225 -225 -225 -225 -225 -225 -225 -225 -225 -225 -225 -225 -225 -225 -225 -225 -225 -225 -225 -225 -225 -225 -225 -225 -225 -225 -225 -225 -225 -225 -225 -225 -225 -225 -225 -225 -225 -225 -225 -225 -225 -225 -225 -225 -225 -225 -225 -225 -225 -225 -225 -225 -225 -225 -225 -225 -225 -225 -225 -225 -225 -225 -225 -225 -225 -225 -225 -225 -225 -225 -225 -225 -225 -225 -225 -225 -225 -225 -225 -225 -225 -225 -225 -225 -225 -225 -225 -225 -225 -225 -225 -225 -225 -225 -225 -225 -225 -225 -225 -225 -225 -225 -225 -225 -225 -225 -225 -225 -225 -225 -225 -225 -225 -225 -225 -225 -225 -225 -225 -225 -225 -225 -225 -225 -225 -225 -225 -225 -209 -209 -209 -209 -209 -209 -209 -209 -209 -209 -209 -209 -209 -209 -209 -209 -209 -209 -209 -209 -209 -209 -209 -209 12 13 -177 -177 -177 -177 -177 -209 -209 -177 -209 154 155 -177 -177 -177 -177 -209 -209 -209 -193 -209 301 -193 316 316 318 324 327 328 330 332 333 335 -209 -209 -209 -209 -209 -209 0 0 0 0 0
    0 0 0 0 0 0 0 0 0 0 0 0 0 0 0 0 0 0 0 0 0 0 0 0 0 0 0 0 0 0 0 0 0 0 0 0 0 0 0 0 0 0 0 0 0 0 0 0 0 0 0 0 0 0 0 0 0 0 0 0 0 0 0 0 0 0 0 0 0 -225 -225 -225 -225 -225 -225 -225 -225 -225 -225 -225 -225 -225 -225 -225 -225 -225 -225 -225 -225 -225 -225 -225 -225 -225 -225 -225 -225 -225 -225 -225 -225 -225 -225 -225 -225 -225 -225 -225 -225 -225 -225 -225 -225 -225 -225 -225 -225 -225 -225 -225 -225 -225 -225 -225 -225 -225 -225 -225 -225 -225 -225 -225 -225 -225 -225 -225 -225 -225 -225 -225 -225 -225 -225 -225 -225 -225 -225 -225 -225 -225 -225 -225 -225 -225 -225 -225 -225 -225 -225 -225 -225 -225 -225 -225 -225 -225 -225 -225 -225 -225 -225 -225 -225 -225 -225 -225 -225 -225 -225 -225 -225 -225 -225 -225 -225 -225 -225 -225 -225 -225 -225 -225 -225 -225 -225 -225 -225 -225 -225 -225 -225 -225 -225 -225 -225 -225 -225 -225 -225 -225 -225 -225 -225 -225 -225 -225 -225 -225 -225 -225 -225 -225 -225 -225 -225 -225 -225 -225 -225 -225 -225 -225 -225 -225 -225 -225 -225 -225 -225 -225 -225 -225 -225 -225 -225 -225 -225 -225 -225 -225 -225 -209 -209 -209 -209 -209 -209 -209 -209 -209 -209 -209 -209 -209 -209 -209 -209 -209 -209 -209 -209 -209 -209 -209 -209 -209 12 13 -177 -177 -177 -177 -209 -209 -209 -209 -193 155 -193 -177 -177 -177 -209 -209 -209 -209 -209 -209 315 318 317 317 324 329 330 333 333 336 339 -209 -209 -209 346 -209 -209 0 0 0 0 0
    0 0 0 0 0 0 0 0 0 0 0 0 0 0 0 0 0 0 0 0 0 0 0 0 0 0 0 0 0 0 0 0 0 0 0 0 0 0 0 0 0 0 0 0 0 0 0 0 0 0 0 0 0 0 0 0 0 0 0 0 0 0 0 0 0 0 0 0 0 -225 -225 -225 -225 -225 -225 -225 -225 -225 -225 -225 -225 -225 -225 -225 -225 -225 -225 -225 -225 -225 -225 -225 -225 -225 -225 -225 -225 -225 -225 -225 -225 -225 -225 -225 -225 -225 -225 -225 -225 -225 -225 -225 -225 -225 -225 -225 -225 -225 -225 -225 -225 -225 -225 -225 -225 -225 -225 -225 -225 -225 -225 -225 -225 -225 -225 -225 -225 -225 -225 -225 -225 -225 -225 -225 -225 -225 -225 -225 -225 -225 -225 -225 -225 -225 -225 -225 -225 -225 -225 -225 -225 -225 -225 -225 -225 -225 -225 -225 -225 -225 -225 -225 -225 -225 -225 -225 -225 -225 -225 -225 -225 -225 -225 -225 -225 -225 -225 -225 -225 -225 -225 -225 -225 -225 -225 -225 -225 -225 -225 -225 -225 -225 -225 -225 -225 -225 -225 -225 -225 -225 -225 -225 -225 -225 -225 -225 -225 -225 -225 -225 -225 -225 -225 -225 -225 -225 -225 -225 -225 -225 -225 -225 -225 -225 -225 -225 -225 -225 -225 -225 -225 -225 -225 -225 -225 -225 -225 -225 -225 -225 -209 -209 -209 -209 -209 -209 -209 -209 -209 -209 -209 -209 -209 -209 -209 -209 -209 -209 -209 -209 -209 -209 -209 -209 -209 -209 -209 -209 -209 -209 -209 -209 -209 -209 -209 -209 -193 -209 -209 -209 -209 -193 -209 -209 -209 -209 -209 -209 318 323 318 316 323 329 332 -209 -209 -209 -209 -209 345 347 348 349 348 0 0 0 0 0</data></disparity>
</opencv_storage>
