# .PCD v0.7 - Point Cloud Data file format
VERSION 0.7
FIELDS x y z rgba
SIZE 4 4 4 4
TYPE F F F U
COUNT 1 1 1 1
WIDTH 1137
HEIGHT 1
VIEWPOINT 0 0 0 1 0 0 0
POINTS 1137
DATA ascii
-0.58161068 -0.52389026 2.5742412 16711680
-0.52442831 -0.52112228 2.5786965 16711680
-0.45864579 -0.52828282 2.585572 16711680
-0.42656738 -0.52044064 2.5864065 16711680
-0.38454339 -0.53619975 2.5803423 16711680
-0.31704828 -0.52352315 2.5679784 16711680
-0.27907014 -0.52974868 2.5702264 16711680
-0.19220924 -0.50975698 2.5767794 16711680
-0.12648718 -0.53941822 2.5780048 16711680
-0.054672193 -0.50801826 2.5934319 16711680
-0.031353746 -0.52964735 2.5730293 16711680
0.0016060055 -0.5198341 2.5597711 16711680
0.21393427 -0.50665593 2.5684657 16711680
0.30146635 -0.50566125 2.5633008 16711680
-0.71748388 -0.49251699 2.5932174 16711680
-0.67980093 -0.47958913 2.5927162 16711680
-0.62731677 -0.47978052 2.5881705 16711680
-0.57946694 -0.48371109 2.5823069 16711680
-0.53035122 -0.47767636 2.5751088 16711680
-0.46426281 -0.47297704 2.5842528 16711680
-0.43294582 -0.4958702 2.5840135 16711680
-0.28911841 -0.4885985 2.5688689 16711680
-0.19350891 -0.49474517 2.5754709 16711680
-0.051982 -0.48109275 2.5903425 16711680
-0.0086410623 -0.49039906 2.5671535 16711680
0.21903375 -0.47537318 2.5701358 16711680
0.28096202 -0.4703095 2.5679862 16711680
0.30339175 -0.47538221 2.5648274 16711680
-0.72742748 -0.40922335 2.5956178 16711680
-0.68308842 -0.40423724 2.5789261 16711680
-0.62908471 -0.41267437 2.578259 16711680
-0.51179993 -0.42317367 2.5874805 16711680
0.1399639 -0.42928886 2.5684249 16711680
0.1743336 -0.42941841 2.5700531 16711680
0.22058281 -0.42558584 2.5691552 16711680
0.28738743 -0.42753449 2.5659621 16711680
0.31134811 -0.43240741 2.5683515 16711680
0.35210085 -0.42267001 2.5567203 16711680
1.1420428 -0.40203217 2.5668545 16711680
-0.65981525 -0.37154341 2.5905166 16711680
0.15783086 -0.39220074 2.565973 16711680
0.22019832 -0.37651119 2.5707321 16711680
0.28300118 -0.38528687 2.5586276 16711680
0.34389558 -0.37294108 2.5565586 16711680
1.0057735 -0.38394782 2.5635054 16711680
-0.74532706 -0.33335733 2.5967338 16711680
-0.68054217 -0.32994366 2.5708957 16711680
-0.6429826 -0.33815587 2.5780034 16711680
-0.37213328 -0.32504645 2.5808141 16711680
-0.069489986 -0.29136047 2.5622835 16711680
-0.080625519 -0.22173792 2.5739412 16711680
0.96861976 -0.2458314 2.5636377 16711680
-0.082928844 -0.18889837 2.5874131 16711680
0.23075868 -0.18924916 2.5599215 16711680
0.35182506 -0.183038 2.5537393 16711680
1.0333896 -0.19129577 2.5713899 16711680
1.0790612 -0.18360633 2.5668545 16711680
-0.35377699 -0.1066846 2.5617993 16711680
-0.058260042 -0.11294317 2.5742731 16711680
-0.023924887 -0.11027631 2.5712364 16711680
0.21838629 -0.12577344 2.5653877 16711680
0.62260985 -0.11843464 2.562387 16711680
-0.70932543 -0.057002015 2.5821292 16711680
-0.67946398 -0.070103571 2.5655813 16711680
-0.42464542 -0.053199332 2.5922511 16711680
-0.37126657 -0.054498978 2.5666447 16711680
-0.3181752 -0.080221474 2.5661297 16711680
-0.28420275 -0.070774525 2.5716603 16711680
-0.087106839 -0.081558168 2.5916836 16711680
-0.045755319 -0.078533061 2.5675483 16711680
0.2095136 -0.075696446 2.5709808 16711680
0.45505214 -0.075072579 2.5673137 16711680
0.96506679 -0.055293471 2.5549812 16711680
-0.77518576 -0.013935135 2.5961363 16711680
-0.73865885 -0.029796669 2.5755954 16711680
-0.6804058 -0.0053815832 2.5668545 16711680
-0.64768571 -0.015397951 2.5883033 16711680
-0.36967722 -0.037539113 2.5809493 16711680
-0.32638627 -0.023429489 2.5766876 16711680
-0.29873139 -0.000625443 2.5804191 16711680
-0.11152256 -0.024702149 2.5861447 16711680
-0.042211138 -0.0043946025 2.5934365 16711680
0.043557405 -0.017947007 2.58937 16711680
0.056002244 -0.01501827 2.5703933 16711680
0.45167273 -0.01763792 2.5565386 16711680
0.63835943 -0.011685615 2.5547833 16711680
0.96054876 -0.020885779 2.5615416 16711680
-0.75203043 0.012096615 2.5850911 16711680
-0.37360635 0.029614234 2.5781047 16711680
-0.3320969 0.0052909581 2.5758996 16711680
-0.069365725 0.034111306 2.5710635 16711680
-0.037188672 0.016058989 2.5668545 16711680
0.44380814 0.014659393 2.5558062 16711680
0.94626737 0.0025379942 2.5686524 16711680
-0.65365398 0.069087043 2.5913284 16711680
-0.6432544 0.071653605 2.5791907 16711680
-0.058629241 0.069660418 2.5668545 16711680
-0.026468385 0.058940131 2.5668545 16711680
-0.65591538 0.1111922 2.5954986 16711680
-0.10813595 0.1295484 2.5688546 16711680
-0.059188284 0.10406157 2.5686398 16711680
-0.026686044 0.13669808 2.567457 16711680
-0.1247057 0.18595904 2.5761361 16711680
-0.080520526 0.16733319 2.5702903 16711680
-0.041875623 0.17290486 2.5803223 16711680
-0.12492034 0.24257612 2.5774577 16711680
-0.068745099 0.23543447 2.5713539 16711680
1.8517638 0.21526429 2.5891061 16711680
-0.70004082 0.29346821 2.5994625 16711680
-0.13261223 0.27423319 2.5820069 16711680
-0.08152546 0.28327698 2.571192 16711680
1.9120204 0.28049827 2.5684636 16711680
-0.12360385 0.32195744 2.5841143 16711680
0.33675051 0.32141805 2.566036 16711680
1.1771463 0.3458052 2.5853119 16711680
-0.68486661 0.39191061 2.5699823 16711680
-0.11378518 0.3621307 2.5869703 16711680
0.22827761 0.37740436 2.5659411 16711680
0.27073836 0.37087381 2.5608029 16711680
0.30091351 0.39500993 2.559839 16711680
0.38779831 0.35275826 2.565907 16711680
-0.46600011 0.44487041 2.5668545 16711680
-0.11131699 0.42125455 2.5869167 16711680
0.14101513 0.44033399 2.5640335 16711680
0.18991584 0.41321728 2.5651956 16711680
0.2288298 0.41876602 2.5591671 16711680
-0.44475612 0.49716967 2.5799754 16711680
-0.36115623 0.48903269 2.5726988 16711680
-0.31927779 0.47875804 2.5741453 16711680
-0.28838581 0.48902529 2.5698903 16711680
-0.16047196 0.48239142 2.5668545 16711680
-0.13513397 0.47079265 2.5954249 16711680
0.1786648 0.465736 2.5675786 16711680
0.22039178 0.46312526 2.5594935 16711680
0.28414527 0.49277291 2.5662162 16711680
-0.49906284 0.50322336 2.5814493 16711680
-0.36511818 0.50570804 2.5727551 16711680
-0.33217981 0.52681679 2.5738373 16711680
-0.27708983 0.50967985 2.5717807 16711680
-0.11918882 0.52574158 2.5663593 16711680
-0.086471587 0.51842934 2.5689089 16711680
0.13434076 0.53116488 2.562427 16711680
0.18276317 0.51340371 2.5630791 16711680
0.29441261 0.51169187 2.5552313 16711680
-0.091689408 0.56376857 2.5610378 16711680
0.12757097 0.57247454 2.5605843 16711680
0.17710504 0.57929134 2.5594916 16711680
-0.1574854 0.61400378 2.5826983 16711680
-0.14029814 0.6192705 2.5831156 16711680
0.12718602 0.60028762 2.5595012 16711680
0.16431496 0.6244182 2.5673814 16711680
-0.5755989 -1.1155357 2.6416733 16711680
-0.79787922 -1.0903717 2.6387739 16711680
-0.71653926 -1.0550331 2.6463654 16711680
-0.67556202 -1.0644847 2.6401687 16711680
-0.6199618 -1.067436 2.6334872 16711680
-0.58112282 -1.0721691 2.6214831 16711680
-0.48030746 -1.0906007 2.6056724 16711680
-0.39015228 -1.0540011 2.6122046 16711680
-0.31783465 -1.0641397 2.6216815 16711680
-0.2893773 -1.0612235 2.6323597 16711680
-0.24621081 -1.0692393 2.6272485 16711680
-0.18608074 -1.0612121 2.6135607 16711680
-0.14953102 -1.0710598 2.6197145 16711680
-0.083663791 -1.0532372 2.6127472 16711680
0.026669528 -1.0528027 2.6051619 16711680
0.058364805 -1.0502746 2.602675 16711680
0.14037037 -1.0696093 2.6057587 16711680
0.19907321 -1.0649625 2.6027839 16711680
-0.75339651 -1.0373411 2.6123695 16711680
-0.71494848 -1.0126282 2.644839 16711680
-0.66547096 -1.0220051 2.6332676 16711680
-0.61770415 -1.0344478 2.6361878 16711680
-0.57104951 -1.013644 2.6402831 16711680
-0.52569097 -1.0216352 2.6314278 16711680
-0.4813627 -1.0209091 2.6185114 16711680
-0.41932145 -1.0177101 2.6236351 16711680
-0.36274579 -1.0245255 2.6153157 16711680
-0.33229604 -1.0242203 2.6237454 16711680
-0.27770713 -1.0255879 2.6284893 16711680
-0.22370638 -1.0272927 2.618783 16711680
-0.17262973 -1.0154903 2.6306431 16711680
-0.12433801 -1.0061591 2.6312997 16711680
-0.077400014 -1.0112491 2.6133754 16711680
-0.023724273 -1.0118881 2.6156659 16711680
0.011307032 -1.0165144 2.6175568 16711680
0.071743459 -1.0156268 2.6144085 16711680
0.11879621 -1.0130485 2.6133459 16711680
0.17736386 -1.0178456 2.6041758 16711680
0.21397181 -1.0136496 2.6020427 16711680
0.26479906 -1.0108774 2.6009908 16711680
-0.72901982 -0.98699921 2.6406481 16711680
-0.67891693 -0.98630601 2.6395311 16711680
-0.62038553 -0.97589874 2.6309106 16711680
-0.57296628 -0.9739027 2.6357787 16711680
-0.52653158 -0.9848361 2.6314483 16711680
-0.47452813 -0.97167647 2.6285529 16711680
-0.42362761 -0.97233343 2.6264896 16711680
-0.37285349 -0.97239578 2.6228902 16711680
-0.32056811 -0.97822565 2.617152 16711680
-0.27347654 -0.97685283 2.6263833 16711680
-0.22670037 -0.97738737 2.6286919 16711680
-0.17331649 -0.97341877 2.6343064 16711680
-0.12519634 -0.97327518 2.6177809 16711680
-0.08173722 -0.97757918 2.6160762 16711680
-0.02515625 -0.98562485 2.6172464 16711680
0.027029157 -0.96736252 2.6153526 16711680
0.07504148 -0.97576159 2.611304 16711680
0.13048114 -0.97853488 2.6086125 16711680
0.18704057 -0.99331474 2.6030431 16711680
0.20664804 -0.98202842 2.6006708 16711680
0.30339709 -0.9990322 2.600961 16711680
-0.71054196 -0.90648651 2.6375542 16711680
-0.66712952 -0.912687 2.6348355 16711680
-0.62262398 -0.92455029 2.6350405 16711680
-0.57382476 -0.91994596 2.6294184 16711680
-0.5240857 -0.92273051 2.628757 16711680
-0.46876132 -0.9170174 2.6288598 16711680
-0.43316475 -0.93326384 2.6234019 16711680
-0.36600846 -0.92932445 2.6398742 16711680
-0.31431675 -0.92431128 2.629334 16711680
-0.27486694 -0.92086303 2.6221726 16711680
-0.22817251 -0.92443395 2.6231389 16711680
-0.17624784 -0.92628765 2.6276777 16711680
-0.13337831 -0.93444204 2.6140575 16711680
-0.008780024 -0.90619117 2.617167 16711680
0.01750629 -0.92467988 2.6146581 16711680
0.068860196 -0.94210339 2.6150591 16711680
0.13992393 -0.94544709 2.6076717 16711680
0.19603871 -0.94537038 2.6007822 16711680
-0.76985198 -0.86315084 2.6438034 16711680
-0.72950268 -0.86507207 2.6330051 16711680
-0.67394465 -0.8761915 2.6329088 16711680
-0.6260618 -0.87802827 2.6281335 16711680
-0.57379234 -0.87550604 2.634732 16711680
-0.52277088 -0.87629348 2.6271222 16711680
-0.47589427 -0.87302089 2.6251924 16711680
-0.42548957 -0.87616724 2.6253574 16711680
-0.3713598 -0.87111682 2.6237762 16711680
-0.31949288 -0.87609679 2.6279335 16711680
-0.28373542 -0.87661254 2.6322091 16711680
-0.21524306 -0.87997955 2.6366632 16711680
-0.17452012 -0.8890903 2.6252422 16711680
-0.0076504922 -0.87750244 2.6128109 16711680
0.015201051 -0.88503408 2.6065404 16711680
-0.81881678 -0.8364343 2.6443901 16711680
-0.78738499 -0.83387923 2.6374619 16711680
-0.72802323 -0.814134 2.6274273 16711680
-0.67587346 -0.8267172 2.6331985 16711680
-0.6293385 -0.82711482 2.6309068 16711680
-0.57800418 -0.82981223 2.6288664 16711680
-0.52467561 -0.82948756 2.6323016 16711680
-0.47833383 -0.82809538 2.6265192 16711680
-0.42024273 -0.82886416 2.6298125 16711680
-0.37062189 -0.82817769 2.632828 16711680
-0.33577424 -0.83124018 2.6187522 16711680
-0.28198531 -0.82607776 2.63849 16711680
-0.23996688 -0.82855248 2.631618 16711680
-0.16265216 -0.83802891 2.6302598 16711680
-0.012406651 -0.82450014 2.6001799 16711680
-0.8212747 -0.77584708 2.64449 16711680
-0.78895378 -0.7669614 2.6342499 16711680
-0.72362143 -0.77717543 2.6311457 16711680
-0.67864197 -0.7758044 2.6349576 16711680
-0.62911135 -0.77230197 2.6296616 16711680
-0.57470876 -0.77728742 2.6289134 16711680
-0.5241791 -0.78045499 2.6256773 16711680
-0.47914821 -0.77334201 2.6253276 16711680
-0.43375862 -0.77836847 2.6298769 16711680
-0.37299067 -0.77514201 2.6296568 16711680
-0.32051909 -0.77936721 2.636893 16711680
-0.29812133 -0.76844084 2.6209908 16711680
-0.24566096 -0.76977992 2.6302586 16711680
-0.10196111 -0.77851546 2.6098597 16711680
-0.79071343 -0.72410887 2.6329103 16711680
-0.71432126 -0.72397864 2.6235938 16711680
-0.67639697 -0.72384703 2.6372123 16711680
-0.63184994 -0.72891569 2.6373806 16711680
-0.57966501 -0.72876287 2.6319029 16711680
-0.52417731 -0.72965378 2.6305394 16711680
-0.47698322 -0.72477412 2.6287405 16711680
-0.43311316 -0.73219031 2.6267953 16711680
-0.36498147 -0.72320861 2.6320643 16711680
-0.32468027 -0.72312152 2.6255386 16711680
-0.27636304 -0.7094546 2.6123192 16711680
-0.23813084 -0.70968872 2.6243327 16711680
-0.18950832 -0.70876181 2.6092436 16711680
-0.026939932 -0.72098923 2.6034598 16711680
-0.80693811 -0.67014438 2.6424956 16711680
-0.76447928 -0.6654219 2.6244175 16711680
-0.72299856 -0.6771121 2.6220169 16711680
-0.67671639 -0.67223078 2.6317923 16711680
-0.63548225 -0.67781913 2.6346676 16711680
-0.58165348 -0.67391837 2.6308064 16711680
-0.52786458 -0.68086153 2.6295383 16711680
-0.47724703 -0.68070549 2.6323373 16711680
-0.43596089 -0.67919588 2.6264079 16711680
-0.36261949 -0.68468004 2.6344194 16711680
-0.32946584 -0.67613071 2.6326485 16711680
-0.26719847 -0.6604352 2.6203938 16711680
-0.22969799 -0.67722642 2.6255028 16711680
-0.1728586 -0.66970408 2.6231384 16711680
-0.056583673 -0.68237144 2.6160016 16711680
-0.03294266 -0.66945022 2.6095629 16711680
0.048700988 -0.65518486 2.6046801 16711680
0.054257262 -0.68711638 2.6099627 16711680
-0.85025018 -0.60520852 2.6445656 16711680
-0.81292927 -0.61416352 2.6386437 16711680
-0.77043653 -0.62871122 2.6343453 16711680
-0.72995824 -0.62927419 2.6213272 16711680
-0.6765545 -0.62829089 2.6265936 16711680
-0.62071288 -0.63049418 2.6248319 16711680
-0.57995629 -0.62151515 2.6288428 16711680
-0.52717441 -0.63312733 2.6352508 16711680
-0.47612596 -0.62719649 2.6313424 16711680
-0.43592778 -0.63575643 2.6266127 16711680
-0.36995831 -0.6356464 2.6343634 16711680
-0.32378125 -0.62272352 2.6284406 16711680
-0.27558687 -0.62949717 2.6295993 16711680
-0.22807485 -0.63256818 2.6230931 16711680
-0.17858757 -0.64133394 2.6271908 16711680
-0.051998537 -0.60963601 2.6206796 16711680
-0.048319757 -0.63162249 2.6055763 16711680
0.050391536 -0.63367862 2.6083608 16711680
-0.85297054 -0.5821417 2.6447315 16711680
-0.82597136 -0.58037478 2.6363904 16711680
-0.76608914 -0.57002085 2.6277459 16711680
-0.71077257 -0.56943804 2.6274421 16711680
-0.666816 -0.57770073 2.6305444 16711680
-0.62261188 -0.57833534 2.6354902 16711680
-0.5700599 -0.57122618 2.6300859 16711680
-0.52557123 -0.59146923 2.6329079 16711680
-0.47462839 -0.57498682 2.6325562 16711680
-0.4366124 -0.5537535 2.6169846 16711680
-0.3735812 -0.57392132 2.6102476 16711680
-0.32714191 -0.57553113 2.6280572 16711680
-0.2932584 -0.56717676 2.6082239 16711680
-0.19830263 -0.59520823 2.6293559 16711680
-0.86082673 -0.52934682 2.6447754 16711680
-0.82161582 -0.5188936 2.6346195 16711680
-0.76504916 -0.52177006 2.6279423 16711680
-0.71753097 -0.51571721 2.6271768 16711680
-0.67162788 -0.52724403 2.6390901 16711680
-0.61003113 -0.52909136 2.6321564 16711680
-0.57847196 -0.52757633 2.6308515 16711680
-0.53475535 -0.54416859 2.6249888 16711680
-0.46667457 -0.52175796 2.6415448 16711680
-0.44382608 -0.52374721 2.6348469 16711680
-0.36552161 -0.51550448 2.6106884 16711680
-0.32360217 -0.51936638 2.6253397 16711680
-0.29142395 -0.50199419 2.6079369 16711680
-0.82840008 -0.48932996 2.6415429 16711680
-0.77731913 -0.47385308 2.6328773 16711680
-0.72008198 -0.47242206 2.6276853 16711680
-0.66610575 -0.48067942 2.6256917 16711680
-0.61997145 -0.47372013 2.6306245 16711680
-0.57909417 -0.47653958 2.6259553 16711680
-0.52993202 -0.49165994 2.6296017 16711680
-0.48409808 -0.46789297 2.6253908 16711680
-0.44313559 -0.4959006 2.6217184 16711680
-0.35766497 -0.48611319 2.6123662 16711680
-0.32114416 -0.47915649 2.6314917 16711680
-0.26410723 -0.45650002 2.6227922 16711680
-0.7577315 -0.43093622 2.6169558 16711680
-0.73956847 -0.41251653 2.6002653 16711680
-0.62180644 -0.44454956 2.6376302 16711680
-0.57587296 -0.43992195 2.6335206 16711680
-0.54997873 -0.42408976 2.6312995 16711680
-0.33425945 -0.43191072 2.6306057 16711680
-0.26496565 -0.44581419 2.622752 16711680
-0.21390003 -0.42679763 2.6132843 16711680
-0.81778759 -0.35938197 2.6384239 16711680
-0.77949089 -0.38617548 2.6164386 16711680
-0.72053957 -0.3632583 2.6134145 16711680
-0.68897635 -0.35949215 2.629957 16711680
-0.56446743 -0.37739468 2.6325305 16711680
-0.82224905 -0.30597118 2.637722 16711680
-0.69125718 -0.33065489 2.6202877 16711680
-0.27026919 -0.30455115 2.612299 16711680
-0.092293419 -0.32400283 2.6079609 16711680
-0.8132534 -0.28507304 2.6146648 16711680
1.2066449 -0.25615668 2.6447172 16711680
1.2602742 -0.24002147 2.6460066 16711680
-0.070164733 -0.17977631 2.6085844 16711680
-0.68141001 -0.070519552 2.6110151 16711680
-0.82412869 -0.026472885 2.6326375 16711680
-0.77212965 -0.01272325 2.6046877 16711680
-0.79565132 0.012017933 2.6024005 16711680
-0.40994328 0.035997313 2.6296148 16711680
-0.33381456 0.022634806 2.6279147 16711680
1.1798859 0.033200875 2.6420383 16711680
-0.87460482 0.057597663 2.6451616 16711680
-0.84401786 0.072017021 2.6427615 16711680
-0.42453343 0.08481238 2.6290717 16711680
-0.37300357 0.078399479 2.6308763 16711680
-0.32526642 0.062869243 2.6256266 16711680
-0.06964279 0.055056244 2.6019235 16711680
-0.87745887 0.12742701 2.6452465 16711680
-0.86061728 0.15336193 2.6316855 16711680
-0.86962736 0.22396284 2.6377354 16711680
-0.53546643 0.21416277 2.6432421 16711680
-0.10638956 0.23017716 2.6004589 16711680
-0.40141609 0.58636528 2.6080744 16711680
-0.36600125 0.59149641 2.6126966 16711680
-0.34434026 0.6388855 2.6156411 16711680
-0.14262909 0.6774413 2.6065779 16711680
0.82524979 -1.2078459 2.6735897 16711680
0.81497872 -1.1750722 2.6903691 16711680
0.61736989 -1.1373645 2.6977954 16711680
0.73794901 -1.1340913 2.6984944 16711680
0.76601642 -1.1353103 2.695715 16711680
0.8178618 -1.141356 2.6908967 16711680
0.85847461 -1.1100966 2.6786973 16711680
0.93683714 -1.118095 2.6662431 16711680
0.96868896 -1.104739 2.6735883 16711680
1.0101113 -1.1161439 2.6962552 16711680
-0.79447424 -1.0549884 2.6710598 16711680
-0.61840481 -1.0603718 2.6610334 16711680
-0.49389812 -1.0627946 2.6828458 16711680
-0.25406566 -1.0548716 2.6505275 16711680
0.72686881 -1.0695733 2.6915519 16711680
0.77589196 -1.0854188 2.6860015 16711680
0.94176698 -1.0940859 2.69684 16711680
0.97831339 -1.0710115 2.6738937 16711680
1.0326452 -1.0770324 2.6822317 16711680
1.0647643 -1.0663075 2.6652095 16711680
-0.8051182 -1.0190964 2.6717956 16711680
-0.77103019 -1.03408 2.6830935 16711680
-0.66856098 -1.0198413 2.6805747 16711680
-0.62205011 -1.0212756 2.6701636 16711680
-0.58015227 -1.0326613 2.6838596 16711680
-0.52133358 -1.031794 2.6712599 16711680
-0.46932498 -1.0409169 2.6666949 16711680
-0.42968839 -1.0243685 2.6685233 16711680
-0.36520272 -1.0268447 2.6661613 16711680
-0.32699922 -1.0174706 2.6630161 16711680
-0.26687178 -1.0323254 2.65675 16711680
-0.21901956 -1.0286326 2.653151 16711680
0.74663824 -1.0267949 2.6990545 16711680
0.97770578 -1.0343988 2.6768763 16711680
1.0258425 -1.0380871 2.6900966 16711680
-0.76804799 -0.9822343 2.6889079 16711680
-0.72253162 -0.97638226 2.6676886 16711680
-0.67792088 -0.97252083 2.6819839 16711680
-0.62399876 -0.97483224 2.6744328 16711680
-0.57231688 -0.97813797 2.684227 16711680
-0.52044624 -0.97261232 2.6790564 16711680
-0.47994807 -0.98582989 2.6660011 16711680
-0.42777967 -0.98087186 2.662931 16711680
-0.37481835 -0.97851449 2.6624243 16711680
-0.32884541 -0.97171909 2.659445 16711680
-0.27404004 -0.96146637 2.6561542 16711680
-0.23516162 -0.96958256 2.654675 16711680
0.62602741 -0.97866327 2.6997731 16711680
0.94663072 -0.95652485 2.6648581 16711680
0.96905249 -0.97984904 2.6837616 16711680
-0.76236969 -0.93432295 2.6786046 16711680
-0.72202653 -0.92993009 2.6764789 16711680
-0.67054504 -0.91956097 2.6740077 16711680
-0.62621826 -0.92807943 2.6717465 16711680
-0.57880008 -0.93130678 2.6749821 16711680
-0.52583772 -0.92239571 2.6724544 16711680
-0.47481123 -0.92564386 2.6632965 16711680
-0.43238005 -0.93176347 2.664608 16711680
-0.37723544 -0.92523015 2.6627848 16711680
-0.32922921 -0.92465144 2.6572683 16711680
-0.28809935 -0.92257011 2.655479 16711680
-0.23304857 -0.91832227 2.6510065 16711680
0.92922872 -0.91534066 2.6933546 16711680
0.95794821 -0.93849111 2.6937752 16711680
1.0341924 -0.92735207 2.686516 16711680
-0.78929478 -0.89590645 2.6972015 16711680
-0.74917483 -0.85741687 2.6502101 16711680
-0.66982281 -0.87822551 2.6723666 16711680
-0.63378602 -0.87629747 2.6751564 16711680
-0.57012486 -0.87591082 2.6762288 16711680
-0.51914716 -0.88004369 2.6736288 16711680
-0.47891393 -0.87710387 2.6642833 16711680
-0.42526746 -0.87608528 2.6640892 16711680
-0.3716526 -0.87658286 2.6587994 16711680
-0.3232429 -0.87506062 2.6561732 16711680
-0.27368954 -0.86702514 2.6562147 16711680
-0.24271026 -0.86302584 2.6525528 16711680
-0.77970845 -0.8257156 2.6833105 16711680
-0.70198876 -0.80800474 2.6601748 16711680
-0.66042554 -0.82468194 2.6718225 16711680
-0.62331092 -0.82424033 2.6725004 16711680
-0.57997304 -0.82657951 2.6741245 16711680
-0.53038788 -0.83256072 2.6717434 16711680
-0.47839394 -0.83345109 2.6641057 16711680
-0.42344165 -0.82685775 2.6610868 16711680
-0.36341494 -0.83002019 2.6562495 16711680
-0.31197792 -0.83500791 2.6599183 16711680
-0.28390819 -0.83513683 2.6564488 16711680
-0.24656148 -0.82032734 2.65166 16711680
-0.70232165 -0.77134311 2.6783397 16711680
-0.67704201 -0.77284604 2.6769104 16711680
-0.62742609 -0.77733433 2.6723351 16711680
-0.57521331 -0.77668232 2.6709146 16711680
-0.53123599 -0.77794552 2.6687522 16711680
-0.47479135 -0.78274155 2.6622126 16711680
-0.43050966 -0.77943152 2.6625268 16711680
-0.38024652 -0.78240061 2.6595349 16711680
-0.33758658 -0.7719568 2.658251 16711680
-0.29327279 -0.77600116 2.6560476 16711680
-0.24993131 -0.78296614 2.6508784 16711680
-0.71602744 -0.71866965 2.674531 16711680
-0.67423433 -0.72433794 2.6782751 16711680
-0.62856644 -0.7277441 2.6717076 16711680
-0.57478637 -0.7259984 2.667264 16711680
-0.52500916 -0.73115444 2.6687448 16711680
-0.47149977 -0.72894096 2.6602664 16711680
-0.42134202 -0.72615266 2.6605873 16711680
-0.3806076 -0.73112506 2.6585562 16711680
-0.32300043 -0.72642803 2.6577606 16711680
1.0147698 -0.72937858 2.6871591 16711680
-0.75943762 -0.66715425 2.6699657 16711680
-0.7193718 -0.66817725 2.678556 16711680
-0.67327857 -0.66986471 2.6747026 16711680
-0.62447399 -0.67676735 2.6745086 16711680
-0.56857371 -0.67695695 2.6678257 16711680
-0.52903283 -0.67786127 2.6677842 16711680
-0.47413251 -0.68151772 2.6628425 16711680
-0.42488566 -0.67832625 2.6616664 16711680
-0.37850952 -0.67586601 2.6596622 16711680
-0.33181784 -0.68264163 2.6574326 16711680
-0.29803345 -0.68116009 2.6528387 16711680
0.99819613 -0.66791242 2.687834 16711680
1.0170881 -0.66627014 2.6857595 16711680
-0.81824982 -0.62626588 2.6903887 16711680
-0.75962126 -0.63468611 2.6690726 16711680
-0.72132605 -0.62122083 2.6771665 16711680
-0.67156351 -0.62577099 2.6743908 16711680
-0.62538356 -0.62637925 2.6701968 16711680
-0.57263416 -0.63156056 2.6662595 16711680
-0.52510035 -0.6209963 2.665884 16711680
-0.47804749 -0.62990206 2.6595178 16711680
-0.42669088 -0.6329307 2.662899 16711680
-0.35469666 -0.64898396 2.6587479 16711680
-0.32433406 -0.63769329 2.6527386 16711680
-0.29760161 -0.60961694 2.6512394 16711680
0.99563986 -0.64239454 2.6888103 16711680
1.0050676 -0.64522654 2.6858888 16711680
-0.82125694 -0.57249779 2.6841347 16711680
-0.77129734 -0.57693106 2.6665452 16711680
-0.71766949 -0.56965643 2.6745284 16711680
-0.6786285 -0.571473 2.6777017 16711680
-0.62625104 -0.57415152 2.6680913 16711680
-0.57239753 -0.57599229 2.6690388 16711680
-0.53033751 -0.57908261 2.6645448 16711680
-0.47598514 -0.5789004 2.6659112 16711680
-0.41166636 -0.56354123 2.6601274 16711680
-0.3220315 -0.56572896 2.6525857 16711680
-0.82256031 -0.52439266 2.6743131 16711680
-0.77966243 -0.52135581 2.6693838 16711680
-0.72987008 -0.52200156 2.6778085 16711680
-0.67023915 -0.52433956 2.673528 16711680
-0.62795562 -0.52551061 2.6742916 16711680
-0.57271838 -0.52651596 2.6667681 16711680
-0.54053563 -0.53204727 2.6588829 16711680
-0.46424609 -0.51709068 2.6637094 16711680
-0.41777325 -0.52643394 2.6599071 16711680
-0.3899489 -0.50871694 2.6516402 16711680
-0.33708811 -0.52700216 2.6534977 16711680
-0.81550491 -0.46601611 2.6816771 16711680
-0.77147186 -0.47307673 2.6746283 16711680
-0.72192281 -0.47026435 2.6772914 16711680
-0.67301798 -0.47327399 2.6685758 16711680
-0.6293056 -0.47523278 2.6674376 16711680
-0.58444619 -0.47843355 2.6656921 16711680
-0.5387944 -0.48777804 2.657778 16711680
-0.47588193 -0.4881112 2.6657162 16711680
-0.3410998 -0.48252454 2.6525676 16711680
-0.81803048 -0.43406942 2.655688 16711680
-0.77855808 -0.43318173 2.6737242 16711680
-0.72929573 -0.42890289 2.6825826 16711680
-0.66630048 -0.43753195 2.6746819 16711680
-0.62147868 -0.4309926 2.6714368 16711680
-0.57340831 -0.43210378 2.669503 16711680
-0.52897853 -0.41935268 2.6613209 16711680
-0.81569415 -0.37139839 2.6846733 16711680
-0.65555435 -0.36597028 2.6864796 16711680
-0.58168542 -0.36094719 2.6685534 16711680
1.1258967 -0.378896 2.6900995 16711680
1.2028096 -0.37263051 2.675663 16711680
-0.82202381 -0.32640603 2.6558521 16711680
-0.74975145 -0.31388956 2.6761312 16711680
-0.65800089 -0.30823761 2.6677518 16711680
1.1665151 -0.32196969 2.6816721 16711680
-0.67124611 -0.28828868 2.66886 16711680
-0.64246434 -0.2716504 2.6615107 16711680
1.1114196 -0.28810421 2.6849244 16711680
-0.81398398 -0.2279017 2.6549392 16711680
-0.72390759 -0.22845374 2.663686 16711680
-0.69059408 -0.24763779 2.6596613 16711680
1.0855181 -0.20384023 2.6588507 16711680
1.1111751 -0.21190913 2.6600947 16711680
1.783949 -0.21175876 2.6964912 16711680
1.0671448 -0.16527188 2.6702154 16711680
1.1035287 -0.17732875 2.6777623 16711680
1.0638638 -0.11939395 2.671298 16711680
1.0065551 -0.090933256 2.67607 16711680
-0.8565957 -0.029397348 2.6755664 16711680
-0.80143416 -0.01914482 2.6634068 16711680
-0.78196549 -0.036399394 2.6616719 16711680
-0.72831494 -0.022759218 2.6688435 16711680
1.0033166 -0.034742769 2.669966 16711680
1.1228271 -0.016913923 2.6753361 16711680
-0.87023103 0.020970993 2.6753635 16711680
-0.82816666 0.036856364 2.6728642 16711680
-0.77526188 0.023876032 2.6794865 16711680
-0.73369426 0.038603954 2.6598706 16711680
0.781349 0.0037599143 2.6963482 16711680
1.0187081 0.044271719 2.6964037 16711680
1.054994 0.04867937 2.6825767 16711680
1.1181034 0.048323084 2.6766617 16711680
-0.85545027 0.092910133 2.6754227 16711680
-0.81557661 0.058648285 2.6545544 16711680
-0.75412768 0.065498099 2.6854272 16711680
1.1148741 0.094873212 2.6581931 16711680
-0.72305846 0.14144355 2.6785095 16711680
-0.88138252 0.18482555 2.6603041 16711680
-0.71794862 0.16782016 2.6719527 16711680
-0.88502496 0.2113761 2.6605861 16711680
-0.73289317 0.22145993 2.6790495 16711680
-0.70201743 0.33659038 2.6603739 16711680
-0.69944215 0.304533 2.6604948 16711680
-0.87913537 0.44739401 2.6789165 16711680
-0.82770061 0.44928813 2.6689143 16711680
1.7786769 0.42993581 2.6509185 16711680
-0.85363138 0.47311613 2.6907084 16711680
-0.8174566 0.4869349 2.6730556 16711680
-0.82402712 0.50894153 2.6773491 16711680
0.69288033 0.62358773 2.6909273 16711680
0.58587945 0.90490609 2.6918659 16711680
0.2874569 -1.2226849 2.7415423 16711680
0.31017187 -1.215961 2.7477999 16711680
-0.57139754 -1.1608933 2.7416391 16711680
-0.39644346 -1.1538278 2.7436812 16711680
-0.25660962 -1.195914 2.7446237 16711680
0.29494318 -1.1529911 2.7418647 16711680
0.31860393 -1.179713 2.7375016 16711680
0.38413596 -1.1639258 2.7354546 16711680
0.42710975 -1.1634711 2.7360766 16711680
0.46999049 -1.1600325 2.7410812 16711680
0.53322852 -1.1626151 2.7291276 16711680
0.58655131 -1.1622181 2.7381864 16711680
0.61049432 -1.1654361 2.7385345 16711680
0.6774646 -1.1593686 2.7200794 16711680
0.84188855 -1.1620356 2.7308459 16711680
0.87010556 -1.1537055 2.7299705 16711680
1.0926962 -1.1614549 2.7436175 16711680
-0.74364156 -1.1293834 2.7401843 16711680
-0.57123572 -1.10122 2.7425029 16711680
-0.44328204 -1.1321065 2.7434757 16711680
-0.30498236 -1.1222684 2.7451513 16711680
-0.22420809 -1.119895 2.7460811 16711680
-0.17776729 -1.1281544 2.7464769 16711680
0.14817049 -1.1446986 2.749356 16711680
0.29301643 -1.133278 2.7438664 16711680
0.33000764 -1.1194632 2.743665 16711680
0.37466004 -1.125823 2.7404242 16711680
0.43591109 -1.1218967 2.7332861 16711680
0.47722131 -1.1271706 2.7313652 16711680
0.51603574 -1.1277664 2.7320406 16711680
0.58364552 -1.1221843 2.7364042 16711680
0.61013293 -1.1112241 2.7335165 16711680
0.71152657 -1.1293153 2.7354491 16711680
0.7777015 -1.118078 2.7186368 16711680
0.81126958 -1.1116031 2.7182856 16711680
0.8951444 -1.1461514 2.7198348 16711680
0.92934471 -1.1106782 2.7238336 16711680
0.96671957 -1.1253211 2.7349834 16711680
1.0552111 -1.1299393 2.7444909 16711680
-0.68233526 -1.0544399 2.7419469 16711680
-0.62978393 -1.0740685 2.7422462 16711680
-0.59533691 -1.067282 2.7427261 16711680
-0.43921706 -1.0742433 2.7443566 16711680
-0.36138439 -1.0700316 2.7452805 16711680
-0.3093161 -1.0733137 2.7458105 16711680
-0.27715716 -1.0868046 2.7459722 16711680
0.17692524 -1.0867984 2.7472572 16711680
0.23023199 -1.0811894 2.7414875 16711680
0.28294632 -1.0739616 2.744694 16711680
0.32366398 -1.0814205 2.745945 16711680
0.38385198 -1.07916 2.7397325 16711680
0.42454824 -1.0845846 2.7429802 16711680
0.47863352 -1.0741609 2.7336438 16711680
0.52116412 -1.0694758 2.7445953 16711680
0.58372951 -1.0773237 2.734272 16711680
0.63141078 -1.0705814 2.7247005 16711680
0.67545986 -1.0696203 2.7286754 16711680
0.71989191 -1.0777683 2.7153215 16711680
0.77260303 -1.0819365 2.7178867 16711680
0.9764685 -1.0736639 2.724128 16711680
1.0243819 -1.0816667 2.7203319 16711680
1.0727189 -1.0821114 2.7255073 16711680
-0.77742893 -1.0150467 2.7051756 16711680
-0.74448019 -1.0270858 2.7023346 16711680
-0.68836272 -1.0407257 2.7012811 16711680
-0.50889421 -1.0333954 2.744174 16711680
-0.44397253 -1.0435865 2.7447467 16711680
-0.28132045 -1.0436192 2.7465498 16711680
-0.2385599 -1.0250397 2.7472925 16711680
-0.18094923 -1.0204595 2.7479975 16711680
0.39323005 -1.0442352 2.7449582 16711680
0.43329811 -1.0457832 2.7470946 16711680
0.46386993 -1.0375235 2.7427878 16711680
0.59246027 -1.0270566 2.7399902 16711680
0.62925255 -1.0243471 2.7294192 16711680
0.67300791 -1.025442 2.7226007 16711680
0.72926778 -1.02424 2.7274947 16711680
0.7784791 -1.030704 2.7196624 16711680
0.97320867 -1.0253848 2.7256365 16711680
1.0221173 -1.0330327 2.7324538 16711680
-0.76640022 -0.9704231 2.702415 16711680
-0.70984054 -0.95233107 2.7135477 16711680
-0.65985298 -0.95010722 2.7072563 16711680
-0.51436853 -0.99330056 2.7446926 16711680
-0.25086614 -0.99941647 2.7475262 16711680
0.29233029 -0.97671604 2.7475362 16711680
0.3110733 -0.99688792 2.7437434 16711680
0.4069494 -0.97065395 2.7240589 16711680
0.63380069 -0.95975137 2.7299569 16711680
0.67079777 -0.98879391 2.7281609 16711680
0.71659547 -0.98328245 2.7235014 16711680
0.76783293 -0.99386358 2.7300899 16711680
0.93966049 -0.98602122 2.7197349 16711680
0.96307421 -0.97222567 2.7144775 16711680
1.0048541 -0.98312241 2.7248352 16711680
-0.77122849 -0.94523919 2.7056208 16711680
-0.65813601 -0.90293205 2.7048812 16711680
-0.62331617 -0.90530771 2.7012703 16711680
-0.51797187 -0.94952112 2.7452853 16711680
0.63190299 -0.94266033 2.7410038 16711680
0.70041394 -0.94762582 2.7369928 16711680
0.89481539 -0.92056137 2.7132483 16711680
-0.6987626 -0.89756685 2.7104094 16711680
-0.79031062 -0.8446517 2.7034094 16711680
-0.7406255 -0.84057593 2.7443902 16711680
-0.73681623 -0.77405858 2.7453935 16711680
-0.47701421 -0.77219915 2.748301 16711680
-0.6838277 -0.70797867 2.7024584 16711680
0.3411167 -0.71030849 2.7453613 16711680
0.54623342 -0.71905822 2.7413795 16711680
0.58200449 -0.7154367 2.7341404 16711680
1.0180923 -0.72753954 2.7212055 16711680
-0.71532428 -0.69471443 2.7052245 16711680
-0.69325107 -0.65424049 2.7019041 16711680
0.3410145 -0.68905085 2.7429373 16711680
0.36954349 -0.66669786 2.7430696 16711680
0.5437817 -0.67524374 2.735693 16711680
0.57244986 -0.67326623 2.7318275 16711680
1.0128382 -0.68172437 2.7172165 16711680
-0.72027767 -0.62351012 2.7035213 16711680
-0.58487266 -0.63967049 2.7490199 16711680
0.54479319 -0.63827306 2.7403488 16711680
0.57702851 -0.63898563 2.7341547 16711680
-0.73235649 -0.58337921 2.7039888 16711680
0.32071546 -0.50513202 2.7496891 16711680
-0.76308346 -0.41658509 2.702141 16711680
1.1578679 -0.42082 2.7261231 16711680
-0.76857364 -0.3603529 2.7018321 16711680
1.0834625 -0.38043454 2.7117264 16711680
1.2226256 -0.35406482 2.7150276 16711680
1.1986742 -0.34449244 2.7160914 16711680
1.1478913 -0.29083627 2.7186987 16711680
1.1853001 -0.2275825 2.7188983 16711680
1.1360663 -0.15176418 2.7400844 16711680
0.67879266 -0.11613439 2.7444861 16711680
0.70207876 -0.11867984 2.7459681 16711680
1.0363905 -0.11181279 2.7396469 16711680
1.0666304 -0.12657413 2.7388864 16711680
1.1203645 -0.10091633 2.7395735 16711680
0.6734491 -0.081430592 2.7310021 16711680
1.0309647 -0.079114795 2.7342701 16711680
1.059835 -0.08834137 2.7258916 16711680
1.1184982 -0.077905141 2.7391946 16711680
1.1589905 -0.077536002 2.7380466 16711680
0.4862586 -0.008639955 2.7485752 16711680
0.66097534 -0.022180835 2.7198586 16711680
0.6710813 0.039974734 2.7291744 16711680
1.1661358 0.00466569 2.7222655 16711680
0.64975482 0.084431283 2.7076073 16711680
0.64570361 0.11813162 2.7112334 16711680
0.29698491 0.43827364 2.7494025 16711680
1.261757 0.42538249 2.721678 16711680
1.7613006 0.43036169 2.7222321 16711680
0.20169763 0.48754609 2.7486956 16711680
0.25201991 0.46122691 2.7458494 16711680
0.33911711 0.46885735 2.7370968 16711680
0.3603673 0.49346411 2.7340605 16711680
0.42974001 0.45961556 2.7254493 16711680
0.40759715 0.51656622 2.7396996 16711680
0.46900612 0.54818934 2.7399857 16711680
0.45909098 0.58027089 2.7412853 16711680
0.69461739 0.62531346 2.7016203 16711680
0.71540225 0.62396765 2.7195284 16711680
-0.35597625 -1.252422 2.7728291 16711680
-0.54585207 -1.2364902 2.7931874 16711680
-0.47392079 -1.216489 2.7742915 16711680
-0.40566552 -1.2245295 2.7708917 16711680
-0.12420317 -1.220762 2.767889 16711680
-0.073100924 -1.215389 2.7825286 16711680
0.17839701 -1.2167367 2.7668653 16711680
0.21765234 -1.2300191 2.7619016 16711680
0.27877596 -1.2205304 2.7589948 16711680
0.31404907 -1.2139108 2.7617872 16711680
-0.81364214 -1.1906644 2.7985251 16711680
-0.7663039 -1.1713538 2.7519822 16711680
-0.73292589 -1.1572187 2.773458 16711680
-0.67143166 -1.1601996 2.769541 16711680
-0.60637784 -1.1646314 2.7798698 16711680
-0.59383088 -1.1563596 2.7833614 16711680
-0.52220035 -1.1660501 2.7571466 16711680
-0.49563172 -1.1637521 2.7668293 16711680
-0.43206608 -1.1663662 2.773289 16711680
-0.36466035 -1.1831427 2.7796183 16711680
-0.31061676 -1.1675352 2.7655849 16711680
-0.28227204 -1.1609695 2.7871885 16711680
-0.22357455 -1.1673719 2.782074 16711680
-0.16142444 -1.1684567 2.7707717 16711680
-0.12831165 -1.1813393 2.7810879 16711680
-0.092327639 -1.1836395 2.7798016 16711680
-0.024056325 -1.173278 2.7747118 16711680
0.041362856 -1.1669109 2.7923574 16711680
0.077025682 -1.1813304 2.7742441 16711680
0.13220951 -1.1711686 2.7631068 16711680
0.17152241 -1.1755793 2.7681098 16711680
0.22342086 -1.1685389 2.7702572 16711680
0.28251928 -1.1632792 2.7825258 16711680
0.31136623 -1.1694071 2.7633259 16711680
0.37245667 -1.1724744 2.7638066 16711680
0.47888765 -1.1747289 2.7613328 16711680
0.51985329 -1.1572623 2.7648723 16711680
0.57120961 -1.176484 2.7601109 16711680
0.62913966 -1.1743506 2.7560585 16711680
0.65159619 -1.1616429 2.7552569 16711680
0.72273654 -1.1567578 2.7604091 16711680
0.78226978 -1.1883595 2.7523663 16711680
0.80596727 -1.1677645 2.7516007 16711680
0.86087084 -1.173701 2.7614717 16711680
0.94728237 -1.1885825 2.7536361 16711680
0.98128074 -1.1645671 2.7539239 16711680
1.0018427 -1.1820339 2.7587786 16711680
1.1037881 -1.180192 2.7562048 16711680
-0.71378088 -1.1210567 2.7722623 16711680
-0.67158484 -1.1357151 2.7727044 16711680
-0.6306619 -1.1153938 2.776612 16711680
-0.5750978 -1.1154175 2.7763662 16711680
-0.53177589 -1.1185718 2.7779603 16711680
-0.47443137 -1.1204243 2.781806 16711680
-0.42468235 -1.1231503 2.7859969 16711680
-0.37651786 -1.1480421 2.7883899 16711680
-0.33497813 -1.1140275 2.7877772 16711680
-0.27455327 -1.1182451 2.7762663 16711680
-0.22697723 -1.1309019 2.7834721 16711680
-0.1742755 -1.1233587 2.7782335 16711680
-0.12747271 -1.1288249 2.7810104 16711680
-0.080623724 -1.1387414 2.7710195 16711680
-0.035065159 -1.123253 2.7785742 16711680
0.0095462305 -1.1256466 2.7797127 16711680
0.068417475 -1.1200687 2.779453 16711680
0.12716398 -1.1221721 2.7725172 16711680
0.16688308 -1.1217798 2.7745998 16711680
0.2178608 -1.1278392 2.7824755 16711680
0.2871182 -1.1212318 2.7692814 16711680
0.32754678 -1.1239831 2.7682946 16711680
0.37756824 -1.1184938 2.7762294 16711680
0.41566536 -1.127611 2.7703304 16711680
0.46617782 -1.1229568 2.7660379 16711680
0.52748621 -1.1302677 2.7860184 16711680
0.59047306 -1.1321285 2.7704291 16711680
0.63472575 -1.1188084 2.7608776 16711680
0.67590094 -1.1088741 2.7635043 16711680
0.72209573 -1.1219708 2.76106 16711680
0.77193904 -1.1307334 2.762238 16711680
0.80314982 -1.1286091 2.7514727 16711680
0.96968508 -1.1196008 2.758482 16711680
1.0246992 -1.1188961 2.7610779 16711680
-0.76687145 -1.0824734 2.7923257 16711680
-0.72802442 -1.066264 2.7794392 16711680
-0.68492991 -1.0761894 2.7860029 16711680
-0.62228322 -1.0724301 2.7797332 16711680
-0.58623147 -1.0782148 2.7791452 16711680
-0.53503191 -1.0730542 2.7795248 16711680
-0.47604504 -1.0776098 2.7793477 16711680
-0.42057079 -1.068261 2.773675 16711680
-0.3802883 -1.0672367 2.7839088 16711680
-0.31639251 -1.067511 2.7746768 16711680
-0.27575871 -1.0697774 2.7771735 16711680
-0.22076632 -1.0719219 2.7767754 16711680
-0.17504139 -1.0742695 2.7705784 16711680
-0.12410741 -1.077099 2.7777951 16711680
-0.084977791 -1.0766661 2.7836411 16711680
-0.026902679 -1.0841166 2.7768419 16711680
0.021757001 -1.0693108 2.7786415 16711680
0.071873307 -1.0741109 2.78002 16711680
0.13125843 -1.0742762 2.7749875 16711680
0.18060571 -1.0780196 2.7745523 16711680
0.2109659 -1.0757023 2.7798741 16711680
0.28476021 -1.0792813 2.7751653 16711680
0.32354757 -1.0740356 2.7782938 16711680
0.37743011 -1.0748622 2.7758398 16711680
0.41907433 -1.07401 2.7640476 16711680
0.48179206 -1.0782868 2.7720118 16711680
0.5448243 -1.0713172 2.7603278 16711680
0.5780164 -1.0568252 2.7557321 16711680
0.64173287 -1.0848418 2.7667198 16711680
0.66552395 -1.0865996 2.7634676 16711680
0.74781793 -1.0747863 2.7683306 16711680
0.97246462 -1.0752643 2.7612393 16711680
1.0427701 -1.0835432 2.7638021 16711680
-0.70991856 -1.0238205 2.7799714 16711680
-0.68020976 -1.0161375 2.7847664 16711680
-0.63092273 -1.0322448 2.7845938 16711680
-0.58744895 -1.0324479 2.7848072 16711680
-0.53140956 -1.0257211 2.778017 16711680
-0.45799893 -1.0348432 2.7789741 16711680
-0.44526288 -1.0450141 2.7782965 16711680
-0.34081304 -1.0342829 2.772779 16711680
-0.26999772 -1.0177563 2.7749619 16711680
-0.2242987 -1.0288229 2.7770402 16711680
-0.17983675 -1.0261084 2.7800486 16711680
-0.1333098 -1.0305635 2.7883294 16711680
-0.036042895 -1.0452731 2.7839875 16711680
0.033121385 -1.0194885 2.7702072 16711680
0.074316673 -1.0330831 2.7813828 16711680
0.11456033 -1.0290794 2.7707126 16711680
0.16362879 -1.0318828 2.7841418 16711680
0.28605366 -1.0241127 2.7814767 16711680
0.32214993 -1.0344363 2.772809 16711680
0.41400003 -1.0237914 2.76157 16711680
0.63311613 -1.0293143 2.7642198 16711680
0.67360526 -1.037437 2.7598913 16711680
0.70056117 -1.033568 2.7549961 16711680
0.97051817 -1.0176414 2.7605472 16711680
1.0349298 -1.0129874 2.7555695 16711680
-0.67646378 -0.97602093 2.7829568 16711680
-0.61858237 -0.98150015 2.7876186 16711680
-0.57169557 -0.97798795 2.7875891 16711680
-0.53234255 -0.9847514 2.7827311 16711680
-0.48236513 -0.96653891 2.7802982 16711680
-0.43130752 -0.99488866 2.7780957 16711680
-0.26522446 -0.98938924 2.7657368 16711680
-0.22565508 -0.98688507 2.781322 16711680
-0.004109201 -0.96806395 2.7981277 16711680
0.01940654 -0.98065478 2.7809937 16711680
0.070473582 -0.98097187 2.7666886 16711680
0.10566766 -0.98828626 2.7692828 16711680
0.28444523 -0.9793303 2.7640777 16711680
0.32383427 -0.97796905 2.7822764 16711680
0.63201243 -0.9911148 2.7620282 16711680
0.68547148 -0.97620571 2.7562792 16711680
0.73550761 -0.99551618 2.7513857 16711680
0.92440832 -0.99039346 2.7632332 16711680
0.96463829 -0.9872089 2.7611945 16711680
-0.71060085 -0.92664587 2.7923794 16711680
-0.66421992 -0.93164593 2.7819691 16711680
-0.6158393 -0.92835301 2.788223 16711680
-0.59045821 -0.92857122 2.7878952 16711680
-0.52841127 -0.93568861 2.783895 16711680
-0.76232958 -0.85244602 2.7975428 16711680
-0.71672398 -0.87018204 2.7813642 16711680
-0.67908591 -0.87614256 2.7845762 16711680
-0.61868322 -0.89336205 2.7816522 16711680
-0.56910527 -0.86768836 2.7799077 16711680
-0.80104971 -0.81346297 2.7913761 16711680
-0.76699793 -0.82230222 2.793123 16711680
-0.73095649 -0.82611477 2.7828298 16711680
-0.56640655 -0.82464761 2.7814064 16711680
-0.48473653 -0.81187266 2.7803104 16711680
-0.76825446 -0.77844268 2.7854507 16711680
-0.73389935 -0.77192408 2.7826331 16711680
-0.69516867 -0.79320323 2.7874868 16711680
-0.60026258 -0.76267099 2.7564416 16711680
-0.56350267 -0.78082609 2.7712095 16711680
-0.50861913 -0.76640898 2.7841218 16711680
-0.4851543 -0.76974171 2.7795205 16711680
-0.30338702 -0.75756097 2.7654669 16711680
-0.2998924 -0.76610577 2.7567272 16711680
-0.21756069 -0.76570439 2.7715969 16711680
-0.19193706 -0.7650516 2.7726691 16711680
1.0131593 -0.78326941 2.7646649 16711680
-0.76462138 -0.72371066 2.7851527 16711680
-0.73453748 -0.73094922 2.7841654 16711680
-0.60073042 -0.74536085 2.7566226 16711680
-0.57586485 -0.72705889 2.7821562 16711680
-0.50230014 -0.72455442 2.7569458 16711680
-0.49019253 -0.72491819 2.7766714 16711680
-0.30513811 -0.74002463 2.7574825 16711680
-0.22483172 -0.73210979 2.784265 16711680
-0.18697542 -0.74460733 2.7724435 16711680
-0.0093165934 -0.73767626 2.7632999 16711680
0.056205474 -0.71144426 2.7674913 16711680
0.24677688 -0.72578728 2.7541099 16711680
0.34161896 -0.70632976 2.7837923 16711680
0.37964842 -0.72328037 2.7699001 16711680
0.54700649 -0.72459066 2.7605097 16711680
0.57526183 -0.7190299 2.7618513 16711680
1.0138991 -0.72197598 2.7526338 16711680
-0.76897877 -0.67695314 2.7923465 16711680
-0.73343343 -0.68196678 2.7842233 16711680
-0.67345005 -0.66118819 2.78896 16711680
-0.63960099 -0.65034521 2.7886689 16711680
-0.58271652 -0.67013401 2.7671258 16711680
-0.49773347 -0.69124997 2.7804682 16711680
0.049999073 -0.68958265 2.7889583 16711680
0.24120697 -0.67591774 2.7726076 16711680
0.34003019 -0.67471772 2.7616334 16711680
0.36489207 -0.67081988 2.7682986 16711680
0.54638141 -0.6872893 2.7550724 16711680
0.58160174 -0.67538857 2.7544167 16711680
-0.7729224 -0.63308793 2.7921269 16711680
-0.7229116 -0.62413883 2.7900417 16711680
-0.67833465 -0.62344116 2.7886097 16711680
-0.63635194 -0.61691087 2.7911048 16711680
-0.59608972 -0.63205808 2.786973 16711680
-0.28502452 -0.62508553 2.7525554 16711680
-0.68315667 -0.57442337 2.7859225 16711680
-0.62074399 -0.56986374 2.7864761 16711680
-0.58446801 -0.57609129 2.7772424 16711680
-0.44878125 -0.56770444 2.7829521 16711680
-0.31862071 -0.58006853 2.7610397 16711680
-0.28966793 -0.58559549 2.7594488 16711680
-0.02149847 -0.55382413 2.7565069 16711680
-0.69040257 -0.5283618 2.789675 16711680
-0.62299359 -0.52967358 2.7849097 16711680
-0.59389138 -0.53985441 2.7601943 16711680
-0.48664075 -0.51845199 2.7835741 16711680
-0.3171275 -0.54840696 2.7643049 16711680
-0.28710639 -0.53819138 2.7659714 16711680
0.26580501 -0.51235902 2.7784796 16711680
0.31497669 -0.51417023 2.7666645 16711680
-0.80246425 -0.46470809 2.7963552 16711680
-0.79218966 -0.49561843 2.7958505 16711680
-0.71151125 -0.4584524 2.7770951 16711680
-0.57441622 -0.46136671 2.7887335 16711680
-0.53907883 -0.46730956 2.7846506 16711680
0.15337172 -0.45884329 2.7657743 16711680
0.26998112 -0.46642184 2.7687159 16711680
0.30172983 -0.48596874 2.7702479 16711680
0.36328903 -0.46698293 2.7543457 16711680
-0.79514712 -0.43797058 2.7955184 16711680
-0.72353524 -0.44740766 2.7771895 16711680
-0.055197652 -0.41881514 2.7606275 16711680
0.18181476 -0.42690724 2.7622244 16711680
0.23516411 -0.43788117 2.763586 16711680
0.320436 -0.42701942 2.7591779 16711680
-0.72087508 -0.37411207 2.7767212 16711680
-0.6172955 -0.35214326 2.7643049 16711680
0.36996317 -0.39980614 2.7528899 16711680
1.1890604 -0.31999153 2.7510417 16711680
-0.06429816 -0.27791157 2.7600186 16711680
1.1260571 -0.26489043 2.7515528 16711680
-0.054463595 -0.21987884 2.7609661 16711680
1.0913532 -0.20205924 2.7643049 16711680
1.1259879 -0.20205924 2.7643049 16711680
-0.092785776 -0.17404228 2.7911382 16711680
0.24756962 -0.19823329 2.7566791 16711680
1.088256 -0.19785061 2.7739553 16711680
1.1375328 -0.17319694 2.7643049 16711680
-0.70457816 -0.10617072 2.7553999 16711680
-0.06925264 -0.12822038 2.777622 16711680
-0.028683012 -0.1241332 2.773056 16711680
0.062020727 -0.11713892 2.7897394 16711680
0.6837849 -0.11874063 2.7522106 16711680
0.72305995 -0.12715523 2.7512615 16711680
-0.68955946 -0.051325571 2.7950885 16711680
-0.40211594 -0.062948406 2.7758126 16711680
-0.35420069 -0.065032966 2.7661924 16711680
-0.32068703 -0.085890226 2.7664459 16711680
-0.29892781 -0.064876594 2.777488 16711680
-0.11360425 -0.084087253 2.7844656 16711680
-0.069684871 -0.076458737 2.7674203 16711680
0.051131546 -0.060159512 2.7892632 16711680
1.0278437 -0.061067034 2.7516532 16711680
-0.80786526 -0.0427325 2.7994938 16711680
-0.78132546 -0.045780417 2.7637584 16711680
-0.73735768 -0.020228982 2.7924566 16711680
-0.45895067 -0.043266207 2.7909927 16711680
-0.401106 -0.012412768 2.7645149 16711680
-0.37115154 -0.04027595 2.7808933 16711680
-0.33532205 -0.023261897 2.774761 16711680
-0.11766065 -0.049691733 2.784713 16711680
-0.05519012 -0.036543004 2.7943258 16711680
0.044536099 -0.01465843 2.7881784 16711680
0.056224346 -0.016420204 2.7868011 16711680
0.46642339 -0.0320362 2.7567103 16711680
0.68330544 -0.049167655 2.7517607 16711680
1.0425735 -0.013835289 2.7660453 16711680
-0.36883563 0.010914423 2.7738588 16711680
-0.31567281 0.031222453 2.780669 16711680
-0.054480489 0.023066757 2.7643049 16711680
-0.036231548 0.026728487 2.7696493 16711680
0.47265029 0.010763952 2.7556705 16711680
0.68993926 0.0054739872 2.7557468 16711680
1.0299411 0.026243247 2.7664516 16711680
-0.70274323 0.085813545 2.795428 16711680
-0.11879413 0.086829074 2.7977924 16711680
-0.051594261 0.063473985 2.7643049 16711680
-0.032352727 0.071170598 2.7643049 16711680
1.0405462 0.061175227 2.766829 16711680
1.0578573 0.061642841 2.7668524 16711680
-0.70465845 0.11221477 2.7951355 16711680
-0.11806282 0.12391274 2.7762744 16711680
-0.088110566 0.13714392 2.7657509 16711680
-0.064950794 0.16725117 2.7654858 16711680
-0.13108192 0.22803484 2.7700191 16711680
-0.079378143 0.21146037 2.7653875 16711680
-0.048537966 0.21552742 2.764987 16711680
-0.13717215 0.26222697 2.7804229 16711680
-0.090380624 0.28147823 2.7645273 16711680
-0.13204104 0.3331323 2.7758019 16711680
0.26679012 0.34525615 2.7618418 16711680
-0.134489 0.37180057 2.7772396 16711680
0.23702882 0.38673183 2.7643049 16711680
0.25426871 0.35572204 2.7623413 16711680
0.42193341 0.387191 2.751065 16711680
1.279256 0.37365064 2.7843297 16711680
-0.76062435 0.4209393 2.767725 16711680
-0.12279277 0.41966552 2.7833719 16711680
0.19447571 0.44620004 2.7664938 16711680
0.22698689 0.43389335 2.7560205 16711680
0.26854867 0.41751653 2.7574987 16711680
0.3237313 0.43821993 2.750936 16711680
0.45204481 0.42993999 2.7630329 16711680
-0.23631303 0.47909123 2.7643049 16711680
-0.13348021 0.45666027 2.7956257 16711680
0.19155884 0.47392949 2.7632113 16711680
0.229507 0.46894178 2.7579365 16711680
0.25618678 0.46950394 2.7582157 16711680
0.30548888 0.49136129 2.7625184 16711680
0.38268116 0.469551 2.7581217 16711680
-0.42458704 0.53307861 2.771224 16711680
-0.38884377 0.53884375 2.7702837 16711680
-0.32719228 0.52107829 2.7704442 16711680
