# .PCD v0.7 - Point Cloud Data file format
VERSION 0.7
FIELDS x y z rgba
SIZE 4 4 4 4
TYPE F F F U
COUNT 1 1 1 1
WIDTH 1145
HEIGHT 1
VIEWPOINT 0 0 0 1 0 0 0
POINTS 1145
DATA ascii
0.82094872 -0.0066861641 0.50840831 16776165
0.83526528 -0.0020524135 0.50349236 10195562
0.84467947 -0.0078076776 0.50362605 16772792
0.85879689 -0.0076047154 0.50557554 6054200
0.86221713 -0.0085439477 0.50564277 5858883
1.0430949 -0.00098738843 0.50398946 2827801
1.1030517 -0.0067811022 0.50016665 6839635
1.1157023 -0.0033230067 0.50406837 6181443
1.1259049 -0.0039031112 0.50392723 6508609
1.1330833 -0.0037987309 0.50323927 6967361
1.1412761 -0.0076702377 0.50619501 5393209
0.81813413 0.0051734247 0.50536162 12372168
0.82053548 0.00039101701 0.50162065 16644052
0.83447057 0.0051247668 0.50788587 9276776
0.85753244 0.0044015232 0.50570846 8288306
0.87491965 0.0064001447 0.5061422 7041336
1.0298947 0.00052802014 0.50682211 2305051
1.0384889 0.0046678772 0.50437707 2301215
1.0814091 0.0067592063 0.50384337 6051132
1.0911691 0.0051842849 0.50393999 7097138
1.1056665 0.0041294685 0.50155973 6899507
1.1121343 0.003768919 0.502828 6838086
1.124478 0.0028797574 0.50313479 6703158
1.1359428 0.0012316682 0.50637668 6835505
0.80699199 0.018993996 0.50130308 10383439
0.83579063 0.011639073 0.50123537 3882798
0.84507316 0.015783217 0.50623423 5721141
0.85643345 0.014448294 0.50557077 5589805
0.86438155 0.014584675 0.50548512 8153142
0.87650859 0.013574965 0.50627643 3880227
0.88338804 0.016362874 0.50647503 3749150
1.0886222 0.011874648 0.50388008 7040091
1.0956637 0.017144827 0.50099224 5654074
1.1051854 0.015319548 0.50350058 6770237
1.1124258 0.016606955 0.50654405 7037016
1.1202018 0.014231039 0.50933439 7689016
1.1348822 0.018768512 0.50650281 5523528
0.81690311 0.029284794 0.50817305 11968083
0.83295274 0.028926024 0.50264364 2697247
0.84469056 0.026784793 0.50383651 4539703
0.85631144 0.024316421 0.5048334 6509625
0.86211604 0.022861063 0.50700188 10257491
0.87487209 0.024142697 0.50821412 4935224
0.8833397 0.020910213 0.50653547 3758430
1.0781114 0.020830745 0.50851017 12168849
1.0955931 0.024298752 0.50468278 5656385
1.1166952 0.025908632 0.50411087 5983549
1.1268117 0.021850944 0.50005531 8937282
0.81618768 0.035552096 0.50626189 8155724
0.82689899 0.033778347 0.50970215 7761488
0.83504713 0.034559056 0.50439835 3946019
0.84348434 0.036105003 0.50368857 3552546
0.85870802 0.033464156 0.50612938 3289377
0.86588776 0.037483457 0.50370044 7233586
0.87280208 0.033171009 0.50046951 4673576
0.88164413 0.033756606 0.50666976 3487524
1.0763717 0.036587149 0.50363314 8014896
1.0837351 0.034246232 0.50433624 6052177
1.0961483 0.035365149 0.50590575 8151624
1.1094935 0.034205772 0.50431705 6635816
1.1123222 0.032340676 0.50351489 5389362
1.1235359 0.036900714 0.50535363 4798769
1.1334556 0.032699045 0.50753182 5850418
0.80708712 0.046748675 0.50115055 4404774
0.81671667 0.043195996 0.50569868 5065518
0.82659924 0.043635439 0.50222528 4277030
0.83678991 0.043318316 0.50616801 3750948
0.84604335 0.046035897 0.50433177 3883050
0.85531282 0.042936847 0.5048942 6777145
0.8643592 0.044528034 0.50523257 5199156
0.88118392 0.040378708 0.50674862 2170655
1.0774367 0.047377162 0.50358307 6638136
1.0854162 0.042481955 0.504116 6510668
1.1050436 0.043996323 0.50330949 5719356
1.1163083 0.046411093 0.5055424 6447449
1.1287687 0.044386853 0.50077325 8882261
1.135323 0.048810553 0.50542688 5328967
1.1426132 0.047500707 0.50697315 6514513
0.8050524 0.052923329 0.5010981 4341284
0.81510365 0.055076323 0.50478232 3948068
0.82598948 0.057049196 0.50578827 3160102
0.83529794 0.054171674 0.5084877 3095081
0.84600449 0.053207524 0.50363177 2828317
0.85209686 0.054272186 0.5056693 5456424
0.86214536 0.055909771 0.50657034 3223326
0.87416726 0.058822483 0.50683421 1842968
1.078491 0.055083323 0.50355005 5067337
1.0894252 0.052282218 0.50143456 2900020
1.0912857 0.053222194 0.5032233 4867638
1.105745 0.054880001 0.50542015 7363400
1.123148 0.055823207 0.50331914 9472621
1.1379969 0.055129468 0.50709677 8806743
1.146392 0.053953338 0.50714886 10127726
0.8170557 0.064036727 0.50270814 4737067
0.82800591 0.062958896 0.50963771 4604455
0.83554649 0.060229622 0.50062221 2110505
0.84452081 0.063981846 0.50447977 2960669
0.85273004 0.066264637 0.50457072 3354655
0.86349481 0.06097265 0.50262338 2235923
1.0836624 0.06431751 0.50354558 5785645
1.094873 0.066687971 0.5060097 5589046
1.1038778 0.064358085 0.50159597 7623484
1.114295 0.063461609 0.50681806 5719356
1.1236774 0.065210566 0.50258797 7295810
1.1351136 0.063526317 0.50618482 9142381
0.76354218 0.079301953 0.50189435 16777215
0.7884559 0.078908607 0.50669682 11795959
0.79473752 0.075536475 0.50256932 4425104
0.8030774 0.079598568 0.50898415 9408394
0.81481361 0.076987796 0.506796 3883306
0.82446694 0.073545761 0.50844258 4409132
0.83867407 0.070328884 0.50848943 3623218
0.84475541 0.072689816 0.50090176 2303002
0.85305959 0.073286928 0.50437629 3158305
0.86281925 0.077062093 0.50432175 2236697
0.87301683 0.07537774 0.50703144 2760223
1.0882363 0.075380653 0.50484639 5921361
1.1060495 0.075151943 0.501917 5658198
1.1152091 0.074668929 0.50562334 5853767
1.1236153 0.076090939 0.50260282 7103568
1.1364665 0.076957382 0.50693727 8544059
0.76874465 0.083878241 0.50525653 16772572
0.77339679 0.084105998 0.50716108 16777215
0.78711128 0.086427093 0.50065291 6843224
0.79790473 0.086363986 0.5000596 10336185
0.80750424 0.086311139 0.50482404 4677474
0.8172369 0.087150551 0.50472152 4408619
0.83484286 0.084396593 0.50844514 4014122
0.85754693 0.080795012 0.50075746 5399893
0.86239886 0.085856698 0.50754023 2170913
1.0935748 0.083940744 0.50410557 5459532
1.1084849 0.08258678 0.50850451 7034190
1.1213261 0.080746144 0.50583243 9330266
1.1365149 0.083096445 0.50708061 5324067
0.76368058 0.099105045 0.50218385 16777215
0.77662718 0.096225984 0.50746351 16777215
0.80764961 0.09480229 0.50694108 2172963
0.8140142 0.094252571 0.50591058 6313285
0.83449155 0.09012872 0.50843531 3689526
0.84655476 0.095514432 0.50235748 3029311
0.85300773 0.097233295 0.50614035 2698532
1.0876461 0.093005583 0.50614035 7102565
1.0939877 0.093005583 0.50614035 7179644
1.1183467 0.097070098 0.50623935 6904645
1.1379939 0.094769552 0.50655109 5391938
0.78820896 0.10164791 0.50807565 16777215
0.79518747 0.10236217 0.5029642 16777215
0.80650282 0.1046318 0.50614035 3553309
0.82753593 0.10089379 0.50837415 12693111
0.83764309 0.10337454 0.50208151 6052675
0.85728383 0.1006999 0.50358307 5399693
1.1061424 0.10198948 0.50614035 4542047
1.1155491 0.10547735 0.50614035 7495236
0.78434384 0.1130828 0.50915486 7630143
0.83785152 0.11728391 0.50523734 3685178
0.84329313 0.11309738 0.50513703 8208729
0.86069703 0.11073039 0.50771505 1387863
0.82737589 0.12846118 0.50346553 4798770
0.83625466 0.12446409 0.50661075 3359570
0.84077269 0.12601618 0.50231254 5857406
0.85340548 0.12554403 0.50725323 6323610
0.8271358 0.13414097 0.50262314 4211563
0.83686453 0.13343793 0.50367928 6317925
0.84530681 0.13460489 0.50655514 3028534
0.85113782 0.13287251 0.50849217 4541776
0.8286984 0.14162433 0.50614035 3289905
0.75432169 -0.21377064 0.51535165 16777215
0.73150796 -0.19442831 0.51392847 16777215
0.75400746 -0.18764083 0.51944649 16777215
1.1515607 -0.18404296 0.51993257 2168601
0.71510947 -0.16831276 0.51337087 16777215
0.72672766 -0.16619867 0.51641721 16777215
0.72811878 -0.15955794 0.51544672 16777215
0.73059684 -0.15604325 0.51544964 16777215
0.70653325 -0.14258409 0.51337087 16777215
0.71832561 -0.14794421 0.51337087 16777215
0.72225636 -0.14329876 0.51337087 16777215
0.73226196 -0.14044002 0.51337087 16777215
0.80983967 -0.11193262 0.51108015 16777215
0.85607177 -0.045680821 0.51353496 16052457
0.84268469 -0.033457689 0.51228684 16772287
0.85686398 -0.035294473 0.51237518 10461065
0.86744714 -0.034327358 0.5171262 9408098
0.87578315 -0.033997487 0.51736462 9406057
0.88224202 -0.035179082 0.5182004 15393481
0.84552222 -0.021031424 0.51739198 16777215
0.85655141 -0.025405739 0.5123018 6841404
0.86911458 -0.023904087 0.51672196 5987134
0.8761664 -0.028136961 0.51500022 8674890
0.88215691 -0.027175764 0.51830673 4604466
0.85221249 -0.011666683 0.51499403 15986899
0.86496639 -0.013723993 0.51388842 10128762
0.87077463 -0.014476044 0.51699895 9342320
0.88336641 -0.015490488 0.51849324 12563048
1.1560268 -0.014771655 0.51261741 6572341
1.164202 -0.012253138 0.5187977 4803396
0.83117974 -0.0013682034 0.5155012 9806448
0.84228045 -0.0079132281 0.51696271 16515063
0.85488307 -0.0055437675 0.51769477 12036499
0.86895293 -0.0044399472 0.51199889 6252357
0.8734535 -0.0067309067 0.51591146 8022334
0.88717055 -0.0059794113 0.51878095 10981475
0.89565736 -0.0032739365 0.51894605 10128222
0.90190613 -0.0029593005 0.51909643 2111547
1.0653586 -0.00043778855 0.51664615 1844503
1.1365433 -0.0032256742 0.51941729 3881277
1.1413698 -0.0061414372 0.51549935 7690047
0.83121598 0.0092008719 0.51544315 7503488
0.84836864 0.0066029588 0.51310515 7369290
0.85238564 0.0046324171 0.51316154 10987108
0.86418527 0.0061879954 0.5130325 8679746
0.87542468 0.0051755579 0.51712626 8156488
0.88598508 0.0052179075 0.51800519 7169345
0.89500833 0.0035057897 0.51672918 9139031
0.90647107 0.0067595602 0.51933473 9070918
1.03917 0.00082972855 0.51319182 2366486
1.0527319 0.0050046267 0.51081872 1580572
1.0613527 0.0053219022 0.51730698 2304795
1.08517 0.0080911303 0.51214981 14267482
1.0964688 0.0044751721 0.51864868 14990470
1.105253 0.0073317122 0.51089263 7691074
1.1123462 0.0082509909 0.51798153 4548449
1.1250305 0.0054477192 0.51471835 5589821
1.1351857 0.0020548736 0.51682407 6769985
1.1450005 0.0031636031 0.51622593 6182469
1.1633964 0.0038045726 0.51941836 6179129
0.83123767 0.015542315 0.51540828 6972233
0.85652381 0.012050864 0.51513493 6907712
0.86289865 0.014407967 0.51509273 6510389
0.87595105 0.014599044 0.51429069 8549954
0.88684189 0.015421692 0.5173704 6903353
0.89348066 0.014119942 0.51361215 6244138
0.90598959 0.01284112 0.51940584 5919018
1.1029427 0.01529032 0.51082778 6777183
1.117049 0.014727607 0.51798809 9792846
1.1232399 0.014766172 0.51048744 6968375
1.1357565 0.014500349 0.51649827 8609346
1.1474419 0.01730206 0.51289421 5259829
1.1623321 0.016806502 0.5195061 4997170
0.83777952 0.027679933 0.51683629 8946512
0.8482495 0.021608703 0.5133611 4345649
0.85437882 0.022854218 0.51392335 6644815
0.86445218 0.026179146 0.514485 5920822
0.87639558 0.026371665 0.51683038 5003332
0.88635528 0.024520367 0.51545459 7234380
0.8941142 0.025203377 0.51773101 4538667
1.0476121 0.025576217 0.51792812 1842965
1.1059916 0.024952354 0.51140332 8347458
1.1158158 0.026883444 0.5163101 7760208
1.1278194 0.02383692 0.51050651 5655609
1.1322511 0.025315687 0.51680475 7759446
1.1452982 0.025601204 0.51698881 6836545
0.83603466 0.033211395 0.513901 6446136
0.84218943 0.036277454 0.51800323 4079919
0.85574645 0.03453742 0.51402545 6380860
0.8645612 0.036258671 0.51273328 6184263
0.87590331 0.035315614 0.51471692 9471827
0.88671398 0.034269903 0.51675701 5266495
0.89393276 0.033733491 0.51843631 4078116
0.90539938 0.039452277 0.51768744 10140590
1.0993487 0.03093607 0.51070893 10705219
1.1030185 0.035530724 0.51484537 7695455
1.1142126 0.032565657 0.51632541 10584154
1.124172 0.034374014 0.51617664 12362375
1.1352816 0.039066695 0.51686668 7101262
1.1439623 0.034108639 0.51531029 6640970
1.1593385 0.038075864 0.51975769 8349020
0.82631713 0.043368682 0.512214 5459503
0.83566123 0.043674819 0.51458371 3553585
0.84553975 0.04449451 0.5168677 6707757
0.8518607 0.04526417 0.51595837 3685156
0.867176 0.04428187 0.51607823 3421724
0.87598169 0.044179659 0.51503581 5263156
0.88715547 0.042542007 0.51621395 6512965
0.89217514 0.044676736 0.51713628 4209729
1.0896691 0.044865306 0.51054478 8938322
1.1025281 0.047055207 0.51479959 5854023
1.1149769 0.045631133 0.51476634 7036511
1.1235528 0.043690585 0.51295495 7295296
1.1352316 0.044679996 0.51769072 6378565
1.1475039 0.048291866 0.51330292 8222315
1.1604167 0.046960678 0.51986969 6511684
0.82660043 0.050381053 0.51337087 6707756
0.84694731 0.053403426 0.51546133 3161126
0.85655051 0.05423684 0.51517659 4012323
0.86515248 0.053475492 0.51503575 4145189
0.8760519 0.054644976 0.51592922 5329730
0.88540083 0.054757066 0.51803631 2631194
0.89397413 0.053099379 0.51966977 4936505
1.0949664 0.057463977 0.51194298 6571589
1.1053041 0.055661723 0.51383299 7693902
1.118247 0.055652365 0.51413351 10253928
1.1253225 0.058534648 0.51099008 8616805
1.1334907 0.056275986 0.51691926 8481367
1.1470805 0.056782864 0.51352304 5326127
1.1554208 0.054700751 0.5142293 6575176
1.1660361 0.053882863 0.5198226 5656143
1.1713951 0.053974241 0.51986241 10255949
0.83013737 0.069520958 0.51138794 4738349
0.84741181 0.069470152 0.51700795 4474155
0.85716915 0.064587146 0.51366204 2960925
0.86549842 0.064115137 0.51430398 3879974
0.87552345 0.065041319 0.51654077 4408628
0.88464212 0.064079568 0.51960015 2105879
0.89120162 0.062964849 0.5197385 1975319
1.0994773 0.068456285 0.51050276 8275505
1.1129568 0.066064112 0.51332402 6841949
1.1238666 0.064161219 0.51777059 6376755
1.1347859 0.063699543 0.51654017 9336671
1.1441989 0.064630561 0.51512563 9014129
1.1501704 0.064708821 0.5133518 4800547
1.1630914 0.065836377 0.51993644 2764328
0.81377161 0.078916043 0.51183689 16777215
0.82598281 0.07524839 0.51508206 8553844
0.83806336 0.077508464 0.51756692 4277032
0.84512877 0.072549939 0.51615679 4211232
0.85444331 0.07500799 0.51733851 4602664
0.86491829 0.072689101 0.51249069 2960415
0.87529945 0.073777497 0.51566172 3618597
0.88399869 0.077089734 0.51898593 2566432
1.1026218 0.07365685 0.51050234 5195839
1.1141374 0.072727218 0.51479781 6316874
1.1244843 0.075331293 0.51235682 5787976
1.135704 0.073145442 0.51504529 8942686
1.1442059 0.07513196 0.51474881 7292729
1.1500188 0.072371699 0.5137431 9603223
1.1610614 0.071829967 0.51994485 6833713
0.77837926 0.083861507 0.51433963 16776702
0.7874729 0.08410421 0.51617479 16643066
0.80327481 0.08160416 0.51986116 16777214
0.81785923 0.088212654 0.5129391 9936015
0.82311177 0.083244272 0.51453066 7237478
0.83209693 0.087108448 0.51754117 5128488
0.8448149 0.085685328 0.51553935 4341541
0.8520788 0.084102102 0.51559204 3882025
0.86395133 0.085810125 0.51240754 3552291
0.87563348 0.083868325 0.51549023 3224365
0.88785964 0.085703254 0.51744342 2238238
1.106083 0.086636186 0.51190048 6970707
1.1241423 0.085361369 0.51635128 7037783
1.1371081 0.08531595 0.51760209 5791842
1.1478957 0.08123824 0.51969045 11639669
1.1505966 0.084897816 0.51344478 6309420
0.76756144 0.090347663 0.51194268 16777215
0.77480811 0.091528766 0.51939195 16776703
0.78861338 0.097897582 0.51625794 16777173
0.7939676 0.093200557 0.51794398 14941692
0.81684905 0.09020894 0.51293492 9544874
0.82691741 0.094139636 0.51654929 6646625
0.84255916 0.095017098 0.51551336 2830627
0.85451025 0.093991078 0.51024699 2566167
0.86744851 0.097537704 0.51721483 2698542
0.87097079 0.091032282 0.51726019 4342052
1.0988957 0.099694364 0.51337087 6513765
1.1038985 0.093262196 0.51337087 8611926
1.1263174 0.093620554 0.5140233 7821138
1.1346498 0.094506174 0.51046056 5332594
1.1437768 0.095930904 0.51755035 6644070
0.79399186 0.1055795 0.51664865 16777215
0.81802422 0.10291044 0.51337087 3226659
0.82016826 0.10398247 0.51337087 2501152
0.85459167 0.10405532 0.51207244 3818834
0.86852276 0.10161843 0.51382476 2699066
1.124474 0.10684602 0.51467693 6375479
1.1380024 0.10385386 0.51750088 6378827
1.1423799 0.10200463 0.51976073 7756093
0.8443619 0.11562052 0.51209944 6326171
0.85752153 0.11970548 0.5191555 6253213
0.8657496 0.11409689 0.51632214 3882825
1.1354884 0.11390209 0.51291198 9474970
0.84359974 0.12753403 0.5149008 5926280
0.83946478 0.1382874 0.51337087 3954579
0.84643263 0.13175213 0.51490307 3755328
0.85562551 0.13346288 0.51611257 3028034
0.87967604 0.13515061 0.51729274 2241867
0.83946478 0.14043145 0.51337087 3289917
0.84375286 0.14614893 0.51337087 4082003
0.8501851 0.14686362 0.51337087 1912215
0.848041 0.15115173 0.51337087 6837565
0.75307673 -0.23081182 0.52167195 16777215
0.76935947 -0.215947 0.52916604 16777215
0.76496816 -0.20775388 0.52750719 16777215
0.76404768 -0.19227031 0.52678275 16777215
0.73883235 -0.1759612 0.52377146 16777215
0.73884892 -0.16845703 0.52375269 16777215
0.73931003 -0.15742712 0.52276671 16777215
0.74210507 -0.15593696 0.52563393 16777215
0.71677285 -0.14247538 0.52081102 16777215
0.72982365 -0.14900078 0.52081102 16777215
0.73417389 -0.14682564 0.52081102 16777215
0.82082593 -0.12043312 0.52342868 16777215
0.82913131 -0.11650131 0.52457374 16777215
0.90293938 -0.067439482 0.52571684 16777215
0.86191249 -0.042063378 0.52323395 16777215
0.87435228 -0.041392568 0.52620608 14932905
0.89259028 -0.04244598 0.52482134 16777215
0.83640504 -0.038069129 0.52081102 16777215
0.86796439 -0.038362816 0.52590346 16776949
0.87239379 -0.032964882 0.52805722 7165754
0.88333404 -0.034845535 0.52557313 11577748
0.89404082 -0.035839714 0.52494466 16119511
0.86084479 -0.027555503 0.52187604 16773049
0.87402511 -0.026885007 0.52903521 14607057
0.88309813 -0.021934383 0.52597839 7892545
0.89238542 -0.023181232 0.52507728 9866577
0.85464936 -0.016925866 0.52458841 14221311
0.87488955 -0.017836092 0.52925509 7891524
0.88288218 -0.013545513 0.52605325 6445626
0.89484429 -0.01605753 0.52523124 13357212
0.84595412 -0.0066328519 0.52289438 16777210
0.85617363 -0.0035967315 0.52362883 13485977
0.86528373 -0.005402266 0.52434254 7043705
0.87306392 -0.0010646472 0.52666092 6775368
0.88437122 -0.0042975107 0.52612978 10590056
0.89468431 -0.0032226983 0.5245418 8745831
0.90397799 -0.0044668419 0.52597845 9073732
0.91046029 -0.0067699221 0.52572215 6639952
1.0676062 -0.0005315392 0.52662939 2107427
1.1517406 -0.0028255407 0.52211291 7625282
1.1659685 -0.0055644871 0.5288803 7490869
0.83858013 0.0054334756 0.52081102 15597567
0.84075528 0.0010832149 0.52081102 16777215
0.85311937 0.0033062622 0.52847004 16777215
0.86784363 0.0087610316 0.52204138 5068845
0.87467146 0.0043256832 0.52395523 9670253
0.88544655 0.0056983712 0.52588296 9603683
0.8952629 0.0044088187 0.5244903 9140050
0.90632981 0.00028575805 0.52572107 11500645
0.91407681 0.0027318343 0.52593535 7496511
0.9204576 0.0065158685 0.5261358 4673608
1.056337 0.004426559 0.52422273 2237978
1.110052 0.0068602106 0.52547282 14791555
1.1300286 0.0049172845 0.52520972 13347980
1.1514438 0.0035225928 0.52634627 4736583
1.1756569 0.0041195313 0.52615285 6971979
0.86478263 0.016900338 0.52300996 5656891
0.87277085 0.017139774 0.5267362 7299659
0.88467497 0.014818587 0.52662909 8287821
0.89336634 0.018082531 0.52670062 9143401
0.90493423 0.015539289 0.5259288 5396030
0.91737318 0.010540213 0.52611816 8017194
0.92041445 0.010571606 0.52618968 12556863
1.1130612 0.010938789 0.5256108 14261100
1.1308832 0.018502537 0.52343935 8217418
1.1456584 0.01331627 0.52268684 7425074
1.160216 0.011751503 0.52964348 7688763
1.1762829 0.014263069 0.52625161 5259321
0.83858013 0.029359909 0.52081102 11314003
0.84283739 0.022322178 0.52270627 8291391
0.85418552 0.026667207 0.52448201 6316603
0.86554039 0.025011061 0.52270508 5857355
0.87632954 0.026075527 0.52378839 6644286
0.88494974 0.025121393 0.52573031 7170118
0.89545488 0.023376061 0.52508247 7628615
0.90364653 0.02547477 0.52514869 9470316
1.1058817 0.025061525 0.52202958 11839113
1.1188065 0.026720598 0.52901983 11315348
1.12735 0.026830198 0.52340138 5919056
1.1312428 0.025474835 0.52587914 7692357
1.1468837 0.023701044 0.52757096 7493952
1.1548177 0.025314821 0.52379262 7693650
1.1624051 0.026249852 0.52038652 7229246
1.176903 0.02411402 0.52757072 6968394
0.83858013 0.034797736 0.52081102 9275490
0.85431826 0.036861937 0.52343798 5391919
0.86738789 0.032993674 0.52313024 5063216
0.87395412 0.034342319 0.521231 7633223
0.88430768 0.034142103 0.52674478 7301439
0.89300418 0.035286978 0.52438474 7301182
0.90320921 0.03550709 0.52642709 7296829
1.1231091 0.033827804 0.52340424 8611400
1.1398079 0.0358449 0.52890044 8415566
1.1453671 0.036548853 0.52560174 11243383
1.1540524 0.034997884 0.52597314 7297608
0.83858013 0.043860778 0.52081102 9271630
0.85467941 0.046495665 0.5246163 5261869
0.8627978 0.044451896 0.52264798 4933157
0.87566531 0.045998875 0.52372611 7891008
0.88379538 0.04324545 0.52729535 4407082
0.89361924 0.044514954 0.52424037 5720624
0.90302098 0.04377757 0.5246858 6524500
0.91291124 0.040119763 0.52479511 6907448
1.1261504 0.0445529 0.52179146 14065282
1.1381786 0.042807046 0.52024746 6902335
1.1441485 0.046853915 0.52045149 4273697
1.1520231 0.043844793 0.52295601 8160106
1.1659064 0.046390679 0.52980983 7303787
1.1735024 0.042324543 0.52642554 8018238
0.84294397 0.053410351 0.52253544 4212280
0.85416365 0.055132445 0.52603137 5590572
0.86307794 0.055270452 0.52390456 4143650
0.87414187 0.053997546 0.52704716 3552290
0.88630605 0.055713922 0.52481019 3355938
0.89309049 0.054171517 0.52512217 7236670
0.90250784 0.05459914 0.52636695 6511452
1.1160787 0.054520234 0.52292478 8873038
1.1329622 0.057602048 0.52348524 8479827
1.1465887 0.056478657 0.52459717 9336171
1.1563045 0.056221697 0.52600092 5199182
1.165683 0.055650283 0.52997047 4013889
1.1784443 0.055849656 0.52664816 7173451
1.183854 0.057981607 0.52651489 6178344
0.85407734 0.068207927 0.52409828 5262379
0.864223 0.067263462 0.52273428 3355171
0.87468231 0.063866511 0.52632862 3750950
0.8841874 0.064845279 0.52298713 2631198
0.89254785 0.065811686 0.52610779 4933422
1.1381476 0.064367697 0.52642846 4142904
1.1462828 0.064767048 0.52474511 9340277
1.1520796 0.067376763 0.52570641 9004354
1.1610101 0.066331558 0.52133632 9269596
1.1748924 0.067577057 0.52669585 3618350
1.1833007 0.062978514 0.52656955 1976365
0.84231144 0.077354237 0.52239746 4277036
0.85468191 0.074854754 0.5251441 3619366
0.86424273 0.075291052 0.52467757 3619360
0.87369394 0.076033473 0.52724683 3221536
0.88431698 0.075600252 0.52408397 2368536
0.89506418 0.074638486 0.52619809 4076331
1.1303152 0.076023787 0.52499986 8481615
1.1446832 0.075818919 0.52404469 6648162
1.1561608 0.07220152 0.52796823 6973003
1.1742058 0.07294596 0.52673072 4930091
0.78422016 0.088972248 0.5262146 16776191
0.79247373 0.083472334 0.52158636 16777215
0.82368696 0.086038068 0.52237517 7175309
0.83520997 0.084927753 0.5227474 7828061
0.84643525 0.084792405 0.52509731 6903114
0.85241461 0.086847983 0.5270347 3816490
0.86648649 0.087548971 0.52291578 3683620
0.87112004 0.080420226 0.52045846 3883823
0.88337928 0.083503865 0.52403504 2697504
0.89429331 0.082651019 0.5261274 3684911
1.1387275 0.084198937 0.52638328 7165244
1.1479497 0.083011433 0.52689791 5917496
1.1561872 0.080743603 0.52635425 6376764
1.1616155 0.083754182 0.52348894 10642742
0.78635323 0.091557823 0.52158552 16777215
0.79656726 0.092018291 0.52644193 15525602
0.80192119 0.093852222 0.52454609 16776702
0.83569831 0.097209036 0.523197 5789767
0.84377873 0.093169555 0.52686304 5849383
0.85475069 0.094068348 0.5242359 3159074
0.86086923 0.09040381 0.522874 4932910
0.8818785 0.091679998 0.52440327 3880990
0.89498889 0.091037586 0.5245409 2631967
1.1361884 0.095663846 0.52672362 9011055
1.156317 0.095769696 0.52556652 5655104
1.1655307 0.096626841 0.5203262 6380622
0.78952515 0.10611974 0.52176285 16777215
0.83422989 0.10113921 0.52081102 4804956
0.84531933 0.10242961 0.52909958 4343889
0.85407299 0.10040468 0.52281499 3685673
0.87378913 0.10260815 0.52253956 3684918
0.88459206 0.10376124 0.52338064 4600370
0.89436811 0.10885704 0.52742368 8082509
1.1312162 0.10041944 0.52847004 6120804
1.1583811 0.10646181 0.52704144 6115900
1.1806581 0.10679604 0.52750075 7433571
0.86387706 0.11045286 0.52172142 6239823
0.89505464 0.11366215 0.52847004 16776093
1.1404032 0.11474805 0.5263201 10077411
1.1659781 0.11696646 0.52721906 8618354
0.85460478 0.12939999 0.52308321 5917019
0.86816382 0.12548774 0.52426362 9080202
0.87026852 0.12064531 0.52536714 3424073
1.1638104 0.12063444 0.52721518 11661567
0.84945583 0.13811642 0.52081102 8491937
0.86426306 0.1336744 0.52457678 4799565
0.87237406 0.13550617 0.52491301 3621439
0.89106864 0.13508359 0.52444184 4737618
0.85650396 0.14314373 0.52336401 4477021
0.86294156 0.14377175 0.52081102 4538424
0.87077636 0.14897603 0.52847004 7022362
0.86033148 0.1511672 0.52081102 7439021
0.87298346 0.15118314 0.52847004 7889894
0.77669489 -0.22289552 0.53624898 16777215
0.74912733 -0.17947654 0.53130484 16777215
0.76416117 -0.17317304 0.53907108 16777215
0.75189084 -0.16176349 0.53034461 16777215
0.75837648 -0.15652952 0.53337461 16777215
0.76168972 -0.15120851 0.53635764 16777215
0.76392978 -0.14896844 0.53635764 16777215
0.85241067 -0.1311776 0.53617495 16777215
0.85373652 -0.12130737 0.53891569 16777215
0.86494023 -0.050298989 0.53052551 16777215
0.87933177 -0.050934769 0.53828287 16777215
0.86897248 -0.049603112 0.53843927 16777215
0.8883422 -0.046681337 0.53363889 16447989
0.89424825 -0.040282611 0.53244305 15397113
0.90522718 -0.043594301 0.53676778 16711679
0.88314223 -0.037266638 0.53507614 14740373
0.89482182 -0.035209659 0.53252929 14080436
0.90768325 -0.035197694 0.53705764 12830640
0.91512132 -0.035258774 0.53666002 16776703
0.87050736 -0.023400327 0.53195232 16777215
0.88483787 -0.023044711 0.53573155 10396514
0.89361447 -0.024029978 0.53380895 9866331
0.90697736 -0.025217654 0.53587699 10527366
0.91799551 -0.02732146 0.53911459 10137019
0.86752975 -0.015102873 0.53200841 12039585
0.88607353 -0.013953323 0.53669441 8949626
0.89678735 -0.013950408 0.53205943 9141849
0.90845793 -0.014017275 0.53452194 10659448
0.91548312 -0.01338633 0.53649557 14069117
0.9235819 -0.013715017 0.53942943 11370333
0.85792047 -0.0044262772 0.53043056 14351868
0.86801738 -0.0029034212 0.53404623 11777162
0.87660909 -0.0056515485 0.53452486 11053706
0.88565958 -0.0068407636 0.53597689 12960420
0.89590764 -0.0040820688 0.53473461 12696464
0.90498608 -0.0040063858 0.53333938 9673064
0.91340733 -0.0043995446 0.53619951 11971458
0.92737156 -0.0013496683 0.5328458 6538315
1.0777793 -0.00023194657 0.5335322 2500890
1.1774849 -0.0044345153 0.53582996 6834996
0.86694324 0.0050411513 0.5372529 11317371
0.87804061 0.0065197321 0.53598857 10189655
0.8858763 0.0040675118 0.53849494 7108433
0.89538306 0.0039944476 0.53336835 9210730
0.90697277 0.0067226416 0.53583378 11446389
0.9175576 0.0059456863 0.53342474 6583655
0.92349213 0.003723796 0.53360963 8287808
0.9346559 0.0045655249 0.53583211 8283448
1.1631328 0.00035544956 0.53320962 7887421
0.86485428 0.014961686 0.53432214 8950373
0.88600802 0.016255574 0.5346151 8550994
0.89600456 0.01444832 0.53420645 10391889
0.90422964 0.017098274 0.53480697 8286540
0.91242838 0.015484986 0.53559929 7238751
0.92366958 0.012110524 0.53446782 5985362
0.93340617 0.011047864 0.53315473 13470828
1.1393926 0.011836918 0.53971344 14330236
1.1414065 0.017889557 0.53286165 7628117
1.1587179 0.016185222 0.53615344 5526096
1.1730671 0.01149248 0.53677452 5650981
1.1923138 0.014741854 0.53324342 5325351
0.85476595 0.027123475 0.53022778 8621918
0.86361241 0.023516146 0.53635764 8942408
0.87601018 0.029067593 0.53179789 7630409
0.88662404 0.027000342 0.53643489 6052925
0.89700383 0.024813579 0.53631181 7696205
0.90642148 0.024669668 0.53385943 7760206
0.91313761 0.025252679 0.53606403 6976333
0.92036849 0.026896045 0.53584158 10594935
1.1341534 0.02950743 0.53627574 12820616
1.1423033 0.025716921 0.53282648 7561035
1.1565392 0.025825392 0.53623521 8350033
1.167496 0.02613128 0.53247297 7888196
1.1739526 0.025264021 0.53391606 7691848
0.85478461 0.032561187 0.53019792 8552269
0.86743158 0.036354333 0.53370297 6577205
0.87824482 0.03454297 0.53532767 10853235
0.88646466 0.036235236 0.53725672 6382671
0.89581937 0.036933452 0.53476882 8420940
0.90397263 0.035208382 0.53465384 7698516
0.91242778 0.033188678 0.53598672 9074000
1.1369984 0.032695197 0.53274012 8544069
1.1639526 0.039088961 0.53243208 8344122
1.1720562 0.032741223 0.53394264 7625799
0.85482812 0.045249179 0.53012818 5528378
0.86815721 0.046395201 0.53410262 7562302
0.87639475 0.045429122 0.53100121 7368516
0.88668925 0.043966342 0.53505224 8287552
0.89423954 0.04569947 0.53488451 7363898
0.90523219 0.046178646 0.53430659 6314552
0.91232204 0.045555994 0.53521788 4869425
0.92476183 0.041290995 0.53462833 8286521
0.93258351 0.040454887 0.53967142 9276510
1.1554055 0.04297293 0.53641635 8218462
1.1658465 0.04194247 0.5339222 6511444
1.1826053 0.04766424 0.53502905 6311743
0.8664549 0.05620252 0.53528488 6055242
0.87713164 0.056641392 0.53251684 6907461
0.8842656 0.055702828 0.53252602 4143908
0.89532655 0.055062059 0.53488374 6839868
0.90582466 0.054463502 0.53489459 6515276
0.91067845 0.051002845 0.53793645 6313519
0.92378426 0.052324533 0.53584361 4872266
0.93252116 0.055836108 0.53965044 5985862
1.1354455 0.055539101 0.53259987 9874836
1.1466025 0.057826728 0.53395444 16767658
1.1677059 0.056672789 0.53003693 4271394
1.1705433 0.050776187 0.53424531 9005672
1.1823523 0.053657871 0.53698683 4137998
1.1933763 0.057970442 0.53342593 4798765
0.85490763 0.068450078 0.53000069 4801584
0.86681241 0.065122232 0.53165048 5656625
0.87368965 0.066263616 0.53129882 4800293
0.88554847 0.065269433 0.53682673 5461813
0.89484167 0.06675075 0.53618139 4604458
0.90630347 0.063093722 0.53489769 5066027
0.91759843 0.063365862 0.53875667 8157765
1.1398339 0.066762336 0.5325774 8809035
1.1498772 0.063257359 0.53396749 13676182
1.1575352 0.066493586 0.53657508 9010279
1.1637988 0.065658204 0.53306556 10063741
1.1748983 0.067882515 0.53770155 6115398
1.1927197 0.068558373 0.534908 16238998
0.84372699 0.079392597 0.53932321 16777215
0.86646593 0.077133536 0.53400218 4342824
0.87349248 0.075314403 0.53288168 4737068
0.88500357 0.075774692 0.53617269 3553062
0.89336461 0.076983936 0.53544664 3749671
0.9038859 0.073764555 0.53365564 4935996
0.91235304 0.07268668 0.53834504 2894614
0.92616159 0.075391412 0.53955835 5923899
1.1442089 0.07399793 0.5325768 5260865
1.1564361 0.078468844 0.53398281 6108955
1.1662601 0.073914625 0.53430337 13283722
1.1732552 0.076815732 0.53401083 9071954
1.1856277 0.076750591 0.53549433 3292992
0.80719316 0.088896126 0.53125703 13030071
0.82516885 0.084496699 0.53389841 16777215
0.83587641 0.084774047 0.53277105 15593197
0.84647375 0.088189512 0.53796148 11190483
0.85603309 0.08653599 0.53532898 10788501
0.86580503 0.085263282 0.53387904 3817004
0.8751862 0.084801614 0.53249943 3552803
0.88523656 0.085656211 0.53682435 3749413
0.89542848 0.085008048 0.534334 3026208
0.90415645 0.085782312 0.53627318 2835755
0.91073853 0.084486715 0.53619379 3356718
1.14641 0.081603371 0.53255463 15444055
1.1535468 0.08336924 0.53394687 7888965
1.165138 0.084858954 0.53327006 5988184
1.1742221 0.087716646 0.53672767 5194290
0.78964317 0.096733898 0.53331029 13551069
0.7910682 0.09222877 0.5332647 14341091
0.81398392 0.09510383 0.53180379 16580094
0.82190746 0.091541201 0.53847665 16776445
0.83171219 0.091810107 0.53771555 16777203
0.84852856 0.098988578 0.53363812 9739644
0.85541153 0.096712545 0.53147781 8806489
0.86324251 0.093850434 0.53696746 4996900
0.87330753 0.095665239 0.53335553 5260846
0.88536096 0.096132122 0.53393549 4537640
0.89414179 0.094783686 0.53436363 3090205
0.90456247 0.096327409 0.53506231 2304030
0.91891271 0.099627137 0.53945065 1908760
1.1490271 0.098868713 0.53511906 9804716
1.1550009 0.09691415 0.53533179 10783330
1.1625283 0.094798595 0.53469145 10065307
1.1746993 0.096213326 0.53442413 5194809
0.80813706 0.1047236 0.53195482 16777215
0.82217067 0.10921036 0.5388341 16777215
0.83437335 0.10877667 0.53111595 16777215
0.85913229 0.10863841 0.53635764 4730396
0.8661347 0.10247238 0.53404385 8154959
0.87734175 0.10688202 0.53929067 3488789
0.88142991 0.10797906 0.53808975 3815716
0.89908159 0.10461214 0.53179657 2368284
0.90465361 0.1081914 0.53855938 4405542
0.91246676 0.10360332 0.53937817 2368539
1.1702707 0.10579788 0.5344308 8357523
1.1945851 0.10609423 0.53487796 14529903
0.81103897 0.11171071 0.53702581 16777215
0.82955933 0.11456439 0.53773016 16777215
0.85913229 0.11087848 0.53635764 4536344
0.86361241 0.11535859 0.53635764 4404518
0.88539946 0.11528417 0.53411812 6184008
0.89460087 0.11837845 0.53975177 7240872
0.90561354 0.1119985 0.53635764 7692333
1.133468 0.11318619 0.53226352 9858641
1.1554378 0.11871093 0.53387332 6389374
1.1733918 0.11227604 0.53451896 5720373
1.1956093 0.1125342 0.5348801 7891569
0.82660925 0.12023618 0.53884262 7962670
0.87776703 0.1214585 0.53305161 5531002
0.89240497 0.12256394 0.53979361 2177853
1.1804088 0.12113386 0.53467709 11122084
0.87488616 0.1329219 0.53154576 4211030
0.8866601 0.13568254 0.53686959 4150101
0.89530891 0.13823342 0.53599703 4608855
0.90169883 0.13715066 0.53178096 5133408
0.91263711 0.13927767 0.53933287 4941624
0.86809254 0.1422393 0.53635764 7044011
0.88153291 0.14895949 0.53635764 3032660
0.88601303 0.15119955 0.53635764 7421722
0.76868254 -0.15804756 0.54448432 16777215
0.77891552 -0.15122555 0.54448432 16777215
0.86049438 -0.12427382 0.54348975 16777215
0.89630169 -0.040623859 0.54236209 16776589
0.90626144 -0.047099918 0.5460999 16777215
0.91645557 -0.046110231 0.54631209 16644853
0.9221009 -0.042400353 0.54647791 16776959
0.88754857 -0.034086809 0.54029012 15655118
0.89625239 -0.030056354 0.54255027 5327657
0.90369034 -0.032291923 0.54341751 15396306
0.91863322 -0.031910274 0.54825473 16578785
0.92646801 -0.036736846 0.54664767 16777215
0.89627475 -0.024219582 0.54463559 12368281
0.90533346 -0.025336888 0.54182559 9210219
0.91246456 -0.027726473 0.54819351 16776957
0.92418349 -0.025007725 0.54723537 12828569
0.89617354 -0.013148344 0.54285139 6314550
0.90225494 -0.015026672 0.5440805 9534038
0.91219395 -0.01489931 0.54595429 13150862
0.92407221 -0.01427925 0.54550391 9080946
0.93428683 -0.013465733 0.54709649 7966342
0.88404077 -0.00093931489 0.54619414 16645297
0.89558077 -0.0034957516 0.54572529 10063987
0.90433097 -0.0058256388 0.54446763 10919802
0.91497016 -0.0055982741 0.54603207 10656094
0.9241327 -0.0053911051 0.5439862 13483686
0.93285048 -0.0038090006 0.54465288 5871453
0.94056803 -0.0038326778 0.54771852 9072164
1.1914166 -0.005739246 0.54297835 6765851
0.88330942 0.003543233 0.54616278 8159071
0.89517611 0.0062809866 0.54535538 8748117
0.90559638 0.0036957555 0.54356319 9798224
0.91488665 0.0052215056 0.54158247 4871513
0.92504311 0.0039455853 0.54716659 8881249
0.93275344 0.0072075399 0.54282314 11309684
0.9437567 0.0044037849 0.54400545 6252371
0.95214731 0.0013856145 0.54733419 4882248
1.1665794 0.0070196935 0.5496487 9410190
1.1743411 0.0080979345 0.54668355 12627073
1.1884209 0.0098579507 0.54412556 6830119
0.87669754 0.013260451 0.54448432 8819560
0.89648396 0.017637379 0.5457232 9472081
0.90619892 0.014520782 0.54463607 10785887
0.91477078 0.015754037 0.54607069 10785915
0.92347175 0.013899748 0.54451305 9408613
0.93416023 0.010388298 0.5442307 9007423
0.95163989 0.012734327 0.54931921 4743730
1.1573243 0.014450363 0.54719436 14066541
1.1605369 0.018935308 0.54068768 7104096
1.1722285 0.016815202 0.5437777 8020556
0.88560033 0.026516376 0.54211706 14727534
0.89531219 0.028049212 0.54624873 10721884
0.90412521 0.024977375 0.54436433 10849121
0.91469437 0.024944207 0.54541969 8946275
0.92327482 0.025684705 0.54618096 4475438
0.93334872 0.022444563 0.54721743 10388306
1.15835 0.024828287 0.54063541 7756613
1.1717622 0.026811838 0.54624629 8806723
1.183561 0.026420143 0.54087371 7425847
1.2014371 0.028388698 0.54941487 6574919
0.88529193 0.03404776 0.543432 8614971
0.89514202 0.035380036 0.5461387 9074758
0.90593147 0.035640068 0.54344821 8154951
0.91365892 0.036096286 0.54330546 9332811
0.9246465 0.036373802 0.54625189 7828560
0.93103921 0.031258158 0.54062486 8486738
0.94560516 0.03452801 0.5474745 8348741
0.95004666 0.037924342 0.54751641 4813405
1.148876 0.032352544 0.54371119 13020296
1.1517581 0.033311099 0.54052913 9205598
1.1686304 0.031699695 0.54857808 8547690
1.1768785 0.035247475 0.54499435 13341010
1.1838822 0.035887394 0.5415675 6706502
1.1967834 0.034313951 0.54860598 8215885
0.88210243 0.044333696 0.54520297 10463080
0.89525431 0.046946794 0.5467515 10984805
0.90625191 0.048542071 0.54601169 8093785
0.91524583 0.045121655 0.5453487 5722935
0.92548305 0.045221392 0.54744405 5659452
0.93448329 0.040908381 0.54585117 7832927
0.9420684 0.042739935 0.54683763 8152134
1.1671408 0.040505167 0.54398203 16758634
1.1794263 0.04638676 0.54018641 10511685
0.87897152 0.055708457 0.54448432 8412986
0.88521129 0.054775566 0.54263735 8944452
0.89362246 0.055667106 0.5441398 7892814
0.90446675 0.055427212 0.54460466 6448962
0.91514373 0.05372978 0.54557848 6974287
0.92453617 0.056431498 0.54733235 4475954
0.9408983 0.05132011 0.54740328 3818286
1.1518488 0.059795953 0.54038358 13484738
1.1619388 0.056228746 0.54174304 14799006
1.1740803 0.053797022 0.54604936 15322020
1.1843619 0.056988087 0.54150313 8018241
1.1952155 0.055378824 0.54836434 9534048
0.88472933 0.066629477 0.54279137 4145708
0.89728612 0.066096202 0.54697609 4540464
0.90333813 0.064648606 0.54529625 5132857
0.91259646 0.067085981 0.5446884 3486753
0.92460382 0.069336742 0.54611272 3685927
0.93439621 0.060441338 0.54639792 6642989
0.94088346 0.061819848 0.54738921 4931634
1.1529675 0.064206369 0.54036927 16168338
1.1647943 0.064224958 0.54487509 13742991
1.1767929 0.066569 0.54360712 15520949
1.1850247 0.067890488 0.54417032 15775099
1.1912448 0.068833269 0.54812491 16707273
1.2050861 0.062116519 0.54074866 5322526
0.87669754 0.07844846 0.54448432 4145708
0.88486761 0.07689923 0.54577148 4276529
0.89466071 0.07583788 0.54465443 4800047
0.90650743 0.073884502 0.54398948 4407858
0.91277945 0.077967815 0.54739827 4277288
0.92414343 0.078994706 0.54630435 2501157
0.93986166 0.072059862 0.54736507 7109966
0.94238997 0.078332327 0.54738319 2630941
1.1596301 0.076322891 0.54036236 4877410
1.1738853 0.075532921 0.5450877 7890778
1.1854182 0.0755319 0.54582196 12031861
1.1942295 0.071822084 0.54814118 16773581
1.2003359 0.073401593 0.5497157 15983815
0.83463281 0.087327421 0.54270774 14213332
0.84648418 0.087745972 0.54695725 16380903
0.85823208 0.080817379 0.54669631 16515071
0.87834489 0.084138349 0.54259348 8480818
0.88322711 0.085494675 0.54295081 3948587
0.89315432 0.085950837 0.54603165 6114875
0.9048512 0.084108293 0.54418188 3288608
0.91275829 0.085084587 0.54541993 2698273
1.1652384 0.082450859 0.54103887 5527381
1.175994 0.083756812 0.54585022 9134399
1.1848882 0.082735084 0.5426361 7893861
1.1987203 0.085548237 0.54752517 5656136
1.2044497 0.084498003 0.54984981 8682588
0.8118366 0.093645364 0.54539001 16772594
0.84643501 0.093324192 0.54217041 14477544
0.85341597 0.092347562 0.54372424 5669791
0.86383295 0.091719031 0.54649174 16777215
0.87443477 0.095451109 0.54289627 6714464
0.88482076 0.097249448 0.54679942 4542261
0.89792681 0.093377151 0.54638577 3223327
0.90700245 0.094482414 0.54511595 3749415
0.91701561 0.090296701 0.54624146 3689271
0.92317313 0.094034418 0.54627818 3223852
1.1431569 0.099553071 0.54008555 16766384
1.1598893 0.095570326 0.54814643 16767637
1.1669571 0.095130861 0.54216391 7694950
1.1785493 0.093640581 0.54832518 5853498
1.1856308 0.093637981 0.54685897 8089943
1.2049856 0.094990484 0.54993075 8020296
0.81882131 0.1025909 0.54008168 16777215
0.82614636 0.10156715 0.54386008 16777215
0.83691877 0.10078599 0.54803526 16777215
0.86872977 0.10663427 0.54546171 16774399
0.87783456 0.10232545 0.54448432 3422249
0.88469726 0.10500596 0.54591626 7037503
0.89515972 0.10606438 0.54688781 4673607
0.90524459 0.10634229 0.54614079 1910042
0.91532773 0.10186917 0.54621488 2302999
0.92857313 0.10618717 0.54720223 2236697
1.1431645 0.10176013 0.54007345 16568980
1.1643152 0.10596125 0.54487926 11638356
1.1736978 0.10580111 0.54594111 7759195
1.1837207 0.10513338 0.54509598 10850419
1.1984119 0.10427577 0.54990602 9144470
0.82172137 0.11575326 0.5449878 16777215
0.8317793 0.11097129 0.54679608 16777215
0.8422401 0.11012499 0.54507506 13497852
0.85898912 0.11449859 0.54646522 16777215
0.87487829 0.11392286 0.54448432 4472102
0.89510828 0.11220481 0.54445773 5525062
0.90177178 0.11430296 0.5459187 2965552
0.91914558 0.11634847 0.54448432 6645304
1.1498233 0.11277313 0.54007262 8223104
1.1568995 0.116722 0.54011452 8364209
1.1665611 0.11481637 0.54486954 9941435
1.1753553 0.11483841 0.54817927 7499112
1.1835046 0.11617509 0.54323322 6444869
1.1990286 0.11592311 0.54874152 5863289
1.2107992 0.11539197 0.5424754 6453136
1.1564747 0.12157904 0.54008389 4932410
1.1775305 0.12313786 0.54815304 4080971
1.1879659 0.12362904 0.54967386 4604718
0.8912214 0.13343874 0.54551625 3378350
0.90297735 0.13778633 0.54645479 3423553
0.91191691 0.1371159 0.54738492 3815484
0.92835206 0.13598241 0.54716063 6795424
0.89792156 0.14818446 0.54448432 2701135
0.89830053 0.15121646 0.54448432 6505550
0.8058815 -0.19629185 0.55844384 16777215
1.2343813 -0.19734102 0.55898798 1513489
0.78644961 -0.18271287 0.55529201 16777215
0.77935392 -0.15817006 0.55286098 16777215
0.78858984 -0.15586108 0.55286098 16777215
0.87551385 -0.14033575 0.5582996 16777215
0.92574787 -0.051338144 0.5558458 16777215
0.921565 -0.042202547 0.55761224 16777215
0.9316172 -0.044486992 0.55390918 16777215
0.9409076 -0.043533128 0.55369639 16777215
0.91305566 -0.034033954 0.55216181 14869719
0.92317307 -0.03730242 0.55773836 13101496
0.93042827 -0.035886087 0.55590862 16777215
0.91400826 -0.024815174 0.55303609 10002055
0.92414969 -0.022943387 0.55540448 14736845
0.93494952 -0.023829073 0.55627954 13813170
0.94213885 -0.024939241 0.55397695 12756630
0.90739405 -0.019390805 0.55546814 16777210
0.91627741 -0.012484334 0.55293524 10590595
0.92207241 -0.014662988 0.55512792 12630428
0.93576759 -0.01548138 0.55641639 12893863
0.9463135 -0.015293602 0.55458522 12235124
1.0520188 -0.013339995 0.55653608 1448468
0.9073559 -0.0074674692 0.55571616 12830638
0.91321617 -0.0044501326 0.55358648 12040352
0.92393184 -0.0031247668 0.55322474 10722403
0.93464208 -0.0046840287 0.55501801 12370592
0.94131017 -0.0018849667 0.55880469 14331250
1.0508655 -0.0088683302 0.55651814 1775893
1.2057284 -0.0044388529 0.55037516 6768179
1.2204491 -0.0031013107 0.55798322 6769725
0.89601266 0.0077110352 0.55438137 12298071
0.90587157 0.0065246224 0.5557912 12561270
0.91205567 0.0035866241 0.55344504 9077852
0.92135811 0.0087972116 0.55185348 11510887
0.93628561 0.0049448521 0.55554509 9144666
0.94369709 0.0080807051 0.55427468 7631933
0.95477474 0.0041807452 0.55764341 6184256
1.1851687 0.0090476442 0.55574614 11839369
0.89368784 0.017324613 0.55359352 11968602
0.90530163 0.012537184 0.55580848 8877899
0.91357511 0.013900969 0.55487674 12622962
0.9249807 0.012996962 0.55323124 10001517
0.93445176 0.015380184 0.55466783 7567963
0.94232303 0.014067895 0.55911469 6900264
1.1180656 0.015362527 0.55730397 1780250
1.1852766 0.019856896 0.5516423 12028510
1.1961558 0.015715595 0.55702686 14064732
0.89688373 0.024925359 0.55429405 10914385
0.90696228 0.026089359 0.55588067 7895637
0.91668808 0.024384843 0.5542981 11837805
0.92535496 0.022077939 0.55465579 12760702
0.93401116 0.025434019 0.55451024 7764308
0.94490564 0.023293493 0.55829477 3552547
0.95429331 0.025135593 0.55546564 7116662
1.185407 0.025664747 0.55429804 11961684
1.202914 0.020827955 0.5597716 6773084
0.89364862 0.036939137 0.55286098 7567431
0.90633392 0.035452783 0.55440104 8813148
0.91487354 0.037695371 0.55486661 9278809
0.92467141 0.032324944 0.55615479 5722670
0.93634975 0.034944933 0.55640703 5067844
0.94011235 0.034993522 0.55636632 6711624
1.1671916 0.037483595 0.55148083 13084035
1.179644 0.036115967 0.55918151 13675917
1.1811172 0.03809363 0.55286098 8611145
1.1928251 0.033276871 0.55806792 13016174
1.2028345 0.035433989 0.55872566 14594169
1.2108914 0.031628396 0.55643326 8154970
0.89679015 0.044444598 0.55353463 12625525
0.90311545 0.043173395 0.55286098 12892538
0.91434157 0.045003764 0.55441058 6382657
0.92549056 0.047185123 0.55544204 5527347
0.93612403 0.045075063 0.55526054 8417588
0.94468796 0.042895921 0.55666471 3226932
0.95238173 0.04125024 0.55542439 5402444
1.1834925 0.043831918 0.55439478 14333821
1.2117896 0.048001811 0.55641794 7560523
0.89492226 0.054376781 0.55348325 12483922
0.90707058 0.055933904 0.55536872 6841161
0.91495675 0.054842073 0.5542441 7893317
0.92522275 0.056520648 0.55498612 8220999
0.93101436 0.054847285 0.55379009 3687215
0.94573557 0.050849039 0.55461407 6844777
0.95242226 0.050883058 0.55541211 3816494
1.1859056 0.056476027 0.55440289 14469277
1.1924702 0.055169448 0.55509555 13413771
0.89522886 0.065713324 0.55365819 7506533
0.90733141 0.06558083 0.55712944 6510129
0.91412657 0.065783255 0.5545482 8484937
0.92259693 0.066476278 0.55368149 5531989
0.93426454 0.064634994 0.55420148 7687982
0.94572896 0.060551424 0.55460131 6314304
0.9513967 0.064421639 0.55501115 3552815
1.1850097 0.068700492 0.55664837 16774088
1.1957386 0.065390699 0.55801094 15986136
1.2087436 0.06846568 0.55637068 16575177
1.2107778 0.062422834 0.55645692 9931136
0.89446437 0.076008424 0.55344844 6117177
0.9140631 0.074727379 0.55551434 6248747
0.92467415 0.074566834 0.55457354 5267265
0.93312085 0.076350704 0.55722237 4339234
0.95506144 0.072557166 0.55541104 3948596
1.1884283 0.070962928 0.55666667 16759920
1.1952822 0.072228581 0.55237061 9731920
1.2031542 0.076744393 0.55804294 10781554
1.2134759 0.078072265 0.55710518 16441777
0.86457956 0.084437191 0.5541079 16777215
0.89579135 0.086483099 0.55358297 4802352
0.90983623 0.085347854 0.5556252 2764066
0.9130432 0.085602477 0.55232126 2697249
0.92278594 0.084303804 0.55648226 3884332
0.93281138 0.085136697 0.55512321 4540981
1.1944593 0.085074686 0.5538643 7953480
1.2009054 0.088119328 0.55799592 7893330
1.2128441 0.083594553 0.55784684 16040602
1.2228895 0.085981101 0.55800098 8152660
0.81988275 0.093812704 0.5501861 16774383
0.8259517 0.093272448 0.55677271 16763802
0.8551662 0.094496727 0.55399036 14737111
0.86143357 0.09459497 0.55659723 14409937
0.87237662 0.095046431 0.55622894 15263962
0.88722301 0.0969944 0.55380881 3027494
0.89832938 0.096593536 0.55478132 6455382
0.90375465 0.095036566 0.55525655 5721144
0.91655171 0.093948022 0.55553067 2631710
0.92604941 0.092865266 0.554434 2501147
0.93206131 0.095561519 0.55446321 2435615
1.1794186 0.096007131 0.55644709 13082491
1.1834263 0.098127231 0.55286098 5077875
1.1964421 0.09656515 0.55704325 9462087
1.2051451 0.097168371 0.55367398 6844780
1.2147026 0.093095042 0.55714077 8151630
1.2261668 0.091629446 0.55808544 2699064
0.83890069 0.10469228 0.55710709 14934242
0.87429625 0.10196532 0.55590552 16777215
0.89579445 0.10655335 0.55440265 4015918
0.90353441 0.10542146 0.55419612 3421213
0.91421694 0.10556823 0.55391622 2762267
0.92750561 0.10692835 0.55441755 2237209
0.94587207 0.10347717 0.55527437 2301464
1.1794459 0.10396597 0.55640334 13346677
1.1937772 0.10303077 0.55569619 10453595
1.2021965 0.10730007 0.5565899 5791069
1.2159079 0.10380138 0.55803055 8485197
0.83386451 0.11991447 0.55320132 16777215
0.84396321 0.11732857 0.55500662 16777215
0.89018518 0.11313564 0.55286098 3158563
0.90664101 0.11373422 0.5530197 5924465
0.91643924 0.11343595 0.55523896 7497564
0.92943788 0.11659911 0.55286098 1710370
0.93570948 0.11460222 0.55515361 2563361
1.181747 0.11191712 0.55638015 9275519
1.1953903 0.11187102 0.55650336 5258804
1.2048199 0.11702327 0.55333149 6576726
1.2201738 0.11842511 0.55819148 6975078
0.85306895 0.12185656 0.55506957 8299435
0.91695428 0.12244037 0.55503476 7836569
1.1886076 0.12326382 0.55637926 12374490
1.2023772 0.12385875 0.55720818 6061458
1.2173553 0.12580603 0.55727094 9213843
1.2256908 0.12410606 0.55830681 6050635
0.89986199 0.13560933 0.55370927 7441516
0.91449887 0.13707109 0.55553305 4741752
0.94002301 0.13703547 0.55516905 16777140
0.8994211 0.14430693 0.55286098 10058409
0.91396642 0.14393884 0.55333936 2901839
0.92520827 0.14103673 0.55435747 5936051
0.93774992 0.14149882 0.55513942 5736094
0.90865701 0.15123388 0.55286098 2441323
1.252931 -0.20255613 0.56752962 1383183
0.80149925 -0.1711919 0.56289548 16777215
0.79856646 -0.16064148 0.56149942 16777215
0.88657069 -0.13985968 0.56622642 16777215
0.88230872 -0.12578829 0.56180793 16777215
0.9228543 -0.052961078 0.56297153 16777215
0.9460929 -0.054852709 0.56967628 16777215
